# .PCD v.7 - Point Cloud Data file format
VERSION .7
FIELDS x y z rgb
SIZE 4 4 4 4
TYPE F F F F
COUNT 1 1 1 1
WIDTH 1269
HEIGHT 1
VIEWPOINT 0 0 0 1 0 0 0
POINTS 1269
DATA ascii
-1.22552 -1.25119 2.33555 0
-1.20125 -1.23269 2.28929 0
-1.1972 -1.23481 2.28158 0
-1.15679 -1.19919 2.20456 0
-1.16369 -1.21243 2.21771 0
-1.15763 -1.21218 2.20617 0
-1.13723 -1.19677 2.16729 0
-1.08932 -1.15776 2.07598 0
-1.07369 -1.15801 2.0462 0
-1.11868 -1.2124 2.13194 0
-1.12031 -1.22003 2.13504 0
-1.06442 -1.16473 2.02853 0
-1.00639 -1.10651 1.91794 0
-1.0064 -0.455526 1.92804 4.60508e-39
-1.01495 -0.46474 1.94443 1.22569e-38
-1.03048 -0.477276 1.97419 1.31789e-38
-0.999798 -0.468326 1.9154 8.19856e-39
-0.997537 -0.472518 1.91107 5.80254e-39
-0.985898 -0.472193 1.88877 4.69655e-39
-0.977195 -0.473168 1.8721 5.24937e-39
-0.971429 -0.475489 1.86105 5.61815e-39
-0.978119 -0.483911 1.87387 5.89509e-39
-0.976179 -0.488089 1.87015 5.15753e-39
-0.980308 -0.495314 1.87806 5.24972e-39
-0.980813 -0.500731 1.87903 5.61923e-39
-0.966168 -0.49834 1.85098 5.25116e-39
-0.966056 -0.503366 1.85076 5.06822e-39
-0.837478 -0.445186 1.60443 1.26333e-38
-0.814364 -0.437185 1.56015 2.18525e-38
-0.811594 -0.439969 1.55484 1.28145e-38
-0.809323 -0.442998 1.55049 1.4479e-38
-0.812027 -0.448752 1.55567 1.68772e-38
-0.814125 -0.454196 1.55969 1.41023e-38
-0.8158 -0.459424 1.5629 1.41916e-38
-0.805792 -0.458029 1.54373 1.30842e-38
-0.796334 -0.456844 1.52561 1.03266e-38
-0.789487 -0.457071 1.51249 3.87543e-39
-0.787519 -0.460077 1.50872 3.05215e-39
-0.777464 -0.458295 1.48946 2.14895e-38
-0.76561 -0.455337 1.46675 2.26834e-38
-0.756535 -0.453921 1.44936 2.35088e-38
-0.749082 -0.453391 1.43508 2.35081e-38
-0.745337 -0.455048 1.42791 1.66563e-39
-0.744745 -0.458606 1.42677 2.27752e-38
-0.744804 -0.462563 1.42689 2.33262e-38
-0.74296 -0.465328 1.42336 2.33262e-38
-0.739651 -0.467148 1.41702 2.35099e-38
-0.740339 -0.471479 1.41833 2.30507e-38
-0.738021 -0.473887 1.41389 2.04707e-38
-0.737629 -0.477518 1.41314 1.65099e-38
-0.732786 -0.478239 1.40386 1.6879e-38
-0.735619 -0.48396 1.40929 1.83584e-38
-0.733061 -0.486135 1.40439 2.35099e-38
-0.735007 -0.491294 1.40812 2.31425e-38
-0.732639 -0.493567 1.40358 2.26834e-38
-0.733442 -0.497969 1.40512 2.23157e-38
-0.73132 -0.500377 1.40106 1.89062e-38
-0.731821 -0.504571 1.40202 1.59574e-38
-0.732583 -0.508952 1.40347 1.42075e-38
-0.732751 -0.512926 1.4038 1.39309e-38
-0.731852 -0.516148 1.40207 1.38387e-38
-0.731531 -0.519772 1.40146 1.47599e-38
-0.730695 -0.523024 1.39986 1.54046e-38
-0.730449 -0.526692 1.39939 1.60496e-38
-0.730269 -0.530406 1.39904 1.55893e-38
-0.731165 -0.534905 1.40076 1.45748e-38
-0.729574 -0.537581 1.39771 1.36529e-38
-0.727351 -0.539771 1.39345 1.23614e-38
-0.727557 -0.543753 1.39385 1.04246e-38
-0.729324 -0.548912 1.39723 9.31822e-39
-0.729349 -0.55277 1.39728 8.7654e-39
-0.728804 -0.556193 1.39624 9.22638e-39
-0.72603 -0.557897 1.39092 9.13491e-39
-0.724061 -0.560195 1.38715 1.04253e-38
-0.722672 -0.562924 1.38449 1.21763e-38
-0.725201 -0.56871 1.38933 1.42053e-38
-0.726422 -0.573491 1.39167 1.54961e-38
-0.726302 -0.577219 1.39144 1.58645e-38
-0.724066 -0.579253 1.38716 1.58652e-38
-0.723447 -0.582565 1.38597 1.59574e-38
-0.720835 -0.584256 1.38097 1.54964e-38
-0.722264 -0.589215 1.38371 1.5312e-38
-0.722564 -0.593263 1.38428 1.46663e-38
-0.735772 -0.60798 1.40958 1.36521e-38
-0.749099 -0.622935 1.43512 1.21774e-38
-0.756393 -0.632981 1.44909 1.21774e-38
-0.753866 -0.634834 1.44425 1.24536e-38
-0.765691 -0.648822 1.4669 1.37443e-38
-0.73494 -0.626633 1.40799 1.42064e-38
-0.736844 -0.632134 1.41164 1.6234e-38
-0.737604 -0.636669 1.41309 1.89998e-38
-0.733427 -0.636924 1.40509 2.03777e-38
-0.706196 -0.616993 1.35292 5.62573e-39
-0.718778 -0.631768 1.37703 3.04137e-39
-0.729181 -0.644749 1.39696 2.76585e-39
-0.709003 -0.630639 1.3583 3.4105e-39
-0.69348 -0.620482 1.32856 3.4991e-39
-0.695467 -0.651543 1.33237 6.4443e-39
-0.714011 -0.672674 1.3679 6.72017e-39
-0.721566 -0.683589 1.38237 5.98513e-39
-0.718627 -0.684587 1.37674 2.48279e-39
-0.720464 -0.693921 1.38026 1.29037e-39
-0.721693 -0.698903 1.38261 1.19818e-39
-0.72083 -0.701861 1.38096 0
-0.721591 -0.7064 1.38242 0
-0.725183 -0.713733 1.3893 0
-0.722835 -0.715227 1.3848 0
-0.722473 -0.718671 1.38411 0
-0.704812 -0.704812 1.35027 0
-0.691813 -0.695454 1.32537 0
-1.2119 -1.23741 2.32174 0
-1.14523 -1.17537 2.19402 0
-1.15914 -1.19574 2.22067 0
-1.14969 -1.19204 2.20256 0
-1.18522 -1.23513 2.27064 0
-1.11854 -1.1833 2.14289 0
-1.10367 -1.17338 2.1144 0
-1.08234 -1.17918 2.07353 0
-1.05843 -1.1587 2.02772 0
-1.05958 -1.16554 2.02993 0
-1.06142 -1.17315 2.03347 0
-1.16963 0.934467 2.25262 2.34173e-38
-0.690172 0.0693824 1.32922 4.70089e-39
-1.00237 -0.4508 1.93048 2.2098e-39
-0.99746 -0.453871 1.92104 5.34156e-39
-1.00636 -0.463245 1.93817 1.20725e-38
-1.01476 -0.472479 1.95435 1.34551e-38
-0.997774 -0.469851 1.92164 8.38295e-39
-0.989927 -0.471394 1.90653 5.06533e-39
-0.989229 -0.476295 1.90518 4.88058e-39
-0.970676 -0.472498 1.86945 5.25045e-39
-0.969835 -0.47722 1.86783 5.98801e-39
-0.954619 -0.474784 1.83853 5.61815e-39
-0.976986 -0.491078 1.8816 5.24972e-39
-0.984167 -0.499894 1.89543 5.34192e-39
-0.973098 -0.499421 1.87411 5.7107e-39
-0.956868 -0.496154 1.84286 5.80289e-39
-0.815036 -0.435548 1.5697 2.3234e-38
-0.807545 -0.435818 1.55527 2.32297e-38
-0.806095 -0.4393 1.55248 1.64026e-38
-0.80535 -0.443156 1.55105 1.927e-38
-0.809371 -0.449651 1.55879 2.03745e-38
-0.812869 -0.455895 1.56552 1.70435e-38
-0.814362 -0.461041 1.5684 1.57539e-38
-0.803069 -0.458897 1.54665 1.35415e-38
-0.792022 -0.456775 1.52538 8.93683e-39
-0.783931 -0.456256 1.50979 5.99556e-39
-0.783215 -0.459984 1.50841 3.69429e-39
-0.773252 -0.458224 1.48923 2.1765e-38
-0.764012 -0.45679 1.47143 2.35099e-38
-0.753854 -0.454706 1.45187 2.35092e-38
-0.746085 -0.453967 1.4369 2.01879e-38
-0.741466 -0.45508 1.42801 7.19006e-42
-0.739849 -0.458002 1.42489 2.1765e-38
-0.740118 -0.462084 1.42541 2.35095e-38
-0.738716 -0.465118 1.42271 2.31418e-38
-0.735765 -0.467152 1.41703 2.33262e-38
-0.737145 -0.471929 1.41969 2.31425e-38
-0.735305 -0.474641 1.41614 2.01019e-38
-0.7345 -0.478008 1.41459 1.62336e-38
-0.728752 -0.478123 1.40352 1.72478e-38
-0.730611 -0.483208 1.4071 1.19962e-38
-0.729068 -0.486046 1.40413 2.32337e-38
-0.730988 -0.491193 1.40783 2.29585e-38
-0.72862 -0.493457 1.40327 2.26834e-38
-0.729912 -0.498194 1.40576 2.15781e-38
-0.728402 -0.501018 1.40285 1.79835e-38
-0.728593 -0.505004 1.40322 1.44823e-38
-0.728039 -0.508471 1.40215 1.34699e-38
-0.727167 -0.51171 1.40047 1.34699e-38
-0.725924 -0.514676 1.39808 1.38387e-38
-0.727365 -0.519547 1.40085 1.52209e-38
-0.729087 -0.524634 1.40417 1.59585e-38
-0.727786 -0.527549 1.40166 1.61429e-38
-0.727263 -0.531017 1.40065 1.51287e-38
-0.726674 -0.534432 1.39952 1.33763e-38
-0.72539 -0.537326 1.39705 1.15316e-38
-0.723243 -0.539563 1.39291 1.05178e-38
-0.723788 -0.543799 1.39396 8.85724e-39
-0.725375 -0.548829 1.39702 8.21151e-39
-0.725566 -0.552812 1.39739 9.13453e-39
-0.725794 -0.556826 1.39782 9.77992e-39
-0.724129 -0.55938 1.39462 1.10707e-38
-0.721563 -0.561216 1.38968 1.22692e-38
-0.720038 -0.563839 1.38674 1.38358e-38
-0.721272 -0.568622 1.38912 1.45741e-38
-0.722787 -0.573641 1.39204 1.62336e-38
-0.721757 -0.576642 1.39005 1.60489e-38
-0.719701 -0.578807 1.38609 1.60489e-38
-0.719273 -0.582268 1.38527 1.59574e-38
-0.718648 -0.585565 1.38406 1.52198e-38
-0.720295 -0.590718 1.38723 1.44823e-38
-0.719613 -0.593966 1.38592 1.29146e-38
-0.73003 -0.606427 1.40598 1.22692e-38
-0.742415 -0.620643 1.42984 1.11632e-38
-0.74915 -0.630237 1.44281 1.14398e-38
-0.770625 -0.652381 1.48417 1.29149e-38
-0.722746 -0.619496 1.39195 1.41135e-38
-0.725357 -0.625573 1.39698 1.58652e-38
-0.732532 -0.635637 1.4108 1.9092e-38
-0.732993 -0.639914 1.41169 1.96398e-38
-0.702006 -0.616577 1.35201 8.66818e-39
-0.713033 -0.630035 1.37325 2.94917e-39
-0.720169 -0.64015 1.38699 3.59597e-39
-0.715582 -0.639859 1.37816 3.22862e-39
-0.70063 -0.659853 1.34936 6.16771e-39
-0.713112 -0.675381 1.3734 6.44323e-39
-0.726129 -0.691551 1.39847 5.70747e-39
-0.722105 -0.69154 1.39072 2.5757e-39
-0.718713 -0.692094 1.38419 1.65772e-39
-0.716984 -0.694222 1.38086 1.47404e-39
-0.715357 -0.696433 1.37773 1.01378e-39
-0.714591 -0.699468 1.37625 0
-0.715207 -0.703854 1.37743 0
-0.719402 -0.711789 1.38551 0
-0.719856 -0.716047 1.38639 0
-0.714204 -0.714204 1.3755 0
-0.69959 -0.703291 1.34736 0
-0.698504 -0.705896 1.34527 0
-0.698184 -0.709266 1.34465 0
-1.14505 -1.17534 2.20527 0
-1.18155 -1.21906 2.27558 0
-1.14016 -1.18239 2.19587 0
-1.10367 -1.15039 2.12559 0
-1.12278 -1.18218 2.16239 0
-1.09745 -1.16132 2.1136 0
-1.10405 -1.17415 2.12632 0
-1.11725 -1.21774 2.15174 0
-1.06107 -1.16773 2.04354 0
-1.0593 -1.1714 2.04014 0
-0.372423 0.419967 0.721075 0
-1.47965 0.118058 2.86486 4.79344e-39
-0.70736 0.0301004 1.36957 7.19161e-39
-1.00117 -0.457981 1.93843 5.61923e-39
-0.994776 -0.460348 1.92606 1.19811e-38
-1.00646 -0.471107 1.94867 1.41008e-38
-0.997844 -0.472384 1.932 8.38367e-39
-1.00205 -0.479706 1.94014 4.88166e-39
-0.998856 -0.483489 1.93395 4.78946e-39
-0.970188 -0.474773 1.87845 5.25045e-39
-0.992751 -0.496375 1.92213 5.71142e-39
-0.988526 -0.499521 1.91395 5.25044e-39
-0.989168 -0.505107 1.9152 5.06533e-39
-0.986818 -0.509156 1.91065 5.34192e-39
-0.964288 -0.502661 1.86703 5.34299e-39
-0.811543 -0.431672 1.57128 3.59419e-39
-0.806729 -0.433402 1.56196 2.35088e-38
-0.802745 -0.435532 1.55425 1.15025e-38
-0.802008 -0.439398 1.55282 1.78719e-38
-0.80185 -0.443577 1.55252 2.21226e-38
-0.807394 -0.450938 1.56325 2.26729e-38
-0.811741 -0.457684 1.57167 1.83235e-38
-0.812012 -0.462156 1.57219 2.12748e-38
-0.799056 -0.459032 1.54711 1.85126e-38
-0.78693 -0.456252 1.52363 1.16998e-38
-0.778812 -0.455688 1.50791 5.72077e-39
-0.778569 -0.459687 1.50744 2.86813e-39
-0.77131 -0.459504 1.49339 2.15813e-38
-0.761653 -0.457802 1.47469 2.33255e-38
-0.749083 -0.454231 1.45035 2.35088e-38
-0.741908 -0.453827 1.43646 1.30881e-38
-0.737578 -0.455101 1.42808 7.90472e-42
-0.737145 -0.458755 1.42724 1.88194e-38
-0.73712 -0.46266 1.42719 2.31425e-38
-0.736364 -0.466103 1.42573 2.32344e-38
-0.732361 -0.467465 1.41798 2.33262e-38
-0.731242 -0.47064 1.41581 2.31425e-38
-0.730915 -0.474317 1.41518 2.02863e-38
-0.730859 -0.478168 1.41507 1.62329e-38
-0.725742 -0.478681 1.40516 1.18093e-38
-0.724908 -0.481987 1.40355 2.24997e-38
-0.723908 -0.485173 1.40161 2.34177e-38
-0.727664 -0.49156 1.40888 2.31425e-38
-0.726026 -0.494315 1.40571 2.22227e-38
-0.726274 -0.498348 1.40619 2.26834e-38
-0.72348 -0.500279 1.40078 1.77992e-38
-0.724617 -0.50492 1.40298 1.42979e-38
-0.724543 -0.508722 1.40284 1.31933e-38
-0.723511 -0.511845 1.40084 1.38387e-38
-0.722748 -0.51515 1.39936 1.50365e-38
-0.723649 -0.519642 1.40111 1.62351e-38
-0.725826 -0.525065 1.40532 1.63273e-38
-0.724781 -0.528165 1.4033 1.56815e-38
-0.724845 -0.532067 1.40342 1.48521e-38
-0.723368 -0.534831 1.40056 1.23621e-38
-0.721529 -0.537309 1.397 1.01491e-38
-0.718945 -0.539209 1.392 9.22603e-39
-0.719102 -0.543151 1.3923 8.4881e-39
-0.720535 -0.548067 1.39508 8.21151e-39
-0.71955 -0.551145 1.39317 9.04234e-39
-0.719606 -0.555015 1.39328 1.05175e-38
-0.719789 -0.558985 1.39363 1.18082e-38
-0.720652 -0.563488 1.3953 1.36521e-38
-0.719953 -0.566772 1.39395 1.50351e-38
-0.719839 -0.570511 1.39373 1.58648e-38
-0.718736 -0.57346 1.3916 1.65102e-38
-0.718633 -0.5772 1.3914 1.61414e-38
-0.716809 -0.579548 1.38786 1.60492e-38
-0.716933 -0.583461 1.3881 1.54039e-38
-0.716592 -0.586996 1.38744 1.4206e-38
-0.717655 -0.591684 1.3895 1.3099e-38
-0.718432 -0.596146 1.39101 1.19004e-38
-0.725536 -0.605899 1.40476 1.13472e-38
-0.735426 -0.618071 1.42391 1.12554e-38
-0.750189 -0.634469 1.45249 1.30071e-38
-0.712146 -0.613658 1.37884 1.44823e-38
-0.73666 -0.6387 1.4263 1.78938e-38
-0.718927 -0.627149 1.39197 1.93675e-38
-0.720513 -0.632366 1.39504 1.99164e-38
-0.7032 -0.620911 1.36152 9.22136e-39
-0.703728 -0.62512 1.36254 3.50342e-39
-0.713703 -0.637777 1.38185 3.50413e-39
-0.719989 -0.647225 1.39402 7.56325e-39
-0.703043 -0.661907 1.36121 6.25991e-39
-0.705798 -0.672009 1.36654 5.61635e-39
-0.72107 -0.690387 1.39612 4.78551e-39
-0.720858 -0.694017 1.3957 1.93106e-39
-0.71665 -0.693779 1.38756 1.47332e-39
-0.714715 -0.695706 1.38381 1.47404e-39
-0.713057 -0.697885 1.3806 1.28965e-39
-0.713775 -0.702385 1.38199 0
-0.713035 -0.70545 1.38056 0
-0.716103 -0.712294 1.3865 0
-0.715936 -0.715936 1.38617 0
-0.710651 -0.714431 1.37594 0
-0.702784 -0.710261 1.36071 0
-0.700627 -0.711807 1.35653 0
-1.19454 -1.23266 2.31283 0
-1.15682 -1.20605 2.2398 0
-1.11802 -1.18938 2.16467 0
-1.08152 -1.16206 2.094 0
-1.11965 -1.20898 2.16783 0
-1.10108 -1.19479 2.13188 0
-1.09472 -1.19954 2.11957 0
-1.01038 -1.11787 1.95627 0
-1.06682 -1.18598 2.06554 0
-0.982864 -1.10311 1.90299 0
-2.13306 2.3726 4.15205 0
-0.863895 0.309524 1.68159 4.05552e-39
-1.00322 -0.461373 1.95279 5.98801e-39
-1.00292 -0.4666 1.95221 1.27172e-38
-1.01051 -0.480936 1.96697 7.55426e-39
-0.987661 -0.475345 1.92251 5.1579e-39
-0.991287 -0.482391 1.92956 4.69727e-39
-0.989189 -0.48666 1.92548 5.4352e-39
-1.0056 -0.500111 1.95743 5.25081e-39
-1.00126 -0.503308 1.94898 5.52703e-39
-0.996648 -0.506318 1.94 4.60507e-39
-0.983364 -0.504829 1.91414 5.24972e-39
-0.960003 -0.49797 1.86867 5.25115e-39
-0.802124 -0.428943 1.56135 2.35085e-38
-0.798673 -0.431369 1.55464 2.35038e-38
-0.796851 -0.434646 1.55109 9.73932e-39
-0.796981 -0.438979 1.55134 1.47276e-38
-0.798746 -0.444222 1.55478 1.52825e-38
-0.804043 -0.451468 1.56509 1.53747e-38
-0.80728 -0.457602 1.57139 1.29661e-38
-0.805298 -0.460785 1.56753 1.50851e-38
-0.793551 -0.458307 1.54467 1.06702e-38
-0.782416 -0.456061 1.52299 8.74595e-39
-0.774345 -0.455497 1.50728 5.5353e-39
-0.773776 -0.4593 1.50617 3.238e-39
-0.767727 -0.459815 1.4944 2.2316e-38
-0.759165 -0.458747 1.47773 2.33255e-38
-0.745045 -0.454199 1.45025 2.33255e-38
-0.738011 -0.453857 1.43656 1.84376e-38
-0.73469 -0.455743 1.43009 1.94438e-39
-0.734315 -0.459438 1.42936 2.05679e-38
-0.733197 -0.462659 1.42718 2.32344e-38
-0.733409 -0.466715 1.4276 2.34181e-38
-0.729503 -0.46813 1.41999 2.33262e-38
-0.728164 -0.471165 1.41739 2.32344e-38
-0.725965 -0.473625 1.41311 2.03785e-38
-0.725802 -0.477399 1.41279 1.5956e-38
-0.723073 -0.479471 1.40748 1.64191e-38
-0.720851 -0.481852 1.40315 2.29589e-38
-0.72042 -0.485416 1.40231 2.30507e-38
-0.721912 -0.490283 1.40522 2.13001e-38
-0.722585 -0.494604 1.40653 2.22235e-38
-0.722258 -0.498242 1.40589 2.2867e-38
-0.719635 -0.500281 1.40079 1.30064e-38
-0.721076 -0.505139 1.40359 1.3283e-38
-0.720253 -0.508414 1.40199 1.32855e-38
-0.720467 -0.512418 1.40241 1.47596e-38
-0.717543 -0.514175 1.39672 1.59574e-38
-0.718911 -0.519 1.39938 1.69719e-38
-0.719574 -0.523327 1.40067 1.67875e-38
-0.720142 -0.52759 1.40177 1.51283e-38
-0.720495 -0.531702 1.40246 1.30082e-38
-0.720757 -0.535749 1.40297 1.02406e-38
-0.718819 -0.538153 1.3992 8.58173e-39
-0.716707 -0.540405 1.39509 7.65798e-39
-0.715969 -0.543677 1.39365 8.21151e-39
-0.717237 -0.548476 1.39612 8.94908e-39
-0.716918 -0.552065 1.3955 1.03335e-38
-0.716967 -0.555937 1.39559 1.23618e-38
-0.71739 -0.560101 1.39642 1.38365e-38
-0.71844 -0.564763 1.39846 1.51273e-38
-0.717 -0.567465 1.39566 1.60492e-38
-0.716515 -0.570913 1.39471 1.63258e-38
-0.714585 -0.573197 1.39096 1.6418e-38
-0.71487 -0.577248 1.39151 1.62336e-38
-0.71328 -0.579778 1.38842 1.51273e-38
-0.714175 -0.584325 1.39016 1.43897e-38
-0.712917 -0.587108 1.38771 1.3099e-38
-0.713292 -0.591231 1.38844 1.20848e-38
-0.71399 -0.595628 1.3898 1.07019e-38
-0.720406 -0.604833 1.40229 1.13472e-38
-0.730342 -0.61708 1.42163 1.2638e-38
-0.740773 -0.629855 1.44193 1.4667e-38
-0.74684 -0.639008 1.45374 1.47592e-38
-0.713209 -0.61786 1.38828 1.44823e-38
-0.711927 -0.620557 1.38578 1.77091e-38
-0.726764 -0.637376 1.41466 1.93668e-38
-0.723446 -0.638335 1.40821 1.98246e-38
-0.714449 -0.634217 1.39069 9.86637e-39
-0.730188 -0.652093 1.42133 4.14879e-39
-0.719839 -0.6467 1.40118 1.01665e-39
-0.707318 -0.639234 1.37681 7.65401e-39
-0.70633 -0.642118 1.37489 1.56874e-39
-0.708009 -0.673934 1.37816 6.07552e-39
-0.689111 -0.65963 1.34137 6.16736e-39
-0.711385 -0.688559 1.38473 1.74847e-39
-0.710197 -0.691208 1.38242 1.38113e-39
-0.708828 -0.693666 1.37975 1.56552e-39
-0.708746 -0.697375 1.37959 1.47332e-39
-0.709351 -0.701765 1.38077 0
-0.710492 -0.706693 1.38299 0
-0.711789 -0.711789 1.38551 0
-0.71173 -0.715536 1.3854 0
-0.71082 -0.718422 1.38363 0
-0.709361 -0.720742 1.38079 0
-0.707922 -0.723065 1.37799 0
-1.15174 -1.20102 2.2419 0
-1.1092 -1.16259 2.15909 0
-1.13825 -1.21129 2.21562 0
-1.08948 -1.17687 2.12069 0
-1.07393 -1.16582 2.09044 0
-1.09469 -1.20006 2.13084 0
-1.05433 -1.16145 2.05227 0
-1.05582 -1.17439 2.05518 0
-0.995146 -1.11222 1.93708 0
-0.991794 -1.11908 1.93055 0
-0.722025 0.768607 1.413 6.1746e-39
-1.35805 0.167931 2.6577 6.17746e-39
-0.998456 -0.461652 1.95397 6.17061e-39
-0.996127 -0.46593 1.94941 1.41916e-38
-1.01143 -0.478524 1.97935 1.08733e-38
-0.988607 -0.473043 1.93469 6.90889e-39
-0.986247 -0.482519 1.93007 4.4214e-39
-1.00615 -0.497667 1.96903 5.15897e-39
-0.983151 -0.491576 1.92402 5.34336e-39
-1.01547 -0.513192 1.98726 5.16004e-39
-0.991547 -0.506435 1.94045 4.78947e-39
-0.970173 -0.500734 1.89862 4.88202e-39
-0.809181 -0.430693 1.58356 6.81997e-39
-0.797104 -0.428551 1.55992 2.35092e-38
-0.7955 -0.431965 1.55678 2.34984e-38
-0.793761 -0.435288 1.55338 1.78601e-38
-0.793885 -0.439624 1.55362 2.07275e-38
-0.79597 -0.445058 1.5577 2.04559e-38
-0.80068 -0.451997 1.56692 1.66673e-38
-0.802546 -0.457365 1.57057 1.67454e-38
-0.798655 -0.459441 1.56296 1.38848e-38
-0.787932 -0.457509 1.54197 1.23261e-38
-0.777835 -0.455828 1.52222 7.73217e-39
-0.770342 -0.455579 1.50755 8.11643e-39
-0.766874 -0.45765 1.50076 6.36761e-39
-0.760281 -0.457804 1.48786 2.31425e-38
-0.753721 -0.457906 1.47502 2.35099e-38
-0.743686 -0.455808 1.45539 2.31411e-38
-0.736403 -0.455303 1.44113 9.12733e-39
-0.730955 -0.455865 1.43047 1.89055e-38
-0.729967 -0.459173 1.42854 2.20405e-38
-0.72793 -0.461805 1.42455 2.31425e-38
-0.728229 -0.46591 1.42514 2.30507e-38
-0.72413 -0.46718 1.41711 2.33262e-38
-0.721696 -0.46949 1.41235 2.31425e-38
-0.71993 -0.472212 1.40889 2.08394e-38
-0.719809 -0.476002 1.40866 1.54935e-38
-0.71959 -0.479727 1.40823 1.51262e-38
-0.717311 -0.482064 1.40377 2.26834e-38
-0.718135 -0.486479 1.40538 2.24997e-38
-0.718669 -0.490704 1.40643 1.81676e-38
-0.71901 -0.494803 1.4071 2.26834e-38
-0.717256 -0.497452 1.40366 2.2867e-38
-0.714187 -0.499163 1.39766 1.30986e-38
-0.715475 -0.50391 1.40018 1.30071e-38
-0.716007 -0.508134 1.40122 1.37454e-38
-0.716512 -0.512345 1.40221 1.54971e-38
-0.713942 -0.514345 1.39718 1.72478e-38
-0.713848 -0.518116 1.39699 1.6879e-38
-0.713922 -0.522008 1.39714 1.57719e-38
-0.713409 -0.525468 1.39613 1.42975e-38
-0.713187 -0.529139 1.3957 1.11636e-38
-0.71492 -0.534268 1.39909 8.67358e-39
-0.715032 -0.538196 1.39931 7.56758e-39
-0.713247 -0.540687 1.39582 7.84238e-39
-0.711902 -0.543495 1.39319 9.59409e-39
-0.712321 -0.547644 1.394 9.7792e-39
-0.713302 -0.552234 1.39592 1.14394e-38
-0.713653 -0.556343 1.39661 1.42975e-38
-0.714842 -0.561113 1.39894 1.54961e-38
-0.71385 -0.564172 1.397 1.61414e-38
-0.712485 -0.566924 1.39433 1.63258e-38
-0.710172 -0.568902 1.3898 1.65102e-38
-0.708121 -0.571065 1.38578 1.63258e-38
-0.708766 -0.575396 1.38705 1.53117e-38
-0.70859 -0.579063 1.3867 1.39287e-38
-0.710961 -0.584823 1.39134 1.29146e-38
-0.710959 -0.588644 1.39134 1.14394e-38
-0.711678 -0.593065 1.39275 1.14394e-38
-0.712309 -0.597421 1.39398 1.07019e-38
-0.714781 -0.603337 1.39882 1.28224e-38
-0.729302 -0.619514 1.42724 1.41138e-38
-0.740845 -0.633303 1.44983 1.5128e-38
-0.708816 -0.617356 1.38715 1.40213e-38
-0.710285 -0.622454 1.39002 1.70644e-38
-0.707495 -0.623813 1.38456 1.90902e-38
-0.716515 -0.635618 1.40221 2.07473e-38
-0.722477 -0.644792 1.41388 9.12881e-39
-0.726322 -0.652128 1.4214 3.9644e-39
-0.720503 -0.650777 1.41002 9.2199e-39
-0.70567 -0.641173 1.38099 1.20032e-39
-0.679154 -0.620732 1.3291 1.84425e-39
-0.789179 -0.729778 1.54441 2.21159e-39
-0.709166 -0.678664 1.38783 6.53649e-39
-0.69765 -0.675145 1.36529 4.50785e-39
-0.703487 -0.684576 1.37672 1.74847e-39
-0.70526 -0.690093 1.38019 1.47332e-39
-0.705176 -0.693802 1.38002 1.47332e-39
-0.703828 -0.69626 1.37738 1.38113e-39
-0.70621 -0.702413 1.38205 0
-0.707622 -0.707622 1.38481 0
-0.708614 -0.712424 1.38675 0
-0.708136 -0.71575 1.38581 0
-0.708345 -0.71977 1.38622 0
-0.70643 -0.721622 1.38248 0
-0.707458 -0.726476 1.38449 0
-1.11046 -1.16419 2.17315 0
-1.10165 -1.16088 2.15592 0
-1.14234 -1.2099 2.23555 0
-1.12611 -1.19877 2.20379 0
-1.10259 -1.17965 2.15775 0
-1.09138 -1.18526 2.13582 0
-1.08216 -1.18688 2.11777 0
-1.07897 -1.18918 2.11153 0
-1.07604 -1.19175 2.1058 0
-1.04719 -1.16542 2.04933 0
-1.04723 -1.1711 2.04942 0
-0.788681 0.174789 1.55178 1.53985e-38
-0.629936 0.0170253 1.23944 8.85042e-39
-1.00411 -0.466777 1.97566 5.15861e-39
-1.01735 -0.478431 2.00171 1.53916e-38
-0.993855 -0.472753 1.95548 9.02939e-39
-1.01493 -0.488264 1.99695 6.35572e-39
-0.971872 -0.472802 1.91222 4.69619e-39
-0.969277 -0.482019 1.90712 5.25044e-39
-0.967371 -0.4863 1.90337 5.34264e-39
-0.976732 -0.496285 1.92179 5.25009e-39
-0.979728 -0.503104 1.92768 5.61815e-39
-0.980036 -0.508559 1.92829 4.78946e-39
-0.796459 -0.426213 1.56709 2.35092e-38
-0.791596 -0.42789 1.55752 2.32344e-38
-0.789629 -0.431095 1.55365 1.33648e-38
-0.78868 -0.43484 1.55178 9.2149e-39
-0.790083 -0.439884 1.55454 1.80689e-38
-0.793502 -0.446077 1.56127 1.79752e-38
-0.797929 -0.452879 1.56998 1.44682e-38
-0.798496 -0.457516 1.57109 1.85165e-38
-0.794087 -0.459283 1.56242 1.94338e-38
-0.782097 -0.456575 1.53883 1.67591e-38
-0.772572 -0.455191 1.52009 9.02867e-39
-0.763877 -0.454197 1.50298 9.58869e-39
-0.761003 -0.456602 1.49732 8.66855e-39
-0.752966 -0.45585 1.48151 2.34177e-38
-0.749562 -0.457841 1.47481 2.29578e-38
-0.741813 -0.457117 1.45957 2.35099e-38
-0.734234 -0.456416 1.44466 1.90852e-38
-0.726945 -0.455814 1.43031 2.30507e-38
-0.725382 -0.458755 1.42724 2.30503e-38
-0.722482 -0.460826 1.42153 2.30507e-38
-0.722689 -0.464865 1.42194 2.31425e-38
-0.717941 -0.465692 1.4126 2.34181e-38
-0.716812 -0.468834 1.41038 2.31425e-38
-0.713889 -0.470781 1.40462 2.07473e-38
-0.714754 -0.475215 1.40633 1.50318e-38
-0.714043 -0.478602 1.40493 1.75211e-38
-0.713952 -0.4824 1.40475 2.24997e-38
-0.714033 -0.486314 1.40491 1.80754e-38
-0.714237 -0.490314 1.40531 1.8813e-38
-0.713295 -0.493523 1.40346 2.25915e-38
-0.711008 -0.495784 1.39896 2.14848e-38
-0.708562 -0.497909 1.39414 1.3744e-38
-0.709554 -0.502441 1.3961 1.40206e-38
-0.71016 -0.506709 1.39729 1.53124e-38
-0.711535 -0.511536 1.39999 1.72481e-38
-0.710426 -0.514579 1.39781 1.734e-38
-0.711135 -0.518937 1.39921 1.56804e-38
-0.709645 -0.521685 1.39627 1.37443e-38
-0.708904 -0.524972 1.39482 1.14394e-38
-0.70815 -0.528242 1.39333 9.87247e-39
-0.710555 -0.533877 1.39807 7.28991e-39
-0.709802 -0.537147 1.39658 7.38246e-39
-0.709071 -0.540427 1.39515 8.85725e-39
-0.707321 -0.542917 1.3917 1.0332e-38
-0.708932 -0.547985 1.39487 1.18082e-38
-0.709957 -0.552615 1.39689 1.31912e-38
-0.711248 -0.557465 1.39943 1.54039e-38
-0.711691 -0.561659 1.4003 1.65099e-38
-0.710503 -0.564562 1.39796 1.66024e-38
-0.708792 -0.567034 1.3946 1.66946e-38
-0.706723 -0.569198 1.39052 1.62336e-38
-0.704814 -0.571471 1.38677 1.52195e-38
-0.703926 -0.574556 1.38502 1.42053e-38
-0.703263 -0.577816 1.38372 1.25458e-38
-0.705999 -0.58388 1.3891 1.18082e-38
-0.708087 -0.589435 1.39321 1.09785e-38
-0.70947 -0.59442 1.39593 1.13472e-38
-0.708816 -0.597704 1.39464 1.22692e-38
-0.712252 -0.604452 1.4014 1.42053e-38
-0.725576 -0.619682 1.42762 1.5128e-38
-0.725488 -0.623528 1.42745 1.50358e-38
-0.731346 -0.636469 1.43897 1.38373e-38
-0.710203 -0.625747 1.39737 1.73407e-38
-0.706829 -0.626595 1.39073 1.94597e-38
-0.709748 -0.633018 1.39648 2.01019e-38
-0.719652 -0.645742 1.41596 6.91467e-39
-0.721177 -0.651008 1.41896 7.09867e-39
-0.712777 -0.647279 1.40244 3.5052e-39
-0.707633 -0.646433 1.39232 2.21231e-39
-0.712168 -0.685221 1.40124 6.62869e-39
-0.699441 -0.680537 1.3762 3.77208e-39
-0.703949 -0.688728 1.38507 2.02505e-39
-0.70116 -0.68979 1.37958 1.84211e-39
-0.700698 -0.693123 1.37867 1.28893e-39
-0.700696 -0.696908 1.37867 1.56552e-39
-0.70171 -0.70171 1.38066 0
-0.702788 -0.706587 1.38278 0
-0.702632 -0.710228 1.38248 0
-0.702663 -0.714057 1.38254 0
-0.699946 -0.71508 1.37719 0
-0.698368 -0.717243 1.37409 0
-0.695154 -0.717699 1.36776 0
-1.10436 -1.17003 2.17291 0
-1.07909 -1.16076 2.12319 0
-1.08865 -1.18869 2.142 0
-1.07466 -1.17922 2.11446 0
-1.09605 -1.20861 2.15655 0
-1.06643 -1.18171 2.09826 0
-1.07203 -1.19371 2.10928 0
-1.02121 -1.14817 2.00931 0
-1.03544 -1.16976 2.03729 0
-1.02433 -1.16275 2.01544 0
-1.00129 -0.462554 1.98082 2.30199e-39
-1.00093 -0.467824 1.98009 4.32885e-39
-0.990381 -0.468278 1.95923 1.88028e-38
-1.01602 -0.485922 2.00995 7.7383e-39
-0.976678 -0.472415 1.93212 6.44791e-39
-0.971078 -0.474984 1.92104 4.88058e-39
-1.01441 -0.501693 2.00677 4.42068e-39
-1.00652 -0.503262 1.99117 5.06568e-39
-0.959671 -0.485051 1.89848 5.61923e-39
-0.966465 -0.493738 1.91192 5.52739e-39
-0.95842 -0.494836 1.896 5.15861e-39
-0.792591 -0.422141 1.56795 1.79839e-38
-0.790106 -0.425111 1.56304 2.18568e-38
-0.786703 -0.427556 1.5563 1.36507e-38
-0.785974 -0.431431 1.55486 7.19161e-39
-0.785199 -0.435274 1.55333 1.01426e-38
-0.787711 -0.440947 1.5583 1.19879e-38
-0.791371 -0.447297 1.56554 1.00475e-38
-0.795682 -0.454057 1.57407 1.1519e-38
-0.794656 -0.457791 1.57204 1.14257e-38
-0.789779 -0.459273 1.56239 1.23469e-38
-0.777065 -0.456103 1.53724 1.0041e-38
-0.767258 -0.454517 1.51784 5.52704e-39
-0.758499 -0.45345 1.50051 7.74011e-39
-0.756244 -0.456212 1.49605 1.98221e-38
-0.749797 -0.456398 1.48329 2.35099e-38
-0.74714 -0.458842 1.47804 2.35092e-38
-0.739996 -0.458476 1.4639 2.28649e-38
-0.731022 -0.456889 1.44615 2.3418e-38
-0.722886 -0.455733 1.43006 2.29589e-38
-0.720425 -0.458097 1.42519 2.31425e-38
-0.718974 -0.461081 1.42232 2.31425e-38
-0.718583 -0.464736 1.42155 2.34177e-38
-0.714545 -0.466008 1.41356 2.33262e-38
-0.711995 -0.468214 1.40851 2.31425e-38
-0.709683 -0.470551 1.40394 2.14837e-38
-0.710089 -0.474679 1.40474 1.49404e-38
-0.709426 -0.478092 1.40343 1.98267e-38
-0.709756 -0.482171 1.40408 2.24079e-38
-0.710189 -0.486325 1.40494 1.57698e-38
-0.70997 -0.490033 1.40451 2.22242e-38
-0.708392 -0.492794 1.40138 2.26834e-38
-0.706241 -0.495137 1.39713 1.90881e-38
-0.70475 -0.497922 1.39418 1.35596e-38
-0.705005 -0.501933 1.39468 1.50347e-38
-0.704982 -0.505748 1.39464 1.77102e-38
-0.706339 -0.51056 1.39732 1.78013e-38
-0.708012 -0.515618 1.40063 1.70634e-38
-0.708448 -0.519786 1.4015 1.43897e-38
-0.707806 -0.523161 1.40023 1.22685e-38
-0.706615 -0.526121 1.39787 8.67285e-39
-0.705909 -0.529432 1.39647 7.65905e-39
-0.706197 -0.533486 1.39704 6.7371e-39
-0.704308 -0.535887 1.39331 8.11968e-39
-0.703737 -0.539277 1.39217 1.00554e-38
-0.702521 -0.542163 1.38977 1.12551e-38
-0.704116 -0.547221 1.39293 1.41135e-38
-0.705174 -0.551875 1.39502 1.49432e-38
-0.705134 -0.555676 1.39494 1.56808e-38
-0.704992 -0.559396 1.39466 1.6695e-38
-0.703949 -0.562394 1.39259 1.66946e-38
-0.70444 -0.566615 1.39357 1.62336e-38
-0.70297 -0.569253 1.39066 1.54039e-38
-0.701795 -0.572116 1.38833 1.43897e-38
-0.699149 -0.573758 1.3831 1.24536e-38
-0.698904 -0.577355 1.38261 1.14394e-38
-0.701183 -0.583049 1.38712 1.06097e-38
-0.704574 -0.589698 1.39383 1.12551e-38
-0.706215 -0.594909 1.39708 1.2638e-38
-0.705396 -0.598053 1.39546 1.35599e-38
-0.706928 -0.603194 1.39849 1.47592e-38
-0.712079 -0.611459 1.40868 1.51287e-38
-0.734944 -0.635087 1.45391 1.45748e-38
-0.720515 -0.626535 1.42537 1.38376e-38
-0.675368 -0.590947 1.33605 1.35614e-38
-0.70075 -0.620773 1.38627 1.70648e-38
-0.708647 -0.63162 1.40189 1.92754e-38
-0.719131 -0.644873 1.42263 2.07473e-38
-0.722418 -0.651747 1.42913 3.41123e-39
-0.712518 -0.646688 1.40955 4.2406e-39
-0.719576 -0.657005 1.42351 3.87218e-39
-0.706524 -0.648927 1.39769 2.39598e-39
-0.698341 -0.645207 1.3815 2.30415e-39
-0.707268 -0.657298 1.39916 2.30271e-39
-1.52295 -1.44018 3.01278 5.80253e-39
-0.706443 -0.687246 1.39753 5.98548e-39
-0.706611 -0.69125 1.39786 3.58913e-39
-0.702502 -0.691048 1.38973 2.11581e-39
-0.697856 -0.690271 1.38054 1.93322e-39
-0.69989 -0.696086 1.38456 1.47332e-39
-0.700416 -0.700416 1.38561 1.47332e-39
-0.702087 -0.705903 1.38891 0
-0.701626 -0.709253 1.388 0
-0.6997 -0.711108 1.38419 0
-0.695561 -0.710681 1.376 0
-0.694498 -0.71337 1.3739 0
-0.689553 -0.712039 1.36412 0
-0.687459 -0.713612 1.35997 0
-1.14524 -1.21371 2.26558 0
-1.13843 -1.21267 2.25211 0
-1.08224 -1.15871 2.14096 0
-1.0726 -1.15421 2.12189 0
-1.08959 -1.17841 2.15549 0
-1.1088 -1.21124 2.19349 0
-1.08215 -1.1939 2.14078 0
-1.0545 -1.16912 2.08608 0
-1.04152 -1.17737 2.0604 0
-1.05733 -1.20099 2.09167 0
-1.04978 -1.19812 2.07675 0
-0.998814 -0.46393 1.98671 2.39419e-39
-1.00216 -0.470961 1.99337 3.4051e-39
-0.991627 -0.471429 1.97242 1.97241e-38
-1.00219 -0.481926 1.99342 6.17097e-39
-0.980542 -0.476876 1.95037 5.43376e-39
-0.976072 -0.480035 1.94148 4.604e-39
-0.970462 -0.482579 1.93032 4.78839e-39
-0.982446 -0.499276 1.95415 5.43483e-39
-0.786223 -0.421037 1.56385 2.15813e-38
-0.784846 -0.424589 1.56111 1.5961e-38
-0.7827 -0.427705 1.55685 1.05114e-38
-0.782505 -0.431874 1.55646 6.54515e-39
-0.781252 -0.435452 1.55397 1.18043e-38
-0.783928 -0.441227 1.55929 8.84784e-39
-0.787736 -0.447675 1.56686 8.93679e-39
-0.792005 -0.454429 1.57536 9.85875e-39
-0.790427 -0.457843 1.57222 1.06896e-38
-0.786628 -0.459941 1.56466 1.1335e-38
-0.773251 -0.456345 1.53805 8.20536e-39
-0.76349 -0.454756 1.51864 9.21811e-39
-0.754268 -0.453385 1.50029 9.85882e-39
-0.754717 -0.457779 1.50119 2.2867e-38
-0.750128 -0.459095 1.49206 2.31425e-38
-0.748313 -0.462073 1.48845 2.33255e-38
-0.739361 -0.460586 1.47064 2.31418e-38
-0.729733 -0.458576 1.45149 2.35099e-38
-0.719697 -0.456202 1.43153 2.3234e-38
-0.716996 -0.458407 1.42616 2.33262e-38
-0.715546 -0.46139 1.42327 2.33262e-38
-0.715931 -0.465551 1.42404 2.33262e-38
-0.711638 -0.466648 1.4155 2.34181e-38
-0.708166 -0.468241 1.40859 2.31425e-38
-0.704953 -0.469968 1.4022 1.872e-38
-0.705863 -0.474432 1.40401 1.40184e-38
-0.704636 -0.477459 1.40157 2.05643e-38
-0.704818 -0.481433 1.40193 2.24997e-38
-0.704062 -0.484764 1.40043 1.48493e-38
-0.704935 -0.489217 1.40217 2.24079e-38
-0.703485 -0.492055 1.39928 2.26834e-38
-0.703091 -0.495621 1.3985 1.59542e-38
-0.701657 -0.498445 1.39565 1.49425e-38
-0.702932 -0.503192 1.39818 1.77091e-38
-0.701149 -0.505747 1.39463 1.83552e-38
-0.703239 -0.511097 1.39879 1.66028e-38
-0.703354 -0.515024 1.39902 1.56804e-38
-0.704486 -0.519703 1.40127 1.37436e-38
-0.703366 -0.52272 1.39904 1.08848e-38
-0.703321 -0.52653 1.39896 7.01296e-39
-0.702712 -0.529914 1.39774 5.99953e-39
-0.70211 -0.533297 1.39655 7.10588e-39
-0.6994 -0.535061 1.39116 9.68773e-39
-0.697711 -0.537581 1.3878 1.0887e-38
-0.697332 -0.541099 1.38704 1.31922e-38
-0.700051 -0.547035 1.39245 1.51284e-38
-0.701201 -0.551765 1.39474 1.64184e-38
-0.701051 -0.555477 1.39444 1.68794e-38
-0.699687 -0.55822 1.39173 1.66028e-38
-0.699326 -0.561754 1.39101 1.63255e-38
-0.699938 -0.56607 1.39223 1.54039e-38
-0.700786 -0.570585 1.39391 1.36521e-38
-0.700073 -0.57383 1.3925 1.22692e-38
-0.698654 -0.576485 1.38967 1.11629e-38
-0.696667 -0.578652 1.38572 1.03331e-38
-0.698237 -0.583772 1.38884 1.07026e-38
-0.697777 -0.5872 1.38793 1.23618e-38
-0.698774 -0.591858 1.38991 1.39291e-38
-0.696973 -0.594141 1.38633 1.53127e-38
-0.69884 -0.599552 1.39004 1.51287e-38
-0.702819 -0.606806 1.39796 1.49443e-38
-0.718714 -0.624456 1.42957 1.41138e-38
-0.705746 -0.617046 1.40378 1.4022e-38
-0.690493 -0.607483 1.37344 1.3377e-38
-0.692736 -0.613241 1.3779 1.37458e-38
-0.700121 -0.623605 1.39259 1.77113e-38
-0.695456 -0.62325 1.38331 1.89995e-38
-0.711296 -0.641332 1.41482 2.08402e-38
-0.719074 -0.652275 1.43029 3.04244e-39
-0.715189 -0.652659 1.42256 5.43914e-39
-0.712362 -0.653971 1.41694 4.69943e-39
-0.702322 -0.648593 1.39697 2.76369e-39
-0.699573 -0.649877 1.3915 2.02685e-39
-0.694134 -0.648617 1.38068 2.30271e-39
-0.697488 -0.678431 1.38735 6.4443e-39
-0.700138 -0.68866 1.39262 2.48423e-39
-0.695909 -0.688304 1.38421 2.02433e-39
-0.693824 -0.690032 1.38006 1.74991e-39
-0.696709 -0.696709 1.3858 1.74883e-39
-0.695879 -0.699681 1.38415 1.38185e-39
-0.699284 -0.706927 1.39093 0
-0.699655 -0.711125 1.39166 0
-0.695867 -0.711077 1.38413 0
-0.690275 -0.709135 1.37301 0
-0.689338 -0.711939 1.37114 0
-0.688633 -0.714974 1.36974 0
-0.684968 -0.714912 1.36245 0
-0.667778 -0.700619 1.32826 0
-1.15511 -1.22454 2.29759 0
-1.16347 -1.23976 2.31422 0
-1.09047 -1.17986 2.16903 0
-1.08491 -1.1857 2.15797 0
-1.04764 -1.15068 2.08382 0
-1.0304 -1.13738 2.04953 0
-1.0257 -1.1378 2.04018 0
-1.04889 -1.19218 2.08632 0
-1.03192 -1.17853 2.05256 0
-1.0229 -1.17382 2.03463 0
-0.991617 -0.463118 1.98323 2.39419e-39
-0.988917 -0.467291 1.97783 2.85373e-39
-1.0061 -0.480936 2.01219 2.00021e-38
-0.993948 -0.48059 1.9879 6.53975e-39
-0.984418 -0.481391 1.96884 5.61815e-39
-0.974597 -0.481944 1.94919 4.97278e-39
-0.981162 -0.490581 1.96232 5.34157e-39
-1.00166 -0.506332 2.00331 5.71034e-39
-0.986782 -0.504235 1.97356 5.52703e-39
-0.989122 -0.510865 1.97824 4.97457e-39
-0.792945 -0.422614 1.58589 1.68754e-38
-0.781066 -0.420574 1.56213 2.1214e-38
-0.780928 -0.424791 1.56186 1.31933e-38
-0.779358 -0.428219 1.55872 8.01849e-39
-0.780319 -0.433034 1.56064 9.86348e-39
-0.779257 -0.436726 1.55851 1.03302e-38
-0.781398 -0.44222 1.5628 8.56729e-39
-0.783684 -0.447819 1.56737 9.85084e-39
-0.785774 -0.453331 1.57155 1.07724e-38
-0.783392 -0.456262 1.56678 1.00385e-38
-0.780735 -0.459003 1.56147 1.00449e-38
-0.769082 -0.456379 1.53816 7.29096e-39
-0.760939 -0.455727 1.52188 1.91817e-38
-0.752396 -0.454745 1.50479 1.47502e-38
-0.75217 -0.458741 1.50434 2.24997e-38
-0.74797 -0.460289 1.49594 2.30507e-38
-0.746729 -0.463628 1.49346 2.3234e-38
-0.739022 -0.462904 1.47804 2.35099e-38
-0.727008 -0.459373 1.45402 2.29567e-38
-0.715973 -0.456334 1.43195 2.35099e-38
-0.712206 -0.457847 1.42441 2.34177e-38
-0.711342 -0.4612 1.42268 2.34177e-38
-0.711545 -0.465241 1.42309 2.33262e-38
-0.70867 -0.467255 1.41734 2.34181e-38
-0.706 -0.469374 1.412 2.31425e-38
-0.703043 -0.471271 1.40609 1.88115e-38
-0.702327 -0.47465 1.40465 1.31883e-38
-0.701019 -0.477617 1.40204 2.09342e-38
-0.700156 -0.480876 1.40031 2.24079e-38
-0.700169 -0.484732 1.40034 1.79835e-38
-0.700095 -0.488528 1.40019 2.27752e-38
-0.699657 -0.492067 1.39931 2.10249e-38
-0.699639 -0.495898 1.39928 1.44801e-38
-0.698808 -0.499148 1.39762 1.74325e-38
-0.700089 -0.50391 1.40018 1.86318e-38
-0.697315 -0.505745 1.39463 1.68801e-38
-0.697672 -0.509838 1.39534 1.51276e-38
-0.696899 -0.513102 1.3938 1.6418e-38
-0.698534 -0.518144 1.39707 1.19919e-38
-0.698002 -0.521584 1.396 8.21115e-39
-0.696381 -0.524199 1.39276 6.91969e-39
-0.695416 -0.527293 1.39083 7.01333e-39
-0.696443 -0.531899 1.39289 9.68773e-39
-0.695705 -0.535157 1.39141 1.05175e-38
-0.695156 -0.538555 1.39031 1.34681e-38
-0.694535 -0.54189 1.38907 1.52206e-38
-0.696551 -0.54729 1.3931 1.61425e-38
-0.697418 -0.551803 1.39484 1.64184e-38
-0.696913 -0.555233 1.39383 1.65106e-38
-0.695644 -0.558044 1.39129 1.59574e-38
-0.69466 -0.561072 1.38932 1.54961e-38
-0.69559 -0.565645 1.39118 1.40209e-38
-0.69669 -0.570367 1.39338 1.18082e-38
-0.696781 -0.57427 1.39356 1.09785e-38
-0.696285 -0.577687 1.39257 1.05175e-38
-0.694828 -0.580296 1.38966 1.07019e-38
-0.695203 -0.584429 1.39041 1.26384e-38
-0.693053 -0.58643 1.38611 1.41135e-38
-0.694206 -0.591219 1.38841 1.4851e-38
-0.69221 -0.593323 1.38442 1.53127e-38
-0.695576 -0.60003 1.39115 1.46677e-38
-0.696546 -0.604694 1.39309 1.46677e-38
-0.689613 -0.602464 1.37923 1.42982e-38
-0.691484 -0.611697 1.38297 1.34692e-38
-0.702209 -0.625043 1.40442 1.18104e-38
-0.704407 -0.63087 1.40881 1.85392e-38
-0.703097 -0.63356 1.40619 1.91835e-38
-0.689979 -0.62553 1.37996 2.10246e-38
-0.696881 -0.635617 1.39376 3.04281e-39
-0.705025 -0.646919 1.41005 3.77819e-39
-0.706479 -0.652135 1.41296 2.76476e-39
-0.701413 -0.651312 1.40283 2.30343e-39
-0.709088 -0.662335 1.41818 2.11904e-39
-0.695228 -0.683768 1.39046 5.98368e-39
-0.689908 -0.682326 1.37982 2.39167e-39
-0.692065 -0.688262 1.38413 1.8403e-39
-0.690938 -0.690938 1.38188 1.56552e-39
-0.692135 -0.695938 1.38427 1.28965e-39
-0.690083 -0.697666 1.38017 1.47404e-39
-0.693115 -0.70454 1.38623 0
-0.694868 -0.71014 1.38974 0
-0.693201 -0.712245 1.3864 0
-0.686309 -0.708935 1.37262 0
-0.687129 -0.713557 1.37426 0
-0.68691 -0.717104 1.37382 0
-0.688136 -0.722165 1.37627 0
-0.689749 -0.727647 1.3795 0
-1.15579 -1.23199 2.31158 0
-1.15481 -1.23729 2.30961 0
-1.15077 -1.23929 2.30154 0
-1.0728 -1.16122 2.14561 0
-1.11712 -1.21532 2.23423 0
-1.10275 -1.20576 2.2055 0
-1.06184 -1.16685 2.12367 0
-1.06477 -1.17592 2.12953 0
-1.05206 -1.16767 2.10412 0
-1.03388 -1.15317 2.06776 0
-1.00302 -1.12977 2.00603 0
-1.00438 -1.13682 2.00875 0
-1.05131 -1.19572 2.10261 0
-1.02911 -1.18178 2.05822 0
-1.03436 -1.1935 2.06873 0
-1.06475 -1.2344 2.12949 0
-0.605824 0.0267768 1.21834 6.91288e-39
-0.983195 -0.461721 1.97725 2.76225e-39
-0.988633 -0.469737 1.98819 4.05443e-39
-0.998013 -0.479708 2.00705 1.93585e-38
-1.00557 -0.488894 2.02224 6.90854e-39
-0.98183 -0.482778 1.97451 5.15646e-39
-0.958747 -0.476725 1.92809 5.06498e-39
-0.96378 -0.484552 1.93821 4.60472e-39
-0.969383 -0.492725 1.94948 5.15717e-39
-0.980036 -0.508969 1.9709 5.25151e-39
-0.781978 -0.419071 1.5726 2.24078e-38
-0.776157 -0.42024 1.56089 1.45748e-38
-0.776091 -0.424492 1.56076 1.37436e-38
-0.774599 -0.427955 1.55776 7.92234e-39
-0.775827 -0.43292 1.56023 1.59484e-38
-0.775251 -0.436882 1.55907 1.69629e-38
-0.777577 -0.442489 1.56375 1.67673e-38
-0.779399 -0.447831 1.56741 1.7318e-38
-0.781 -0.453066 1.57063 1.88846e-38
-0.778724 -0.456048 1.56605 1.56585e-38
-0.776178 -0.458845 1.56093 6.90708e-39
-0.76455 -0.456196 1.53755 4.52618e-39
-0.757161 -0.45597 1.52269 1.52187e-38
-0.74932 -0.455388 1.50692 1.28173e-38
-0.748292 -0.458897 1.50485 2.24079e-38
-0.742905 -0.459698 1.49402 2.31425e-38
-0.741726 -0.463066 1.49165 2.3418e-38
-0.735393 -0.463175 1.47891 2.35099e-38
-0.723043 -0.459392 1.45408 2.24043e-38
-0.711027 -0.455686 1.42991 2.35099e-38
-0.707807 -0.457533 1.42343 2.34177e-38
-0.707072 -0.460964 1.42196 2.34177e-38
-0.70601 -0.464173 1.41982 2.34177e-38
-0.702989 -0.46607 1.41375 2.34177e-38
-0.7013 -0.468825 1.41035 2.31425e-38
-0.700761 -0.472336 1.40927 1.88104e-38
-0.699782 -0.475543 1.4073 1.3373e-38
-0.697234 -0.477663 1.40217 1.99207e-38
-0.695386 -0.480239 1.39845 1.58652e-38
-0.695322 -0.484036 1.39833 2.12108e-38
-0.695877 -0.488267 1.39944 2.24079e-38
-0.694878 -0.491406 1.39743 1.88133e-38
-0.695439 -0.495645 1.39856 1.75247e-38
-0.694578 -0.498868 1.39683 1.88162e-38
-0.696544 -0.504129 1.40078 1.46674e-38
-0.693859 -0.506019 1.39538 1.18093e-38
-0.693564 -0.509636 1.39479 1.40216e-38
-0.691824 -0.512179 1.39129 2.0659e-38
-0.694393 -0.517917 1.39646 8.48846e-39
-0.69324 -0.520887 1.39414 6.55199e-39
-0.692097 -0.523852 1.39184 6.55163e-39
-0.690387 -0.526373 1.3884 8.11968e-39
-0.692792 -0.532033 1.39324 1.14394e-38
-0.692481 -0.535621 1.39261 1.29149e-38
-0.692757 -0.539661 1.39317 1.51276e-38
-0.69186 -0.542785 1.39136 1.6695e-38
-0.692838 -0.54738 1.39333 1.67879e-38
-0.692132 -0.550646 1.39191 1.67872e-38
-0.692963 -0.555136 1.39358 1.58656e-38
-0.691909 -0.558114 1.39146 1.5128e-38
-0.692316 -0.562268 1.39228 1.38365e-38
-0.692335 -0.566108 1.39232 1.2177e-38
-0.694295 -0.571547 1.39626 1.12551e-38
-0.693944 -0.575092 1.39556 9.87212e-39
-0.69344 -0.578505 1.39454 1.09792e-38
-0.690742 -0.580071 1.38912 1.22696e-38
-0.691832 -0.584808 1.39131 1.39298e-38
-0.68926 -0.586443 1.38614 1.46667e-38
-0.69045 -0.591269 1.38853 1.53124e-38
-0.689425 -0.594201 1.38647 1.52202e-38
-0.694031 -0.602005 1.39573 1.45748e-38
-0.69531 -0.606955 1.3983 1.44826e-38
-0.676275 -0.594076 1.36002 1.48507e-38
-0.71973 -0.644178 1.44741 1.22717e-38
-0.697066 -0.627744 1.40183 1.86314e-38
-0.705506 -0.639243 1.41881 1.93672e-38
-0.692572 -0.63135 1.3928 2.10246e-38
-0.693673 -0.636186 1.39501 3.31905e-39
-0.695914 -0.642086 1.39952 2.85697e-39
-0.700386 -0.650082 1.40851 2.11976e-39
-0.711709 -0.664524 1.43128 1.93537e-39
-0.717901 -0.674272 1.44373 2.02685e-39
-0.709404 -0.697646 1.42665 6.16771e-39
-0.684787 -0.681004 1.37714 2.3002e-39
-0.689762 -0.689762 1.38715 1.47332e-39
-0.687471 -0.691269 1.38254 1.47404e-39
-0.687552 -0.695149 1.3827 1.47404e-39
-0.685662 -0.697027 1.3789 1.47404e-39
-0.688801 -0.704023 1.38521 0
-0.688656 -0.70768 1.38492 0
-0.686614 -0.709375 1.38082 0
-0.68365 -0.710089 1.37485 0
-0.684365 -0.714613 1.37629 0
-0.68531 -0.719386 1.37819 0
-0.686276 -0.724192 1.38014 0
-0.700581 -0.743158 1.4089 0
-1.14258 -1.24358 2.29779 0
-1.07831 -1.18555 2.16854 0
-1.04287 -1.16962 2.09725 0
-1.04407 -1.17675 2.09968 0
-0.982307 -1.11798 1.97547 0
-1.02317 -1.17015 2.05765 0
-1.01234 -1.16895 2.03587 0
-0.652742 0.493183 1.31999 2.34177e-38
-1.32209 0.139554 2.67355 7.28416e-39
-0.977098 -0.461407 1.97591 2.48567e-39
-0.985356 -0.470781 1.99261 1.32711e-38
-0.995553 -0.481184 2.01323 1.95411e-38
-0.973678 -0.47602 1.96899 7.00144e-39
-0.966726 -0.483363 1.95493 4.69619e-39
-0.966895 -0.488819 1.95528 4.97314e-39
-0.971567 -0.496579 1.96472 5.7107e-39
-0.982462 -0.507606 1.98676 5.80254e-39
-0.957584 -0.500072 1.93645 5.25116e-39
-0.781041 -0.416555 1.57944 2.30503e-38
-0.774763 -0.417511 1.56674 2.25915e-38
-0.77159 -0.420088 1.56033 1.86271e-38
-0.771777 -0.424477 1.5607 1.76097e-38
-0.770224 -0.427902 1.55756 1.17899e-38
-0.770931 -0.432578 1.55899 1.83437e-38
-0.770561 -0.436651 1.55825 1.93578e-38
-0.77327 -0.442482 1.56372 1.87989e-38
-0.77479 -0.447657 1.5668 1.99016e-38
-0.776241 -0.452807 1.56973 2.08214e-38
-0.773339 -0.455411 1.56386 2.07274e-38
-0.770556 -0.458053 1.55823 7.46171e-39
-0.75948 -0.455688 1.53584 2.12516e-39
-0.752681 -0.45579 1.52209 1.61425e-38
-0.746282 -0.456061 1.50915 1.20812e-38
-0.744139 -0.458886 1.50481 2.27752e-38
-0.737443 -0.458853 1.49127 2.34177e-38
-0.733986 -0.46078 1.48428 2.35099e-38
-0.727811 -0.460947 1.4718 1.44729e-38
-0.716353 -0.45767 1.44862 2.33262e-38
-0.706441 -0.455262 1.42858 2.3418e-38
-0.704924 -0.458201 1.42551 2.34177e-38
-0.704002 -0.461512 1.42365 2.34177e-38
-0.702368 -0.464343 1.42034 2.34177e-38
-0.698781 -0.465854 1.41309 2.34177e-38
-0.697497 -0.468873 1.41049 2.31425e-38
-0.696753 -0.472244 1.40899 1.83505e-38
-0.695517 -0.47527 1.40649 1.45716e-38
-0.693017 -0.477412 1.40143 1.83548e-38
-0.692361 -0.480807 1.40011 9.59554e-39
-0.691957 -0.48437 1.39929 2.24997e-38
-0.69194 -0.488202 1.39926 2.24079e-38
-0.690423 -0.490967 1.39619 1.9736e-38
-0.69027 -0.494694 1.39588 1.72489e-38
-0.690201 -0.498479 1.39574 1.4944e-38
-0.690462 -0.502503 1.39627 1.11639e-38
-0.688454 -0.504866 1.39221 1.3377e-38
-0.688096 -0.508426 1.39148 2.11211e-38
-0.687423 -0.511748 1.39012 1.60496e-38
-0.68905 -0.516788 1.39341 6.73674e-39
-0.68739 -0.519361 1.39006 6.45979e-39
-0.687814 -0.523503 1.39091 7.28992e-39
-0.687099 -0.526776 1.38947 1.06097e-38
-0.68998 -0.532818 1.39529 1.33763e-38
-0.68911 -0.535975 1.39353 1.56808e-38
-0.690763 -0.541097 1.39688 1.63262e-38
-0.689241 -0.543735 1.3938 1.67864e-38
-0.689896 -0.548084 1.39512 1.64184e-38
-0.687935 -0.550348 1.39116 1.60492e-38
-0.689102 -0.55511 1.39352 1.50358e-38
-0.688426 -0.55839 1.39215 1.38365e-38
-0.688701 -0.562439 1.39271 1.1716e-38
-0.688623 -0.566201 1.39255 1.08863e-38
-0.690197 -0.57133 1.39573 1.061e-38
-0.690733 -0.575611 1.39682 1.09792e-38
-0.689587 -0.578487 1.3945 1.27316e-38
-0.687594 -0.580635 1.39047 1.3561e-38
-0.687082 -0.58402 1.38943 1.4483e-38
-0.686431 -0.58728 1.38812 1.52202e-38
-0.68749 -0.592005 1.39026 1.51276e-38
-0.687409 -0.595755 1.39009 1.44826e-38
-0.68972 -0.601589 1.39477 1.45748e-38
-0.692149 -0.607553 1.39968 1.50358e-38
-0.703658 -0.621565 1.42295 1.52202e-38
-0.67464 -0.59968 1.36427 1.40224e-38
-0.694796 -0.621456 1.40503 1.21792e-38
-0.696775 -0.627098 1.40903 1.19951e-38
-0.683651 -0.619084 1.38249 1.87229e-38
-0.675553 -0.615504 1.36612 1.91824e-38
-0.695737 -0.637759 1.40694 2.1116e-38
-0.689713 -0.636069 1.39475 2.76658e-39
-0.686961 -0.637347 1.38919 2.30452e-39
-0.699332 -0.65271 1.41421 1.65951e-39
-0.697202 -0.654595 1.4099 1.75098e-39
-0.72558 -0.68527 1.46728 1.84318e-39
-0.897169 -0.872248 1.81428 6.44537e-39
-0.68923 -0.685401 1.39378 6.07768e-39
-0.676739 -0.676739 1.36852 2.11581e-39
-0.683352 -0.687149 1.38189 1.56587e-39
-0.682325 -0.689906 1.37981 1.56552e-39
-0.683348 -0.694738 1.38188 1.19746e-39
-0.680771 -0.6959 1.37667 1.19746e-39
-0.683159 -0.702136 1.3815 0
-0.68012 -0.70279 1.37535 0
-0.68049 -0.706953 1.3761 0
-0.679102 -0.709284 1.3733 0
-0.681985 -0.716085 1.37913 0
-0.681162 -0.719005 1.37746 0
-0.682396 -0.724098 1.37996 0
-0.673386 -0.718278 1.36174 0
-1.09265 -1.21406 2.20958 0
-1.08486 -1.21142 2.19382 0
-1.04522 -1.17297 2.11367 0
-1.08948 -1.2287 2.20318 0
-1.01717 -1.1528 2.05695 0
-1.00445 -1.14395 2.03122 0
-1.00445 -1.15511 2.03121 0
-1.00601 -1.16251 2.03438 0
-1.01086 -1.17372 2.04419 0
-0.99102 -1.15619 2.00406 0
-0.952169 -0.457467 1.93625 1.62235e-38
-0.968597 -0.470771 1.96966 1.81582e-38
-0.965801 -0.474807 1.96397 7.09363e-39
-0.951434 -0.473059 1.93476 5.34192e-39
-0.959266 -0.482312 1.95069 5.24972e-39
-0.970151 -0.493205 1.97282 5.15681e-39
-0.977244 -0.502271 1.98724 5.61707e-39
-0.770386 -0.413168 1.5666 2.31425e-38
-0.768763 -0.416592 1.56329 1.97317e-38
-0.767573 -0.420235 1.56087 1.86253e-38
-0.76802 -0.424771 1.56178 2.09284e-38
-0.767031 -0.428509 1.55977 1.88893e-38
-0.766688 -0.4326 1.55907 1.83401e-38
-0.766051 -0.436521 1.55778 2.1572e-38
-0.768304 -0.442097 1.56236 2.17556e-38
-0.770167 -0.447471 1.56615 2.08261e-38
-0.77197 -0.452832 1.56982 2.15586e-38
-0.769577 -0.455727 1.56495 1.96225e-38
-0.766413 -0.458135 1.55852 1.74109e-38
-0.755082 -0.45558 1.53547 7.47106e-39
-0.747105 -0.454941 1.51925 1.49432e-38
-0.74184 -0.45588 1.50855 1.16231e-38
-0.74073 -0.459335 1.50629 2.31425e-38
-0.733936 -0.459223 1.49247 2.35095e-38
-0.728292 -0.45976 1.481 2.35092e-38
-0.721572 -0.459548 1.46733 7.82834e-39
-0.710929 -0.456742 1.44569 2.31418e-38
-0.703601 -0.455965 1.43079 2.3418e-38
-0.702125 -0.458931 1.42779 2.34177e-38
-0.700353 -0.461685 1.42418 2.34177e-38
-0.697842 -0.463929 1.41908 2.34177e-38
-0.694576 -0.465637 1.41243 2.33262e-38
-0.693808 -0.468999 1.41087 2.31425e-38
-0.693124 -0.472408 1.40948 1.78895e-38
-0.691548 -0.475198 1.40628 1.50336e-38
-0.688797 -0.477155 1.40068 1.78017e-38
-0.688492 -0.480791 1.40006 1.08859e-38
-0.688778 -0.484838 1.40064 2.20405e-38
-0.689589 -0.489262 1.40229 2.18565e-38
-0.688043 -0.492008 1.39915 1.9736e-38
-0.687359 -0.49536 1.39776 1.2916e-38
-0.687052 -0.498976 1.39713 1.06111e-38
-0.686369 -0.502315 1.39574 1.15331e-38
-0.685108 -0.50522 1.39318 1.91846e-38
-0.685674 -0.509468 1.39433 1.90928e-38
-0.685568 -0.513219 1.39412 7.38319e-39
-0.686147 -0.517485 1.39529 6.92114e-39
-0.684486 -0.520056 1.39192 6.27577e-39
-0.686285 -0.525257 1.39557 1.15316e-38
-0.686716 -0.529423 1.39645 1.2177e-38
-0.688937 -0.534984 1.40097 1.52198e-38
-0.68727 -0.53753 1.39758 1.67872e-38
-0.687971 -0.541921 1.399 1.67872e-38
-0.686403 -0.544521 1.39581 1.63258e-38
-0.686799 -0.548672 1.39662 1.66024e-38
-0.685315 -0.551315 1.3936 1.50351e-38
-0.686656 -0.55623 1.39633 1.39287e-38
-0.684974 -0.558693 1.39291 1.20852e-38
-0.684335 -0.561996 1.39161 1.11632e-38
-0.682425 -0.56424 1.38773 1.07944e-38
-0.684955 -0.570158 1.39287 1.03335e-38
-0.686196 -0.575024 1.39539 1.19015e-38
-0.686741 -0.579318 1.3965 1.32859e-38
-0.683827 -0.58068 1.39058 1.46677e-38
-0.681204 -0.582259 1.38524 1.52202e-38
-0.681347 -0.586187 1.38553 1.53124e-38
-0.683504 -0.591861 1.38992 1.45748e-38
-0.685431 -0.597359 1.39384 1.4667e-38
-0.687191 -0.602732 1.39742 1.49436e-38
-0.690387 -0.609392 1.40391 1.53124e-38
-0.698847 -0.620764 1.42112 1.5128e-38
-0.692796 -0.619259 1.40881 1.3377e-38
-0.694566 -0.624722 1.41241 1.1442e-38
