VERSION .7
FIELDS x y z rgb
SIZE 4 4 4 4
TYPE F F F F
COUNT 1 1 1 1
WIDTH 844
HEIGHT 1
VIEWPOINT 0 0 0 1 0 0 0
POINTS 844
DATA ascii
0.3106470055 -0.00115482158178 0.613 9.86565126149e-39
0.311935582925 -0.00115105381153 0.611 9.95784689135e-39
0.316809193744 -0.00116047323716 0.616 1.00493236551e-38
0.318612071809 -0.00115858935203 0.615 1.00493236551e-38
0.321451086693 -0.00116047323716 0.616 1.00493236551e-38
0.323246429217 -0.00115858935203 0.615 9.95712802524e-39
0.326622351362 -0.00116235712228 0.617 1.00493236551e-38
0.328413926116 -0.00116047323716 0.616 9.95712802524e-39
0.333419408894 -0.00116989266278 0.621 9.95712802524e-39
0.333055819064 -0.00116047323716 0.616 9.86493239538e-39
0.33592120834 -0.00116235712228 0.617 9.86564565629e-39
0.339890554299 -0.00116800877766 0.62 9.86564565629e-39
0.340018658487 -0.00116047323716 0.616 9.86564565629e-39
0.343451097186 -0.00116424100741 0.618 9.86564845889e-39
0.346339093083 -0.00116612489253 0.619 9.86564845889e-39
0.35148775113 -0.00117554431816 0.624 9.86565126149e-39
0.353271790344 -0.00117366043304 0.623 9.77345563162e-39
0.356760745596 -0.00117742820329 0.625 9.77345563162e-39
0.363137696745 -0.00119061539916 0.632 9.58834830838e-39
0.355108578341 -0.00115670546691 0.614 9.68054393825e-39
0.363243194312 -0.00117554431816 0.624 9.77273956811e-39
0.3644225064 -0.00117177654791 0.622 9.77273676551e-39
0.371483307849 -0.00118684762891 0.63 9.77345563162e-39
0.373857003107 -0.00118684762891 0.63 9.68126000176e-39
0.376230698365 -0.00118684762891 0.63 9.68126000176e-39
-0.206031096724 0.000649940368214 0.345 8.11356855519e-39
-0.20769833506 0.00065935979384 0.35 7.8369816656e-39
-0.208148583605 0.000665011449216 0.353 7.65223447606e-39
-0.207990337254 0.000668779219466 0.355 7.37493152295e-39
-0.207234899319 0.000670663104591 0.356 7.19054026323e-39
-0.20589357311 0.000670663104591 0.356 7.0061518061e-39
-0.205126831864 0.000672546989717 0.357 6.91395617623e-39
-0.20492337227 0.000676314759967 0.359 6.63843847737e-39
-0.207540088709 0.000689501955844 0.366 6.63843707607e-39
-0.20897749306 0.00069892138147 0.371 6.73063270594e-39
-0.210377219708 0.000708340807097 0.376 6.63843427348e-39
-0.209516284205 0.000710224692222 0.377 6.36256625e-39
-0.211407704871 0.000721528002973 0.383 6.27037342273e-39
-0.209964648865 0.000721528002973 0.383 6.27037342273e-39
-0.210699364064 0.000729063543474 0.387 6.17782046176e-39
-0.21086326207 0.00073471519885 0.39 6.26858676719e-39
-0.211004553454 0.000740366854226 0.393 6.26858396459e-39
-0.211656377708 0.000747902394727 0.397 6.26858396459e-39
-0.211748688079 0.000753554050103 0.4 6.17710720084e-39
-0.212343995778 0.000761089590604 0.404 6.08491157098e-39
-0.212909161316 0.000768625131105 0.408 5.99307887742e-39
-0.212408047873 0.000772392901355 0.41 5.80869042029e-39
-0.211377562709 0.000774276786481 0.411 5.34771367227e-39
-0.21289220635 0.000785580097232 0.417 6.45441015395e-39
-0.213854871649 0.000794999522858 0.422 7.09977956299e-39
-0.214779859245 0.000804418948485 0.427 7.19197519285e-39
-0.214668710023 0.000810070603861 0.43 6.27001889422e-39
-0.213048568815 0.000810070603861 0.43 5.90052031125e-39
-0.215853673767 0.000827025569988 0.439 5.62393342166e-39
-0.216151327617 0.000834561110489 0.443 5.5317377918e-39
-0.21545052235 0.000838328880739 0.445 5.5317377918e-39
-0.216175818123 0.000847748306366 0.45 5.62213835833e-39
-0.214003698574 0.00084586442124 0.449 5.4377470986e-39
-0.21514910073 0.000857167731992 0.455 5.16223640623e-39
-0.216718377039 0.000870354927869 0.462 5.34734372948e-39
-0.216373626061 0.000876006583244 0.465 5.25694316295e-39
-0.216006268462 0.00088165823862 0.468 5.34985765892e-39
-0.21470073607 0.000883542123746 0.469 5.07434836785e-39
-0.214295700768 0.000889193779121 0.472 4.98215273799e-39
-0.214768555935 0.000898613204748 0.477 5.07506162877e-39
-0.213864291075 0.000902380974998 0.479 5.16654119512e-39
-0.213387668138 0.000908032630374 0.482 5.16654399771e-39
-0.21288843858 0.00091368428575 0.485 5.25766202906e-39
-0.213236957328 0.000923103711376 0.49 5.3487856656e-39
-0.212253569292 0.000926871481626 0.492 5.5321007281e-39
-0.210399826329 0.000926871481626 0.492 5.71649479043e-39
-0.208122209213 0.000924987596501 0.491 6.08455984506e-39
-0.207532553169 0.000930639251877 0.494 6.17782606695e-39
-0.205671274665 0.000930639251877 0.494 6.36221732668e-39
-0.200922000264 0.000917452056 0.487 6.54660858641e-39
-0.202766323802 0.000934407022127 0.496 6.54660858641e-39
-0.206162968682 0.000958897528756 0.509 6.73099984613e-39
-0.207054046347 0.000972084724633 0.516 6.823195476e-39
-0.207892375227 0.000985271920509 0.523 7.00758673572e-39
-0.20710302736 0.000990923575885 0.526 7.28417362531e-39
-0.207071001313 0.00100034300151 0.531 7.56075771231e-39
-0.205456511761 0.00100222688664 0.532 7.56075771231e-39
-0.202304771946 0.000996575231261 0.529 7.65295334217e-39
-0.200690282394 0.000998459116386 0.53 7.56075771231e-39
-0.196818898461 0.00098903969076 0.525 7.65295334217e-39
-0.195583069819 0.00099280746101 0.527 7.74514897203e-39
-0.193964812496 0.000994691346136 0.528 7.92954023176e-39
-0.192339019633 0.000996575231261 0.529 7.92954023176e-39
-0.191065513289 0.00100034300151 0.531 7.92954023176e-39
-0.189420881574 0.00100222688664 0.532 7.92954023176e-39
-0.187416427801 0.00100222688664 0.532 7.8373446019e-39
-0.185760492776 0.00100411077176 0.533 7.8373446019e-39
-0.183752271232 0.00100411077176 0.533 7.74514897203e-39
-0.181744049689 0.00100411077176 0.533 7.8373446019e-39
-0.18041025902 0.00100787854201 0.535 7.92954023176e-39
-0.179394844938 0.00101353019739 0.538 7.92954023176e-39
-0.176378744852 0.00100787854201 0.535 8.0206666709e-39
-0.174688899895 0.00100976242714 0.536 8.11286230076e-39
-0.172669375041 0.00100976242714 0.536 8.11286230076e-39
-0.169694720428 0.00100411077176 0.533 8.0206666709e-39
-0.167686498884 0.00100411077176 0.533 8.11286230076e-39
-0.166299959432 0.00100787854201 0.535 7.92847104103e-39
-0.166126642001 0.00101918185276 0.541 7.74407978131e-39
-0.162268445264 0.00100787854201 0.535 7.92847104103e-39
-0.16085176365 0.00101164631226 0.537 7.74515177463e-39
-0.158828471025 0.00101164631226 0.537 7.83734740449e-39
-0.156805178401 0.00101164631226 0.537 7.8373446019e-39
-0.154205416928 0.00100787854201 0.535 7.74514897203e-39
-0.152474126498 0.00100976242714 0.536 7.8373417993e-39
-0.151858096062 0.00101918185276 0.541 7.74514616944e-39
-0.148988939016 0.00101353019739 0.538 7.74550350055e-39
-0.146688715278 0.00101164631226 0.537 7.65330787068e-39
-0.145473609372 0.00101729796764 0.54 7.56075490971e-39
-0.143173385634 0.00101541408251 0.539 7.56075490971e-39
-0.141142557469 0.00101541408251 0.539 7.56075490971e-39
-0.139627913829 0.00101918185276 0.541 7.46855927985e-39
-0.137843874615 0.00102106573789 0.542 7.00866013035e-39
-0.136052299861 0.00102294962301 0.543 7.10085576021e-39
-0.134499978518 0.00102671739327 0.545 7.10085576021e-39
-0.133418628456 0.00103425293377 0.549 6.91646450049e-39
-0.129914602123 0.00102294962301 0.543 6.91467504235e-39
-0.127633217236 0.00102106573789 0.542 6.82247660989e-39
-0.12512765002 0.00101729796764 0.54 6.73028098002e-39
-0.124916654886 0.00103236904864 0.548 6.82247380729e-39
-0.121955187469 0.00102483350814 0.544 6.73099424094e-39
-0.119023862214 0.00101729796764 0.54 6.54696031232e-39
-0.1165559727 0.00101353019739 0.538 6.45476187986e-39
-0.115167549362 0.00101918185276 0.541 6.45476187986e-39
-0.113338296906 0.00102106573789 0.542 6.5458869177e-39
-0.110064104558 0.00100976242714 0.536 6.63843847737e-39
-0.107641428287 0.00100599465689 0.534 6.73135157205e-39
-0.105233823097 0.00100222688664 0.532 6.6398762096e-39
-0.100706847141 0.000977736380008 0.519 6.82426746932e-39
-0.0934237472466 0.000924987596501 0.491 6.36328932001e-39
-0.0904547442892 0.00091368428575 0.485 6.36221172149e-39
-0.0868000071462 0.000894845434497 0.475 6.63879861108e-39
-0.0832206254082 0.000876006583244 0.465 6.27289295737e-39
-0.079366196442 0.000853399961741 0.453 7.27841288733e-39
-0.0764593616937 0.000840212765865 0.446 9.29448901392e-39
-0.0731022784005 0.000821373914612 0.436 1.08528211881e-38
-0.0701483465241 0.00080630283361 0.428 1.14960325975e-38
-0.0674148292073 0.000793115637733 0.421 1.06723857939e-38
-0.0652031480703 0.000785580097232 0.417 9.20696391184e-39
-0.0628690144001 0.000776160671606 0.412 1.06892868547e-38
-0.0604237315075 0.000764857360854 0.406 1.20804931675e-38
-0.0586038984765 0.000761089590604 0.404 1.20804931675e-38
-0.0565165537577 0.000753554050103 0.4 1.17113547182e-38
-0.0548719220434 0.000751670164978 0.399 1.22645284974e-38
-0.0536360934012 0.000755437935228 0.401 1.27255066467e-38
-0.0517352533098 0.000749786279852 0.398 1.16191590883e-38
-0.0516241040874 0.00077050901623 0.409 1.05128129313e-38
-0.0554709975132 0.000853399961741 0.453 9.77524789236e-39
-0.0600544900229 0.00095324587338 0.506 1.08808793872e-38
-0.0614805910628 0.00100787854201 0.535 7.56183671213e-39
-0.0607986246474 0.00103048516352 0.547 1.2632593552e-38
-0.0589524172247 0.00103425293377 0.549 1.28169848117e-38
-0.056987525039 0.00103613681889 0.55 1.29091804416e-38
-0.0552147891362 0.00104178847427 0.553 1.30013746702e-38
-0.0534194466118 0.00104744012964 0.556 1.29091790403e-38
-0.0512322559814 0.00104555624452 0.555 1.32779615598e-38
-0.0492296860932 0.00104744012964 0.556 7.65223727866e-39
-0.0469652561727 0.00104367235939 0.554 7.46784601893e-39
-0.045120932635 0.00104932401477 0.557 7.37564758647e-39
-0.0429450453154 0.00104744012964 0.556 7.46784321633e-39
-0.040923636576 0.00104932401477 0.557 7.28345195661e-39
-0.0388946922961 0.00105120789989 0.558 7.28345195661e-39
-0.0365944685581 0.00104555624452 0.555 7.28380788642e-39
-0.0346276924873 0.00104932401477 0.557 7.19161225655e-39
-0.0325290444578 0.00104932401477 0.557 7.10013128891e-39
-0.0304303964283 0.00104932401477 0.557 7.19232972137e-39
-0.0283317483987 0.00104932401477 0.557 7.28452535123e-39
-0.0262331003692 0.00104932401477 0.557 7.37636364998e-39
-0.0240911229818 0.00104744012964 0.556 7.09977676039e-39
-0.0220753658978 0.00105120789989 0.558 7.00758393313e-39
-0.0199013624632 0.00104744012964 0.556 6.8231926734e-39
-0.0179025603453 0.00105309178502 0.559 6.73099984613e-39
-0.015852893329 0.00105685955527 0.561 7.10050823819e-39
-0.0137391742185 0.00105685955527 0.561 7.1005054356e-39
-0.0115840096352 0.00105309178502 0.559 7.100502633e-39
-0.00944391613291 0.00104932401477 0.557 7.10085856281e-39
-0.00737164249513 0.00105309178502 0.559 6.91646450049e-39
-0.00529371720197 0.00105874344039 0.562 7.00866013035e-39
-0.00317057866581 0.00105685955527 0.561 7.28524982254e-39
-0.00106062732552 0.00106062732552 0.563 7.56183671213e-39
0.00106062732552 0.00106062732552 0.563 7.56075490971e-39
0.00315927535506 0.00105309178502 0.559 7.65295053957e-39
0.00527487835072 0.00105497567014 0.56 7.8373417993e-39
0.00741120408276 0.00105874344039 0.562 7.74514616944e-39
0.00952869096355 0.00105874344039 0.562 8.02173305903e-39
0.0116669005807 0.00106062732552 0.563 8.02173305903e-39
0.0137391742185 0.00105685955527 0.561 7.92953742916e-39
0.0159376681597 0.00106251121064 0.564 7.92953742916e-39
0.0182548468637 0.0010738145214 0.57 7.92954023176e-39
0.0204382697239 0.00107569840652 0.571 7.8373446019e-39
0.0224314201864 0.00106816286602 0.567 7.8373446019e-39
0.0245244165606 0.0010662789809 0.566 7.8373446019e-39
0.0264214888817 0.00105685955527 0.561 7.8373446019e-39
0.0283826132971 0.00105120789989 0.558 7.8373446019e-39
0.029884069742 0.00103048516352 0.547 7.92954023176e-39
0.0316530378746 0.00102106573789 0.542 7.92954023176e-39
0.0335086647229 0.00101541408251 0.539 8.02065686181e-39
0.0356054288674 0.00101729796764 0.54 8.11249656186e-39
0.0372218023048 0.00100599465689 0.534 8.11321542797e-39
0.0388664340192 0.000996575231261 0.529 8.20612992395e-39
0.0406278666113 0.000990923575885 0.526 8.29832555381e-39
0.04196165728 0.000975852494883 0.518 8.29940175103e-39
0.0424721901489 0.000943826447754 0.501 8.48450907427e-39
0.0434744170356 0.000924987596501 0.491 8.57670330284e-39
0.0452320818574 0.000923103711376 0.49 8.76073162626e-39
0.0469822111388 0.000921219826251 0.489 8.76073162626e-39
0.0496234180844 0.000936290907253 0.497 8.66818006659e-39
0.0517032272627 0.000940058677503 0.499 8.66818006659e-39
0.0529390559048 0.000928755366752 0.493 8.85257132632e-39
0.0539073728592 0.00091368428575 0.485 8.94476835748e-39
0.0551601564675 0.000904264860123 0.48 9.03696398734e-39
0.0561378928475 0.000891077664247 0.473 9.03696398734e-39
0.0565730703115 0.000870354927869 0.462 9.03696398734e-39
0.0578088989536 0.000862819387368 0.458 9.1291596172e-39
0.0587546092865 0.000851516076616 0.452 9.31247187711e-39
0.0597888622203 0.00084209665099 0.447 9.12808061739e-39
0.0610604846798 0.000836444995614 0.444 8.66710246807e-39
0.0621682091335 0.000828909455113 0.44 8.8514937278e-39
0.0629556731158 0.000817606144362 0.434 8.85113359409e-39
0.0636979238552 0.00080630283361 0.428 8.39015544478e-39
0.0654631242176 0.000808186718735 0.429 8.2976066877e-39
0.0656722354665 0.000791231752608 0.42 8.38980231756e-39
0.0741402991045 0.000872238812994 0.463 8.66638640456e-39
0.0821129009546 0.000943826447754 0.501 8.85077766428e-39
0.0868508720446 0.000975852494883 0.518 8.94369216026e-39
0.0898311783128 0.000987155805635 0.524 9.49686593944e-39
0.0930318991406 0.00100034300151 0.531 9.86564565629e-39
0.0952115542305 0.00100222688664 0.532 1.03266238056e-38
0.0970332711466 0.00100034300151 0.531 1.06968370508e-38
0.0984744432674 0.000994691346136 0.528 1.06968398534e-38
0.0998930087668 0.00098903969076 0.525 1.07886795534e-38
0.101288967645 0.000983388035384 0.522 1.09730708132e-38
0.103255743715 0.000983388035384 0.522 1.09730708132e-38
0.103811489827 0.000970200839507 0.515 1.08808751833e-38
0.107599982814 0.000987155805635 0.524 1.06046442235e-38
0.11061985067 0.000996575231261 0.529 9.95927201189e-39
0.11325163819 0.00100222688664 0.532 9.03696398734e-39
0.11633932591 0.00101164631226 0.537 9.22027624725e-39
0.121007593251 0.00103425293377 0.549 9.77273396292e-39
0.124421193098 0.00104555624452 0.555 9.58798256948e-39
0.129247706789 0.00106816286602 0.567 1.01393584827e-38
0.132310904002 0.00107569840652 0.571 1.0783648892e-38
0.1361107003 0.0010888856024 0.578 1.06907371986e-38
0.138766978326 0.00109265337265 0.58 1.06903770649e-38
0.140466242709 0.0010888856024 0.578 1.18892831894e-38
0.143384380768 0.00109453725777 0.581 1.07836544972e-38
0.145573455284 0.00109453725777 0.581 1.09691219541e-38
0.1477625298 0.00109453725777 0.581 1.26293621578e-38
0.149693512053 0.00109265337265 0.58 1.22620159692e-38
0.152140678831 0.00109453725777 0.581 1.21705392055e-38
0.155126636754 0.00110018891315 0.584 1.21716154027e-38
0.15732701458 0.00110018891315 0.584 1.21723342688e-38
0.158707902377 0.00109453725777 0.581 1.24474806236e-38
0.16145083912 0.00109830502802 0.583 1.35538281819e-38
0.163366750292 0.0010964211429 0.582 1.21716140014e-38
0.165559592578 0.0010964211429 0.582 1.08815940494e-38
0.168040669288 0.00109830502802 0.583 1.06975587195e-38
0.171405288122 0.00110584056853 0.587 1.06060833571e-38
0.173321199294 0.0011039566834 0.586 1.13443672621e-38
0.175828650396 0.00110584056853 0.587 1.14365628919e-38
0.177737026027 0.0011039566834 0.586 1.08833863102e-38
0.179637866119 0.00110207279828 0.585 1.08833863102e-38
0.182152852761 0.0011039566834 0.586 1.10663384364e-38
0.184046157312 0.00110207279828 0.585 1.09741456091e-38
0.186250302909 0.00110207279828 0.585 1.06968398534e-38
0.189743025931 0.00110960833878 0.589 1.06042882937e-38
0.191962242608 0.00110960833878 0.589 1.04206159001e-38
0.192862739698 0.00110207279828 0.585 1.03284202702e-38
0.195733780629 0.00110584056853 0.587 9.95963915209e-39
0.198619892641 0.00110960833878 0.589 1.0051834782e-38
0.200498126111 0.00110772445365 0.588 1.05128129313e-38
0.203403076974 0.0011114922239 0.59 1.25411167883e-38
0.205626061422 0.0011114922239 0.59 1.30020935363e-38
0.208553618906 0.00111525999415 0.592 1.34630716856e-38
0.210428084606 0.00111337610903 0.591 1.33708760557e-38
0.213014658883 0.00111525999415 0.592 1.30942891661e-38
0.215608768701 0.00111714387928 0.593 1.26329480805e-38
0.21747569886 0.00111525999415 0.592 1.12500136326e-38
0.220077344218 0.00111714387928 0.593 1.09730708132e-38
0.222311631976 0.00111714387928 0.593 1.00511145145e-38
0.225303241555 0.00112091164953 0.595 9.49794073536e-39
0.227545064854 0.00112091164953 0.595 9.59013636522e-39
0.231717870407 0.00113033107515 0.6 9.68233339638e-39
0.231638747231 0.0011190277644 0.594 9.77452902625e-39
0.23387680276 0.0011190277644 0.594 9.86672325481e-39
0.23651235805 0.00112091164953 0.595 9.77452762495e-39
0.239155448881 0.00112279553465 0.596 9.77452762495e-39
0.240590969347 0.0011190277644 0.594 9.77452762495e-39
0.244464237164 0.0011265633049 0.598 9.68233199509e-39
0.247542505459 0.00113033107515 0.6 9.77452762495e-39
0.249803167609 0.00113033107515 0.6 9.77452762495e-39
0.251643723376 0.00112844719003 0.599 9.68233199509e-39
0.254748366063 0.00113221496028 0.601 9.86564845889e-39
0.257012795983 0.00113221496028 0.601 9.95784408875e-39
0.258414406517 0.00112844719003 0.599 9.95784408875e-39
0.262847188216 0.00113786661566 0.604 1.00500397186e-38
0.263367140511 0.00113033107515 0.6 9.77345282903e-39
0.26651322867 0.0011340988454 0.602 9.77345282903e-39
0.268334945586 0.00113221496028 0.601 9.77345282903e-39
0.271950121142 0.00113786661566 0.604 9.77345282903e-39
0.274225854373 0.00113786661566 0.604 9.95784689135e-39
0.276501587604 0.00113786661566 0.604 9.95784689135e-39
0.279700424547 0.00114163438591 0.606 9.86565126149e-39
0.281518373693 0.00113975050078 0.605 9.77345563162e-39
0.285674224279 0.00114728604128 0.609 9.77345563162e-39
0.289860217027 0.00115482158178 0.613 9.77345563162e-39
0.291693237254 0.00115293769666 0.612 9.77345563162e-39
0.293518721941 0.00115105381153 0.611 9.77345563162e-39
0.295336671087 0.00114916992641 0.61 9.77273676551e-39
0.299098789682 0.00115482158178 0.613 9.86493239538e-39
0.299441656774 0.00114728604128 0.609 9.95712802524e-39
0.303222614221 0.00115293769666 0.612 9.86493239538e-39
0.306027719172 0.00115482158178 0.613 9.86493239538e-39
0.307834365007 0.00115293769666 0.612 9.86493239538e-39
0.3106470055 0.00115482158178 0.613 9.86493239538e-39
0.311425050056 0.00114916992641 0.61 9.95712802524e-39
0.315780592466 0.00115670546691 0.614 9.95712802524e-39
0.320166277037 0.00116424100741 0.618 1.00493236551e-38
0.320929250513 0.00115858935203 0.615 9.86493239538e-39
0.323246429217 0.00115858935203 0.615 9.86493239538e-39
0.325563607921 0.00115858935203 0.615 9.86564845889e-39
0.327347647135 0.00115670546691 0.614 9.86564845889e-39
0.331271779851 0.00116235712228 0.617 9.86564845889e-39
0.332515144033 0.00115858935203 0.615 9.86564845889e-39
0.338098979545 0.00116989266278 0.621 9.86492959278e-39
0.342083396585 0.00117554431816 0.624 9.86492959278e-39
0.343330528538 0.00117177654791 0.622 9.95712522264e-39
0.34456258941 0.00116800877766 0.62 9.95712522264e-39
0.346898606965 0.00116800877766 0.62 1.00493208525e-38
0.350924469477 0.00117366043304 0.623 9.95712522264e-39
0.351003592653 0.00116612489253 0.619 9.86492959278e-39
0.357902379981 0.00118119597354 0.627 9.95712522264e-39
0.363137696745 0.00119061539916 0.632 9.86565126149e-39
0.359157047475 0.00116989266278 0.621 9.77345563162e-39
0.363825314815 0.00117742820329 0.625 9.86564845889e-39
0.369695500866 0.00118873151404 0.631 9.77453182885e-39
0.372662619938 0.00119061539916 0.632 9.68233339638e-39
0.372670155478 0.00118307985866 0.628 9.59085663263e-39
0.37682788995 0.00118873151404 0.631 9.59085523134e-39
-0.206628288308 0.00195547276002 0.346 8.20612431875e-39
-0.207104911245 0.00197242772614 0.349 8.02137292532e-39
-0.206379615472 0.00197807938152 0.35 7.83662573579e-39
-0.206818560706 0.00199503434765 0.353 7.46784321633e-39
-0.206070658311 0.00200068600302 0.354 7.2834547592e-39
-0.205315220376 0.0020063376584 0.355 7.0061490035e-39
-0.20627600179 0.0020289442799 0.359 6.82176054637e-39
-0.206065006656 0.00204024759065 0.361 6.45369128784e-39
-0.208107138132 0.00207415752291 0.367 6.45369128784e-39
-0.209540774712 0.00210241579979 0.372 6.54624284751e-39
-0.209817705825 0.00211937076591 0.375 6.45404581635e-39
-0.208960538094 0.00212502242129 0.376 6.3625690526e-39
-0.209199791504 0.00214197738742 0.379 6.27001609162e-39
-0.209964648865 0.00216458400892 0.383 6.27001889422e-39
-0.210699364064 0.00218719063042 0.387 6.17782326436e-39
-0.209781912008 0.0021928422858 0.388 6.36149846057e-39
-0.209930738933 0.00220979725193 0.391 6.26930283071e-39
-0.210590098727 0.00223240387343 0.395 6.26930002811e-39
-0.211748688079 0.00226066215031 0.4 6.17710439825e-39
-0.210767183929 0.00226631380568 0.401 5.99343200463e-39
-0.212909161316 0.00230587539331 0.408 6.08563043709e-39
-0.211371911054 0.00230587539331 0.408 6.08527450728e-39
-0.211891863348 0.00232848201482 0.412 5.71649479043e-39
-0.211360607743 0.00233978532557 0.414 5.90231257199e-39
-0.212334576353 0.00236804360245 0.419 6.73207324076e-39
-0.214276861917 0.00240760519008 0.426 7.37636645258e-39
-0.214668710023 0.00243021181158 0.43 6.63880141367e-39
-0.212057645239 0.00241890850083 0.428 5.90123637477e-39
-0.214378591714 0.00246412174384 0.436 5.71684511504e-39
-0.215175475122 0.00249238002071 0.441 5.71612905153e-39
-0.213513888441 0.00249238002071 0.441 5.5317377918e-39
-0.212332692468 0.00249803167609 0.442 5.43882329582e-39
-0.213527075637 0.00253194160835 0.448 5.16295527235e-39
-0.21514910073 0.00257150319598 0.455 5.07075683989e-39
-0.214372940058 0.00258280650673 0.457 5.16367133586e-39
-0.216838945687 0.00263367140511 0.466 5.34913879281e-39
-0.216006268462 0.00264497471586 0.468 5.44205328878e-39
-0.21470073607 0.00265062637124 0.469 5.34985625762e-39
-0.213841684453 0.00266192968199 0.471 5.07434836785e-39
-0.213868058845 0.00268453630349 0.475 5.35093665874e-39
-0.2134178103 0.00270149126962 0.478 5.16654539901e-39
-0.213387668138 0.00272409789112 0.482 5.25766202906e-39
-0.214205274282 0.00275800782338 0.488 5.34985765892e-39
-0.213236957328 0.00276931113413 0.49 5.44133722527e-39
-0.212253569292 0.00278061444488 0.492 5.625728485e-39
-0.210827468253 0.00278626610026 0.493 6.08562763449e-39
-0.208122209213 0.0027749627895 0.491 6.27001889422e-39
-0.208372765934 0.00280322106638 0.496 6.08563043709e-39
-0.205671274665 0.00279191775563 0.494 6.36221732668e-39
-0.200922000264 0.002752356168 0.487 6.63880421627e-39
-0.202357520729 0.00279756941101 0.495 6.73099984613e-39
-0.205352898079 0.00286538927552 0.507 6.823195476e-39
-0.205850243752 0.00289929920777 0.513 6.91539110586e-39
-0.207097375705 0.00294451245078 0.521 7.28417362531e-39
-0.205921831386 0.00295581576153 0.523 7.65295614477e-39
-0.206681037092 0.00299537734916 0.53 7.74514897203e-39
-0.20507031531 0.00300102900453 0.531 7.8373446019e-39
-0.203452057987 0.00300668065991 0.532 7.8373446019e-39
-0.200311621483 0.00298972569378 0.529 7.8373446019e-39
-0.197568684741 0.00297842238303 0.527 7.8373446019e-39
-0.195583069819 0.00297842238303 0.527 7.8373446019e-39
-0.193597454897 0.00297842238303 0.527 7.92954023176e-39
-0.192702609463 0.00299537734916 0.53 7.8373446019e-39
-0.191065513289 0.00300102900453 0.531 7.8373446019e-39
-0.189420881574 0.00300668065991 0.532 8.02173586162e-39
-0.187416427801 0.00300668065991 0.532 8.02173586162e-39
-0.185760492776 0.00301233231529 0.533 7.92954023176e-39
-0.183752271232 0.00301233231529 0.533 7.8373446019e-39
-0.182085032897 0.00301798397066 0.534 7.92954023176e-39
-0.18041025902 0.00302363562604 0.535 8.02173586162e-39
-0.178394501936 0.00302363562604 0.535 7.92954023176e-39
-0.175719385058 0.00301233231529 0.533 8.11321542797e-39
-0.174362987768 0.00302363562604 0.535 8.20541105784e-39
-0.172025086328 0.00301798397066 0.534 8.20541105784e-39
-0.169376343842 0.00300668065991 0.532 8.11321542797e-39
-0.168630325332 0.00302928728141 0.536 8.11321542797e-39
-0.166921641523 0.00303493893679 0.537 8.02101979811e-39
-0.165205422174 0.00304059059216 0.538 8.02101979811e-39
-0.16378497279 0.00305189390292 0.54 8.02101979811e-39
-0.160552225915 0.00302928728141 0.536 7.74514897203e-39
-0.15912424099 0.00304059059216 0.538 7.8373446019e-39
-0.156805178401 0.00303493893679 0.537 7.8373446019e-39
-0.154781885776 0.00303493893679 0.537 7.8373446019e-39
-0.153043059806 0.00304059059216 0.538 7.74514616944e-39
-0.151296698295 0.00304624224754 0.539 7.74514616944e-39
-0.148988939016 0.00304059059216 0.538 7.74514616944e-39
-0.145869225249 0.00301798397066 0.534 7.74514616944e-39
-0.145473609372 0.00305189390292 0.54 7.56075771231e-39
-0.143439013437 0.00305189390292 0.54 7.56075771231e-39
-0.141142557469 0.00304624224754 0.539 7.46856208244e-39
-0.139369821567 0.00305189390292 0.54 7.46856208244e-39
-0.138098199107 0.00306884886904 0.543 7.00866293295e-39
-0.135300629696 0.00305189390292 0.54 7.00866293295e-39
-0.134006400615 0.00306884886904 0.543 7.00866293295e-39
-0.131231437825 0.00305189390292 0.54 6.91646730308e-39
-0.129914602123 0.00306884886904 0.543 6.73064391632e-39
-0.127397731596 0.00305754555829 0.541 6.82283954619e-39
-0.12512765002 0.00305189390292 0.54 6.73099984613e-39
-0.123548954285 0.00306319721367 0.542 6.63880421627e-39
-0.122179369799 0.0030801521798 0.545 6.5458869177e-39
-0.119244276773 0.00305754555829 0.541 6.63808254756e-39
-0.115906032331 0.00302363562604 0.535 6.73063410724e-39
-0.113464517209 0.00301233231529 0.533 6.73063410724e-39
-0.110410739421 0.00298407403841 0.528 6.45620521728e-39
-0.107805326293 0.00296711907228 0.525 6.45620521728e-39
-0.100787854201 0.00282582768789 0.5 6.54768198103e-39
-0.0951456182511 0.00271844623575 0.481 6.73099424094e-39
-0.0908107985779 0.00264497471586 0.468 6.63772241386e-39
-0.08828639251 0.00262236809436 0.464 7.55680464934e-39
-0.0865381471138 0.00262236809436 0.464 7.55537252231e-39
-0.0831452700032 0.00257150319598 0.455 7.27698916809e-39
-0.0791043364095 0.00249803167609 0.442 8.83495280072e-39
-0.0756869687923 0.00244151512233 0.432 9.66219533615e-39
-0.0735449914049 0.00242456015621 0.429 1.0028819856e-38
-0.071425620639 0.00240760519008 0.426 1.03968835093e-38
-0.0690010604828 0.0023793469132 0.421 1.04930322021e-38
-0.0654932663796 0.00231152704869 0.409 1.16054936257e-38
-0.0636395234163 0.00230022373794 0.407 1.23506116633e-38
-0.0610378780583 0.00226066215031 0.4 1.21716154027e-38
-0.0587866353336 0.00223240387343 0.395 1.18961019077e-38
-0.0577335435486 0.00224935883956 0.398 1.21726887973e-38
-0.0558100968357 0.00223240387343 0.395 1.22645284974e-38
-0.0547343984292 0.00224935883956 0.398 1.18035503481e-38
-0.0532348258695 0.00224935883956 0.398 9.95963775079e-39
-0.0513452890889 0.00223240387343 0.395 8.48450767298e-39
-0.0526338665146 0.0023567402917 0.417 9.12987848332e-39
-0.0585323108417 0.00270149126962 0.478 9.86744352222e-39
-0.0618347614663 0.00294451245078 0.521 9.95892028597e-39
-0.0622850100112 0.00306319721367 0.542 9.1291596172e-39
-0.0610209230922 0.0031027588013 0.549 1.30013760715e-38
-0.0591671801289 0.00311406211205 0.551 1.27247891819e-38
-0.0572983660847 0.0031253654228 0.553 1.30013746702e-38
-0.0552147891362 0.0031253654228 0.553 1.30935703e-38
-0.0533233684704 0.00313666873355 0.555 1.26325921507e-38
-0.0513245663525 0.00314232038893 0.556 1.30935703e-38
-0.0492296860932 0.00314232038893 0.556 7.00686786961e-39
-0.0470500310033 0.00313666873355 0.555 7.65223727866e-39
-0.045120932635 0.0031479720443 0.557 7.46784321633e-39
-0.0430222846055 0.0031479720443 0.557 7.09906069688e-39
-0.0412175226555 0.00317057866581 0.561 7.19125632674e-39
-0.0389643960457 0.00315927535506 0.559 7.28345195661e-39
-0.0366604045375 0.00314232038893 0.556 7.28380788642e-39
-0.0346276924873 0.0031479720443 0.557 7.19161225655e-39
-0.0325874448967 0.00315362369968 0.558 7.10013128891e-39
-0.0305942944342 0.00316492701043 0.56 7.1001340915e-39
-0.0283826132971 0.00315362369968 0.558 7.00793846164e-39
-0.0262801974973 0.00315362369968 0.558 7.00758113053e-39
-0.0241777816975 0.00315362369968 0.558 7.19197239026e-39
-0.0221149274854 0.00315927535506 0.559 7.09977956299e-39
-0.0199371562806 0.0031479720443 0.557 6.91538830326e-39
-0.0178705342982 0.00315362369968 0.558 6.91539110586e-39
-0.015852893329 0.00317057866581 0.561 6.82283954619e-39
-0.0137636647251 0.00317623032118 0.562 6.91539110586e-39
-0.0115840096352 0.00315927535506 0.559 7.09977956299e-39
-0.00951173599742 0.00317057866581 0.561 7.28417082272e-39
-0.00739801688688 0.00317057866581 0.561 6.91538550067e-39
-0.00527487835072 0.00316492701043 0.56 7.37636645258e-39
-0.00318753363193 0.00318753363193 0.564 7.65295334217e-39
-0.00106062732552 0.00318188197656 0.563 7.5607605149e-39
0.00106062732552 0.00318188197656 0.563 7.46856208244e-39
0.00317623032118 0.00317623032118 0.562 7.65295334217e-39
0.00527487835072 0.00316492701043 0.56 7.74514897203e-39
0.00742439127864 0.00318188197656 0.563 7.8373446019e-39
0.00957955586193 0.00319318528731 0.565 8.11393149149e-39
0.0117497915262 0.00320448859806 0.567 8.02173586162e-39
0.0137636647251 0.00317623032118 0.562 7.92954023176e-39
0.0159094098828 0.00318188197656 0.563 7.74514897203e-39
0.018318898958 0.00323274687494 0.572 7.74514897203e-39
0.0203308882718 0.00321014025344 0.568 7.65295334217e-39
0.0224314201864 0.00320448859806 0.567 7.74514897203e-39
0.0243077697712 0.00317057866581 0.561 7.8373446019e-39
0.0262801974973 0.00315362369968 0.558 7.8373446019e-39
0.0283317483987 0.0031479720443 0.557 7.8373446019e-39
0.0300479677478 0.00310841045667 0.55 7.8373446019e-39
0.0317114383135 0.00306884886904 0.543 7.92954023176e-39
0.0338195057686 0.00307450052442 0.544 8.11285249167e-39
0.035539492888 0.00304624224754 0.539 8.11321262538e-39
0.0372218023048 0.00301798397066 0.534 8.11321542797e-39
0.0385725479396 0.00296711907228 0.525 8.02173866422e-39
0.0398554737099 0.0029162541739 0.516 8.29832555381e-39
0.041556621978 0.00289929920777 0.513 8.29940175103e-39
0.042217865657 0.00281452437713 0.498 8.57598583802e-39
0.0433858744347 0.00276931113413 0.49 8.57670330284e-39
0.044955150744 0.002752356168 0.487 8.85257132632e-39
0.0474626018457 0.00279191775563 0.494 8.85257132632e-39
0.0504221853775 0.00285408596476 0.505 8.66818006659e-39
0.0526357503997 0.00287104093089 0.508 8.57598443673e-39
0.0548719220434 0.00288799589702 0.511 8.85257272761e-39
0.0574641479757 0.00292190582927 0.517 8.76037709775e-39
0.0587225832394 0.00288799589702 0.511 8.85257272761e-39
0.0586302728682 0.00279191775563 0.494 9.03696398734e-39
0.0595119311069 0.00274670451262 0.486 9.1291596172e-39
0.0597022035045 0.00267323299274 0.473 9.22135524707e-39
0.0595345377284 0.0025884581621 0.458 9.40466750698e-39
0.0600563739081 0.00253759326372 0.449 9.22027624725e-39
0.0610604846798 0.00250933498684 0.444 8.94368935766e-39
0.0623095005179 0.00249238002071 0.441 8.66710246807e-39
0.0632457914251 0.00246412174384 0.436 8.5745467045e-39
0.0632514430805 0.0024019535347 0.425 8.66674233437e-39
0.064852745437 0.0024019535347 0.425 8.48199794743e-39
0.0656722354665 0.00237369525782 0.42 7.92882416825e-39
0.075261210754 0.00265627802661 0.47 7.74443010592e-39
0.0821129009546 0.00283147934326 0.501 8.2976038851e-39
0.0860125431639 0.00289929920777 0.513 8.94369216026e-39
0.0893168776736 0.00294451245078 0.521 9.49686593944e-39
0.092331093874 0.00297842238303 0.527 9.68125439657e-39
0.0950325851436 0.00300102900453 0.531 1.03266238056e-38
0.0964850605752 0.00298407403841 0.528 1.06968398534e-38
0.0977284247578 0.0029614674169 0.524 1.06968398534e-38
0.0993221915738 0.00295016410615 0.522 1.07886795534e-38
0.100900887309 0.0029388607954 0.52 1.09730708132e-38
0.103255743715 0.00295016410615 0.522 1.11574620729e-38
0.104819368369 0.0029388607954 0.52 1.11574620729e-38
0.107189295857 0.00295016410615 0.522 1.11578180027e-38
0.110201628172 0.00297842238303 0.527 1.08812311131e-38
0.113038759171 0.00300102900453 0.531 1.06964853249e-38
0.116122679121 0.00302928728141 0.536 1.07876019549e-38
0.118803447654 0.00304624224754 0.539 1.07868858914e-38
0.122179369799 0.0030801521798 0.545 1.00489607188e-38
0.128107956288 0.00317623032118 0.562 1.03244686086e-38
0.132079186132 0.00322144356419 0.57 1.10613147814e-38
0.135639729019 0.00325535349644 0.576 1.08758473244e-38
0.138288471505 0.0032666568072 0.578 1.08751284583e-38
0.139980200347 0.00325535349644 0.576 1.17978064256e-38
0.142890802866 0.00327230846257 0.579 1.06003422372e-38
0.146575682171 0.00330621839483 0.585 1.08776451903e-38
0.1477625298 0.00328361177332 0.581 1.23534955356e-38
0.150467788839 0.00329491508407 0.583 1.22620159692e-38
0.152402538863 0.0032892634287 0.582 1.22627348353e-38
0.154595381149 0.0032892634287 0.582 1.22638110326e-38
0.156788223435 0.0032892634287 0.582 1.22645298987e-38
0.15898106572 0.0032892634287 0.582 1.24474806236e-38
0.161727770233 0.00330056673945 0.584 1.33701571896e-38
0.164489545827 0.0033118700502 0.586 1.21716140014e-38
0.16641299254 0.00330621839483 0.585 1.08815940494e-38
0.168617138136 0.00330621839483 0.585 1.06975587195e-38
0.171113285927 0.0033118700502 0.586 1.07904746168e-38
0.172729659365 0.00330056673945 0.584 1.11592571362e-38
0.174930037191 0.00330056673945 0.584 1.11599760023e-38
0.177130415017 0.00330056673945 0.584 1.08833891128e-38
0.179637866119 0.00330621839483 0.585 1.08826702466e-38
0.182774534852 0.00332317336095 0.588 1.09741456091e-38
0.184675374944 0.00331752170558 0.587 1.08812311131e-38
0.186887056081 0.00331752170558 0.587 1.06042882937e-38
0.190065170287 0.0033344766717 0.59 1.05120926639e-38
0.190984506228 0.0033118700502 0.586 1.03284202702e-38
0.193522099492 0.00331752170558 0.587 1.02362246404e-38
0.196734123631 0.0033344766717 0.59 1.0051834782e-38
0.198282677204 0.00332317336095 0.588 9.86744352222e-39
0.201180092526 0.0033344766717 0.59 1.1158180939e-38
0.203747827952 0.00334012832708 0.591 1.30020935363e-38
0.204929023925 0.00332317336095 0.588 1.30942891661e-38
0.208553618906 0.00334577998246 0.592 1.32786804259e-38
0.210784138895 0.00334577998246 0.592 1.3094645096e-38
0.212295014765 0.0033344766717 0.59 1.27258625765e-38
0.215245178871 0.00334577998246 0.592 1.25407524507e-38
0.216373626061 0.00332882501633 0.589 1.12500136326e-38
0.219335093478 0.00334012832708 0.591 1.09730708132e-38
0.221936738836 0.00334577998246 0.592 1.01433101444e-38
0.224924580645 0.00335708329321 0.594 9.49794073536e-39
0.228309922215 0.00337403825934 0.597 9.49794073536e-39
0.230945477505 0.00337968991471 0.598 9.59013776652e-39
0.231638747231 0.00335708329321 0.594 9.59013776652e-39
0.233483070769 0.00335143163783 0.593 9.77452762495e-39
0.238102357096 0.00338534157009 0.599 9.77452762495e-39
0.239155448881 0.00336838660396 0.596 9.68233199509e-39
0.241806075252 0.00337403825934 0.597 9.68233199509e-39
0.246917055597 0.00341359984697 0.604 9.59013636522e-39
0.247955076301 0.00339664488084 0.601 9.68233199509e-39
0.250635844834 0.00340229653621 0.602 9.77452762495e-39
0.252904042525 0.00340229653621 0.602 9.77452762495e-39
0.254748366063 0.00339664488084 0.601 9.95784408875e-39
0.257440437907 0.00340229653621 0.602 9.95784408875e-39
0.258414406517 0.00338534157009 0.599 9.95784408875e-39
0.262412010752 0.00340794819159 0.603 9.95784408875e-39
0.263806085745 0.00339664488084 0.601 9.86564845889e-39
0.266955941675 0.00340794819159 0.603 9.86564845889e-39
0.26967438791 0.00341359984697 0.604 9.86564845889e-39
0.272400369687 0.00341925150234 0.605 9.86564845889e-39
0.274225854373 0.00341359984697 0.604 9.95784408875e-39
0.276501587604 0.00341359984697 0.604 9.95784408875e-39
0.279238872691 0.00341925150234 0.605 9.86564845889e-39
0.281518373693 0.00341925150234 0.605 9.68125719916e-39
0.283797874694 0.00341925150234 0.605 9.86564845889e-39
0.288914506695 0.0034531614346 0.611 9.86564845889e-39
0.289786745508 0.00343620646847 0.608 9.86564845889e-39
0.29207754982 0.00343620646847 0.608 9.86564845889e-39
0.293884195655 0.00343055481309 0.607 9.86493239538e-39
0.298610863434 0.00345881308997 0.612 9.86493239538e-39
0.301408432845 0.00346446474535 0.613 9.86493239538e-39
0.304213537797 0.00347011640072 0.614 9.86493239538e-39
0.307525407847 0.00348141971147 0.616 9.95712802524e-39
0.309343356993 0.0034757680561 0.615 9.95712802524e-39
0.311153770598 0.00347011640072 0.614 1.00493236551e-38
0.312956648663 0.00346446474535 0.613 1.00493236551e-38
0.317323494383 0.00348707136685 0.617 1.00493236551e-38
0.320166277037 0.00349272302223 0.618 1.0141519285e-38
0.322494759052 0.00349272302223 0.618 9.95712802524e-39
0.324297637117 0.00348707136685 0.617 9.86493239538e-39
0.326092979641 0.00348141971147 0.616 9.86564845889e-39
0.327347647135 0.00347011640072 0.614 9.86564845889e-39
0.332882501633 0.00350402633298 0.62 9.86564845889e-39
0.334137169126 0.00349272302223 0.618 9.86564845889e-39
0.338098979545 0.00350967798835 0.621 9.95712522264e-39
0.342083396585 0.00352663295448 0.624 1.00493208525e-38
0.343330528538 0.00351532964373 0.622 1.00493208525e-38
0.343451097186 0.00349272302223 0.618 1.00493208525e-38
0.346339093083 0.0034983746776 0.619 9.95712522264e-39
0.348108061215 0.00349272302223 0.618 9.95712522264e-39
0.35043654323 0.00349272302223 0.618 9.95712522264e-39
0.352765025245 0.00349272302223 0.618 9.95712522264e-39
0.362563111781 0.00356619454211 0.631 9.77345282903e-39
0.362627163876 0.00354358792061 0.627 9.77345282903e-39
0.364407435319 0.00353793626523 0.626 9.86564845889e-39
0.368523724318 0.00355489123136 0.629 9.68125719916e-39
0.370893651805 0.00355489123136 0.629 9.49794213666e-39
0.370889884035 0.00353228460986 0.625 9.49794213666e-39
0.371453165687 0.00351532964373 0.622 9.49794213666e-39
-0.205433905139 0.00324028241544 0.344 8.66745979918e-39
-0.206511487431 0.00327796011795 0.348 8.20648164986e-39
-0.205200303383 0.00327796011795 0.348 7.8373417993e-39
-0.205646784158 0.00330621839483 0.351 7.74514897203e-39
-0.205488537808 0.00332505724608 0.353 7.46784321633e-39
-0.204736867643 0.0033344766717 0.354 7.09906349948e-39
-0.207425171716 0.00340041265109 0.361 6.82247660989e-39
-0.207206641042 0.00341925150234 0.363 6.82247660989e-39
-0.208674187554 0.00346634863047 0.368 6.73027817743e-39
-0.20897749306 0.00349460690735 0.371 6.82247380729e-39
-0.208698678061 0.0035134457586 0.373 6.73063410724e-39
-0.209516284205 0.00355112346111 0.377 6.54660298121e-39
-0.209199791504 0.00356996231236 0.379 6.45441015395e-39
-0.208320017151 0.00357938173799 0.38 6.36221452408e-39
-0.209066035661 0.00361705944049 0.384 6.36221732668e-39
-0.208700561946 0.00363589829175 0.386 6.36221452408e-39
-0.209393831672 0.00367357599425 0.39 6.27001609162e-39
-0.210056959236 0.00371125369676 0.394 6.27001609162e-39
-0.210689944638 0.00374893139926 0.398 6.17782046176e-39
-0.211292787879 0.00378660910177 0.402 6.0856248319e-39
-0.211343652777 0.00381486737865 0.405 6.08562763449e-39
-0.211889979463 0.00385254508115 0.409 5.90123917736e-39
-0.21086326207 0.00386196450678 0.41 5.5321007281e-39
-0.212381673481 0.00391848106053 0.416 5.71863877708e-39
-0.211827811254 0.00393731991179 0.418 6.6398776109e-39
-0.21327086726 0.00399383646554 0.424 7.00866013035e-39
-0.213670250907 0.00403151416805 0.428 6.27109509144e-39
-0.212057645239 0.00403151416805 0.428 5.81011694213e-39
-0.213886897696 0.00409745014743 0.435 5.8090407449e-39
-0.214199622627 0.00413512784994 0.439 5.71684511504e-39
-0.214966363873 0.00418222497807 0.444 5.62464948518e-39
-0.212813083175 0.00417280555244 0.443 5.34913879281e-39
-0.212097206827 0.0041916444037 0.445 5.07255190322e-39
-0.213257680064 0.00424816095745 0.451 4.98035627336e-39
-0.215311114851 0.00432351636246 0.459 5.16474753308e-39
-0.21544298681 0.00436119406497 0.463 5.44133442267e-39
-0.215544716606 0.00439887176748 0.467 5.53352865124e-39
-0.213785167899 0.00439887176748 0.467 5.34985625762e-39
-0.212933651823 0.00441771061873 0.469 5.44205188749e-39
-0.21431830739 0.00448364659811 0.476 5.6260886187e-39
-0.213864291075 0.00451190487499 0.479 5.44169735897e-39
-0.213387668138 0.00454016315187 0.482 5.44205328878e-39
-0.213327383814 0.00457784085437 0.486 5.62644454851e-39
-0.212801779864 0.00460609913125 0.489 5.6257256824e-39
-0.211390749905 0.00461551855688 0.49 5.81011554083e-39
-0.211255110176 0.00465319625938 0.494 5.90231117069e-39
-0.208546083366 0.00463435740813 0.492 5.90231117069e-39
-0.207532553169 0.00465319625938 0.494 6.08563043709e-39
-0.206920290503 0.00468145453626 0.497 6.45441295654e-39
-0.202159712791 0.00461551855688 0.49 6.823195476e-39
-0.201539914585 0.00464377683376 0.493 6.91539110586e-39
-0.206162968682 0.00479448764378 0.509 7.19197799545e-39
-0.20544897622 0.00482274592066 0.512 7.19197799545e-39
-0.206302376182 0.00488868190004 0.519 7.37636925518e-39
-0.206315563378 0.00493577902817 0.524 7.65295614477e-39
-0.206291072871 0.0049828761563 0.529 7.74514897203e-39
-0.204684118859 0.00499229558193 0.53 7.8373446019e-39
-0.201922343266 0.00497345673068 0.528 7.8373446019e-39
-0.199554299663 0.00496403730505 0.527 7.8373446019e-39
-0.197943577881 0.00497345673068 0.528 7.92954023176e-39
-0.195211944449 0.00495461787943 0.526 8.02173586162e-39
-0.194699527695 0.00499229558193 0.53 8.02173586162e-39
-0.193429789121 0.00501113443318 0.532 7.92954023176e-39
-0.192144979465 0.00502997328444 0.534 7.8373446019e-39
-0.189776935863 0.00502055385881 0.533 8.02173586162e-39
-0.187768714319 0.00502055385881 0.533 8.20612712135e-39
-0.185411974028 0.00501113443318 0.532 8.02173586162e-39
-0.183752271232 0.00502055385881 0.533 7.92954023176e-39
-0.182085032897 0.00502997328444 0.534 8.02173586162e-39
-0.180747474458 0.00504881213569 0.536 8.11393149149e-39
-0.178394501936 0.00503939271006 0.535 8.11393149149e-39
-0.175719385058 0.00502055385881 0.533 8.02173305903e-39
-0.174037075641 0.00502997328444 0.534 8.02173305903e-39
-0.172347230684 0.00503939271006 0.535 7.92953742916e-39
-0.1703314736 0.00503939271006 0.535 8.02173305903e-39
-0.168315716516 0.00503939271006 0.535 8.02173305903e-39
-0.167232482569 0.00506765098694 0.538 8.02173305903e-39
-0.165819568725 0.00508648983819 0.54 8.02173305903e-39
-0.163481667285 0.00507707041257 0.539 7.92953742916e-39
-0.160552225915 0.00504881213569 0.536 7.8373417993e-39
-0.159420010955 0.00507707041257 0.539 7.92953742916e-39
-0.156513176206 0.00504881213569 0.536 7.92953742916e-39
-0.154493651352 0.00504881213569 0.536 7.92953742916e-39
-0.15332752646 0.00507707041257 0.539 7.65295334217e-39
-0.151015999411 0.00506765098694 0.538 7.74514897203e-39
-0.148712007903 0.00505823156132 0.537 7.74514897203e-39
-0.146688715278 0.00505823156132 0.537 7.8373446019e-39
-0.145473609372 0.00508648983819 0.54 7.65295614477e-39
-0.14370464124 0.00509590926382 0.541 7.5607605149e-39
-0.141666277534 0.00509590926382 0.541 7.46856208244e-39
-0.139886006091 0.00510532868945 0.542 7.28417082272e-39
-0.138098199107 0.00511474811507 0.543 6.82427167322e-39
-0.135300629696 0.00508648983819 0.54 6.82426887062e-39
-0.134006400615 0.00511474811507 0.543 6.82426887062e-39
-0.131960501369 0.00511474811507 0.543 6.73207324076e-39
-0.12919684189 0.00508648983819 0.54 6.73207604336e-39
-0.126691274674 0.00506765098694 0.538 7.00758393313e-39
-0.124895932149 0.00507707041257 0.539 6.91538830326e-39
-0.123548954285 0.00510532868945 0.542 6.73099704354e-39
-0.121955187469 0.0051241675407 0.544 6.63808254756e-39
-0.118362618535 0.00505823156132 0.537 6.73028098002e-39
-0.114822798384 0.00499229558193 0.53 6.73028098002e-39
-0.112400122113 0.00497345673068 0.528 6.63736648405e-39
-0.107483181936 0.00484158477191 0.514 5.90410903662e-39
-0.0973328088815 0.00446480774686 0.474 6.17961692639e-39
-0.0923216744483 0.00431409693684 0.458 6.54660298121e-39
-0.0902004197973 0.00429525808559 0.456 6.82211367358e-39
-0.0884823165631 0.00429525808559 0.456 7.64828421569e-39
-0.0861933961359 0.00426699980871 0.453 7.92163830972e-39
-0.0839270823302 0.00423874153183 0.45 8.47230096205e-39
-0.0802214802888 0.00413512784994 0.439 8.47050589872e-39
-0.0773146455405 0.00406919187056 0.432 1.15907533672e-38
-0.0748109622091 0.00402209474242 0.427 1.0488002942e-38
-0.0723449565801 0.00397499761429 0.422 1.0401558241e-38
-0.0704196259821 0.00395615876304 0.42 1.12381530424e-38
-0.0678537744415 0.00389964220928 0.414 1.20740275763e-38
-0.0653331361439 0.00384312565552 0.408 1.18028328832e-38
-0.0634831609509 0.00382428680427 0.406 1.14369272295e-38
-0.0614956621438 0.00379602852739 0.403 1.15302018592e-38
-0.0592331161083 0.00374893139926 0.398 1.16195150181e-38
-0.0574434252393 0.00373009254801 0.396 1.16195150181e-38
-0.0560926796045 0.00373951197364 0.397 9.6830508612e-39
-0.0541843039726 0.00371125369676 0.394 1.03284202702e-38
-0.0528335583378 0.00372067312238 0.395 8.39231204311e-39
-0.0517352533098 0.00374893139926 0.398 8.57670330284e-39
-0.0546533913688 0.00407861129618 0.433 9.22207411318e-39
-0.0606140039051 0.00466261568501 0.495 1.0697204191e-38
-0.0629029243323 0.00499229558193 0.53 1.21716154027e-38
-0.0625148439965 0.0051241675407 0.544 1.2632593552e-38
-0.0611320723146 0.00518068409446 0.55 1.30935703e-38
-0.0591671801289 0.00519010352008 0.551 1.26325921507e-38
-0.0572983660847 0.00520894237134 0.553 1.29091790403e-38
-0.0553146350478 0.00521836179696 0.554 1.30017306e-38
-0.053707681036 0.00526545892509 0.559 1.24485568208e-38
-0.0516014974659 0.00526545892509 0.559 1.20797743013e-38
-0.0491411434923 0.00522778122259 0.555 7.2834547592e-39
-0.0470500310033 0.00522778122259 0.555 7.74443290852e-39
-0.0452019396954 0.00525603949947 0.558 7.19125632674e-39
-0.0428678060252 0.00522778122259 0.555 7.19125632674e-39
-0.0408501650561 0.00523720064821 0.556 7.37564758647e-39
-0.0388249885464 0.00524662007384 0.557 7.28345195661e-39
-0.0365285325787 0.00521836179696 0.554 7.19161225655e-39
-0.0346276924873 0.00524662007384 0.557 7.00722099683e-39
-0.0324706440189 0.00523720064821 0.556 6.91574002918e-39
-0.0305396617655 0.00526545892509 0.559 7.00793846164e-39
-0.0284334781955 0.00526545892509 0.559 7.00793846164e-39
-0.0263272946255 0.00526545892509 0.559 7.09977676039e-39
-0.0241777816975 0.00525603949947 0.558 7.09977676039e-39
-0.0221149274854 0.00526545892509 0.559 7.09977956299e-39
-0.019972950098 0.00525603949947 0.558 7.09977956299e-39
-0.0179025603453 0.00526545892509 0.559 7.19197799545e-39
-0.0158811516059 0.00529371720197 0.562 7.46856488504e-39
-0.0137636647251 0.00529371720197 0.562 7.37636925518e-39
-0.0116047323716 0.00527487835072 0.56 7.19197519285e-39
-0.0094947810313 0.00527487835072 0.56 7.09977676039e-39
-0.00742439127864 0.0053031366276 0.563 7.19197519285e-39
-0.00529371720197 0.00529371720197 0.562 7.28417082272e-39
-0.00319318528731 0.00532197547885 0.565 7.37636925518e-39
-0.00106816286602 0.0053408143301 0.567 7.46820895523e-39
0.00106251121064 0.00531255605322 0.564 7.5600388462e-39
0.00318753363193 0.00531255605322 0.564 7.65223447606e-39
0.00527487835072 0.00527487835072 0.56 7.83662573579e-39
0.00741120408276 0.00529371720197 0.562 7.92882136565e-39
0.00952869096355 0.00529371720197 0.562 8.11321262538e-39
0.0117083460535 0.00532197547885 0.565 8.02101699551e-39
0.0137636647251 0.00529371720197 0.562 7.83662573579e-39
0.0158811516059 0.00529371720197 0.562 7.74443010592e-39
0.018318898958 0.00538791145823 0.572 7.65295334217e-39
0.0202950944544 0.0053408143301 0.567 7.56075771231e-39
0.0223522970112 0.00532197547885 0.565 7.65295334217e-39
0.0243510991291 0.00529371720197 0.562 7.74514897203e-39
0.0263743917536 0.00527487835072 0.56 8.02173586162e-39
0.0284843430939 0.00527487835072 0.56 8.02173586162e-39
0.0302118657537 0.00520894237134 0.553 8.02173586162e-39
0.0321786418245 0.00519010352008 0.551 8.11393149149e-39
0.0340681786051 0.0051618452432 0.548 8.20576418505e-39
0.0356054288674 0.00508648983819 0.54 8.20576418505e-39
0.0370823948056 0.00501113443318 0.532 8.02173586162e-39
0.0384990764198 0.00493577902817 0.524 7.92954303436e-39
0.0395465165494 0.00482274592066 0.512 8.29832555381e-39
0.0410705796157 0.00477564879253 0.507 8.48271681354e-39
0.0424721901489 0.00471913223877 0.501 8.57598864062e-39
0.0438285874391 0.00466261568501 0.495 8.66818146789e-39
