VERSION .7
FIELDS x y z rgb
SIZE 4 4 4 4
TYPE F F F F
COUNT 1 1 1 1
WIDTH 863
HEIGHT 1
VIEWPOINT 0 0 0 1 0 0 0
POINTS 863
DATA ascii
0.0967845983101 0.05015844146 0.375 6.47714762283e-39
0.0987212322188 0.0504259531478 0.377 6.20092507084e-39
0.100938565011 0.0508272206794 0.38 5.74066999153e-39
0.100484548696 0.0498909297722 0.373 5.5562815344e-39
0.101889927 0.0498909297722 0.373 5.2797086578e-39
0.104126098643 0.0502921973039 0.376 5.2797086578e-39
0.106104178025 0.0505597089916 0.378 5.18715709812e-39
0.107528395179 0.0505597089916 0.378 5.0027658384e-39
0.107511440213 0.0498909297722 0.373 4.91057020853e-39
0.108332814128 0.0496234180844 0.371 5.0027672397e-39
0.109730656891 0.0496234180844 0.371 5.09496286956e-39
0.111428037389 0.0497571739283 0.372 5.09496286956e-39
0.113436258932 0.0500246856161 0.374 5.09604046808e-39
0.116994917934 0.0509609765233 0.381 5.18751302793e-39
0.119362961536 0.051362244055 0.384 5.18750742274e-39
0.120180567681 0.0510947323672 0.382 5.27969464481e-39
0.127032257881 0.0533685817134 0.399 5.83142648787e-39
0.154629291081 0.0642028050688 0.48 5.92290325162e-39
0.164585623968 0.0675467011661 0.505 6.10729451135e-39
0.168136747429 0.0682154803856 0.51 6.38280240112e-39
0.172725891594 0.0692855271367 0.518 5.92470952534e-39
0.175689242896 0.0696867946684 0.521 6.10909938377e-39
0.177993234405 0.0698205505123 0.522 6.01725968372e-39
0.180304761453 0.0699543063562 0.523 6.01725407852e-39
0.184017899035 0.0706230855756 0.528 6.47858395376e-39
0.185302708691 0.0703555738878 0.526 6.57113411213e-39
0.187284555842 0.0703555738878 0.526 6.6636856718e-39
0.191065513289 0.0710243531073 0.531 6.66368286921e-39
0.193429789121 0.0711581089512 0.532 6.20344180288e-39
0.195066885295 0.0710243531073 0.531 6.7522883724e-39
0.197438696667 0.0711581089512 0.532 7.85286398239e-39
0.199068257301 0.0710243531073 0.531 9.69064029368e-39
0.203719569675 0.0719606440146 0.538 1.12532730528e-38
0.20574663007 0.0719606440146 0.538 1.39254959749e-38
0.205842708211 0.0712918647951 0.533 1.48470865347e-38
0.209020822418 0.0716931323268 0.536 1.46626938736e-38
0.210646615281 0.0715593764829 0.535 1.46641288033e-38
0.21146987308 0.0711581089512 0.532 1.38350912045e-38
0.21507939698 0.0716931323268 0.536 1.28223924225e-38
0.215883815929 0.0712918647951 0.533 1.17167875523e-38
0.217892037472 0.0712918647951 0.533 7.01555872269e-39
0.222788254913 0.0722281557024 0.54 6.83262621466e-39
0.225239189461 0.0723619115462 0.541 6.64932516514e-39
0.224756914869 0.0715593764829 0.535 6.37345714166e-39
0.227196546106 0.0716931323268 0.536 6.10114701499e-39
0.231354280577 0.0723619115462 0.541 6.37665770736e-39
0.232961234589 0.0722281557024 0.54 6.37594024254e-39
0.234995830525 0.0722281557024 0.54 6.28266841546e-39
0.23703042646 0.0722281557024 0.54 6.28123068323e-39
0.239065022395 0.0722281557024 0.54 6.64929293528e-39
0.242885541429 0.0727631790779 0.544 7.20102477834e-39
0.245835705535 0.0730306907657 0.546 7.66200152636e-39
0.244260777571 0.0719606440146 0.538 8.95127038235e-39
0.247203406136 0.0722281557024 0.54 9.59555798898e-39
0.250622657639 0.072629423234 0.543 1.03327586903e-38
0.248945999877 0.0715593764829 0.535 1.10699579903e-38
0.251899931753 0.0718268881707 0.537 1.14376559047e-38
0.253923224378 0.0718268881707 0.537 1.18979081814e-38
0.257853008749 0.0723619115462 0.541 1.21737734023e-38
0.260852153869 0.072629423234 0.543 1.21734118673e-38
0.261445577683 0.0722281557024 0.54 1.23567241272e-38
0.265919804856 0.0728969349218 0.545 1.23567241272e-38
0.267481545624 0.0727631790779 0.544 1.23567241272e-38
0.270522136217 0.0730306907657 0.546 1.23567241272e-38
0.273078568332 0.0731644466096 0.547 1.24489197571e-38
0.276648530644 0.0735657141413 0.55 1.23567241272e-38
0.277707274084 0.0732982024535 0.548 1.23567241272e-38
0.278240413575 0.0728969349218 0.545 1.23567241272e-38
0.280808149001 0.0730306907657 0.546 1.24489197571e-38
0.284419556786 0.0734319582974 0.549 1.24489197571e-38
0.286488062653 0.0734319582974 0.549 1.24489197571e-38
0.284877340871 0.0724956673901 0.542 1.23567241272e-38
0.286919472347 0.0724956673901 0.542 1.21723328675e-38
0.291627301275 0.0731644466096 0.547 1.22645284974e-38
0.296372807905 0.0738332258291 0.552 1.22645284974e-38
0.299533967146 0.0741007375169 0.554 1.21723328675e-38
0.298354655057 0.0732982024535 0.548 1.22645298987e-38
0.302064024869 0.0736994699852 0.551 1.22645298987e-38
0.311315784719 0.0754382959558 0.564 1.22645298987e-38
0.311217822692 0.0749032725802 0.56 1.22645298987e-38
0.30997069074 0.0741007375169 0.554 1.21723342688e-38
0.310368190501 0.0736994699852 0.551 1.22645298987e-38
0.315846528445 0.0745020050485 0.557 1.23567255285e-38
0.31509109051 0.0738332258291 0.552 1.23567255285e-38
0.320043824504 0.0745020050485 0.557 1.22648844272e-38
0.322142472534 0.0745020050485 0.557 1.22648844272e-38
0.3300623256 0.0758395634875 0.567 1.22648844272e-38
0.323410327223 0.0738332258291 0.552 1.2357080057e-38
0.324900480357 0.0736994699852 0.551 1.21726887973e-38
0.326976521765 0.0736994699852 0.551 1.21726887973e-38
0.336816053774 0.0754382959558 0.564 1.21726887973e-38
-0.149895087761 0.0345184271501 0.251 1.22641655611e-38
-0.148355953614 0.0343809035359 0.25 1.18953830416e-38
-0.14859332314 0.0346559507642 0.252 1.16184402222e-38
-0.145300291941 0.0341058563077 0.248 1.13411330652e-38
-0.14611224643 0.0345184271501 0.251 1.10641888445e-38
-0.146323241564 0.0347934743784 0.253 1.06954091277e-38
-0.145944580654 0.0349309979925 0.254 1.06032134978e-38
-0.145558384203 0.0350685216067 0.255 1.0693974198e-38
-0.142896454521 0.0346559507642 0.252 1.06017785682e-38
-0.141946976418 0.0346559507642 0.252 1.03251916786e-38
-0.140437984433 0.0345184271501 0.251 1.01408004189e-38
-0.1394922741 0.0345184271501 0.251 1.01408004189e-38
-0.137994585425 0.0343809035359 0.25 1.0048604789e-38
-0.138697274577 0.0347934743784 0.253 9.95640915913e-39
-0.139377357107 0.0352060452208 0.256 9.7720178994e-39
-0.138953482954 0.0353435688349 0.257 9.58799237857e-39
-0.139058980521 0.0356186160632 0.259 9.68018800844e-39
-0.146080220383 0.0376814702754 0.274 9.68054393825e-39
-0.149812196816 0.0389191828027 0.283 9.49615267852e-39
-0.151899541535 0.0397443244875 0.289 9.40395704866e-39
-0.15498534537 0.0408445134007 0.297 9.40395424606e-39
-0.155420522834 0.0412570842431 0.3 9.40395424606e-39
-0.156347394315 0.0418071786997 0.304 9.40395424606e-39
-0.159286255111 0.0429073676129 0.312 9.21956578893e-39
-0.162671596681 0.0441450801401 0.321 9.12737015907e-39
-0.165486121058 0.0452452690533 0.329 9.12737015907e-39
-0.167741131553 0.0462079343523 0.336 9.12736735647e-39
-0.1684570079 0.0467580288089 0.34 8.94297609674e-39
-0.168651048068 0.0471705996513 0.343 9.03516892401e-39
-0.16784662912 0.0473081232655 0.344 9.03516892401e-39
-0.167034674631 0.0474456468796 0.345 9.12736455387e-39
-0.168136747429 0.0481332649503 0.35 8.94297609674e-39
-0.169201142525 0.048820883021 0.355 8.85078046688e-39
-0.169282149585 0.0492334538635 0.358 8.75858483702e-39
-0.167933287836 0.0492334538635 0.358 9.03517172661e-39
-0.16844570459 0.04978354832 0.362 8.85078046688e-39
-0.168466427326 0.0501961191625 0.365 8.75858483702e-39
-0.170295679783 0.0511587844615 0.372 8.75858483702e-39
-0.170256118195 0.0515713553039 0.375 8.85078046688e-39
-0.170193949986 0.0519839261463 0.378 8.5749124434e-39
-0.17055565593 0.0525340206029 0.382 8.5749124434e-39
-0.169116367694 0.0525340206029 0.382 8.5749124434e-39
-0.168554969927 0.0528090678312 0.384 8.75930370313e-39
-0.169719210934 0.0536342095161 0.39 8.5749096408e-39
-0.169544009618 0.0540467803585 0.393 8.48271401094e-39
-0.16934620168 0.0544593512009 0.396 8.48271401094e-39
-0.167430290507 0.0543218275868 0.395 8.39051838108e-39
-0.168462659556 0.0551469692716 0.401 8.02173866422e-39
-0.167784460911 0.0554220164999 0.403 7.74515177463e-39
-0.169154045397 0.0563846817989 0.41 7.65295614477e-39
-0.168426865738 0.0566597290272 0.412 7.46856488504e-39
-0.169304756207 0.0574848707121 0.418 6.823195476e-39
-0.167729828242 0.0574848707121 0.418 7.5607605149e-39
-0.1669498998 0.0577599179404 0.42 8.48271681354e-39
-0.16694236426 0.058310012397 0.424 8.29832555381e-39
-0.166514722336 0.0587225832394 0.427 7.19090600213e-39
-0.166836866693 0.0594102013101 0.432 5.9923628139e-39
-0.166356475986 0.0598227721525 0.435 6.45369689303e-39
-0.165474817747 0.0600978193808 0.437 7.65224008125e-39
-0.163828302148 0.0600978193808 0.437 7.83662853838e-39
-0.163666288027 0.0606479138374 0.441 8.02101979811e-39
-0.162372058946 0.0607854374515 0.442 8.02101699551e-39
-0.16288824347 0.0616105791364 0.448 8.11321262538e-39
-0.16048063828 0.0613355319081 0.446 7.74514616944e-39
-0.159512321326 0.0616105791364 0.448 8.29831994862e-39
-0.159233506327 0.062160673593 0.452 7.8373417993e-39
-0.157181955426 0.0620231499788 0.451 8.02173586162e-39
-0.155482691043 0.0620231499788 0.451 7.46856208244e-39
-0.154806376283 0.0624357208213 0.454 6.823195476e-39
-0.152084162277 0.0620231499788 0.451 6.823195476e-39
-0.151385240895 0.0624357208213 0.454 1.05110206705e-38
-0.15198243248 0.0633983861203 0.461 1.45694206453e-38
-0.149593666141 0.063123338892 0.459 1.4569419244e-38
-0.147864259596 0.063123338892 0.459 1.42017157243e-38
-0.146453229637 0.0632608625061 0.46 1.37407347724e-38
-0.144720055322 0.0632608625061 0.46 1.20815693647e-38
-0.144851927281 0.064086004191 0.466 1.23581534517e-38
-0.143710292895 0.0643610514193 0.468 1.22666766879e-38
-0.142553587428 0.0646360986476 0.47 1.18978927672e-38
-0.141082273145 0.0647736222617 0.471 1.24528616097e-38
-0.138420343463 0.0643610514193 0.468 1.45730051667e-38
-0.136365024792 0.0642235278051 0.467 1.59552193473e-38
-0.135470179357 0.0646360986476 0.47 1.21751985229e-38
-0.133414860686 0.0644985750334 0.469 1.23595897826e-38
-0.131367077554 0.0643610514193 0.468 1.27276548372e-38
-0.129603761077 0.0643610514193 0.468 1.2912046097e-38
-0.128113607943 0.0644985750334 0.469 1.28198504671e-38
-0.124999545831 0.0638109569627 0.464 1.25429076477e-38
-0.122454417027 0.0633983861203 0.461 1.25429076477e-38
-0.118622594682 0.0622981972071 0.453 1.24507120178e-38
-0.115109148923 0.0613355319081 0.446 1.24499959543e-38
-0.113937372376 0.0616105791364 0.448 1.20812134349e-38
-0.11174829786 0.0613355319081 0.446 1.24489197571e-38
-0.109080716523 0.0607854374515 0.442 1.24489197571e-38
-0.107658383253 0.0609229610657 0.443 1.21723328675e-38
-0.106228514443 0.0610604846798 0.444 1.21716182053e-38
-0.10384916753 0.0606479138374 0.441 1.21716154027e-38
-0.10265101659 0.0609229610657 0.443 1.21719699312e-38
-0.100298044069 0.0605103902233 0.44 1.29095321675e-38
-0.0984160428286 0.0603728666091 0.439 1.25407496481e-38
-0.0969824062482 0.0605103902233 0.44 1.20797743013e-38
-0.0951079405486 0.0603728666091 0.439 1.11574634742e-38
-0.0943054054852 0.0609229610657 0.443 1.08808793872e-38
-0.0928453945132 0.0610604846798 0.444 9.77345563162e-39
-0.0919938784365 0.0616105791364 0.448 1.087980319e-38
-0.0911122201979 0.062160673593 0.452 1.17095638588e-38
-0.0894091880447 0.062160673593 0.452 1.21705420081e-38
-0.0877061558915 0.062160673593 0.452 1.21716182053e-38
-0.0852420341476 0.0616105791364 0.448 1.21716182053e-38
-0.0828080545658 0.0610604846798 0.444 1.21716182053e-38
-0.0802214802888 0.0603728666091 0.439 1.19872269456e-38
-0.0774936146274 0.0595477249242 0.433 1.20794197728e-38
-0.0739349556258 0.0580349651687 0.422 1.1987224143e-38
-0.0706306211161 0.0566597290272 0.412 1.18950285131e-38
-0.0682399708922 0.0559721109565 0.407 1.17106372534e-38
-0.0668703864061 0.0561096345707 0.408 1.21716154027e-38
-0.0651730059083 0.0559721109565 0.407 1.17106372534e-38
-0.0636395234163 0.0559721109565 0.407 1.23560066624e-38
-0.0625638250098 0.0563846817989 0.41 1.28169848117e-38
-0.0610190392071 0.0563846817989 0.41 1.17110057949e-38
-0.0591841350951 0.0561096345707 0.408 1.0973440756e-38
-0.0576468848329 0.0561096345707 0.408 9.59050630802e-39
-0.0566597290272 0.0566597290272 0.412 8.39160718998e-39
-0.0548398959962 0.0563846817989 0.41 7.19306400176e-39
-0.0530351340462 0.0561096345707 0.408 6.17891207326e-39
-0.0512454431772 0.0558345873424 0.406 5.81012955381e-39
-0.0495932759224 0.0556970637282 0.405 5.53354406552e-39
-0.0483046984967 0.0559721109565 0.407 5.07546520273e-39
-0.0465413820195 0.0556970637282 0.405 5.26093546227e-39
-0.0445708381785 0.0551469692716 0.401 5.81375331164e-39
-0.0437042510208 0.0559721109565 0.407 6.18325469721e-39
-0.0417563138013 0.0554220164999 0.403 5.99958230359e-39
-0.0400382105671 0.0551469692716 0.401 6.18469383073e-39
-0.038623412838 0.0552844928858 0.402 6.55347635018e-39
-0.0372010795684 0.0554220164999 0.403 6.64639084616e-39
-0.0357712107584 0.0555595401141 0.404 6.55598887833e-39
-0.033825157424 0.0548719220434 0.399 6.74109900417e-39
-0.0324028241544 0.0550094456575 0.4 7.20207715348e-39
-0.0308957160542 0.0550094456575 0.4 7.29535178316e-39
-0.0293151364341 0.0548719220434 0.399 7.57229880646e-39
-0.0280209073531 0.0552844928858 0.402 7.57229880646e-39
-0.0267040716505 0.0556970637282 0.405 7.757769066e-39
-0.0248051154443 0.0548719220434 0.399 7.757769066e-39
-0.0231849742365 0.0545968748151 0.397 7.20710921627e-39
-0.021853067453 0.0550094456575 0.4 7.75848793212e-39
-0.0200916348609 0.0543218275868 0.395 8.2173080818e-39
-0.0188859483807 0.0551469692716 0.401 8.86086841452e-39
-0.0174184018681 0.0552844928858 0.402 1.13476154719e-38
-0.0157059502893 0.0545968748151 0.397 1.22670424268e-38
-0.0142459393172 0.0547343984292 0.398 1.27258597739e-38
-0.0127783928046 0.0548719220434 0.399 1.27251437104e-38
-0.0112467941978 0.0547343984292 0.398 1.29098993077e-38
-0.00964925961157 0.0541843039726 0.394 1.30942905674e-38
-0.00826837181475 0.0548719220434 0.399 1.28177036778e-38
-0.00717195067185 0.0581724887828 0.423 1.2817347748e-38
-0.0060792972992 0.0633983861203 0.461 1.29095433779e-38
-0.00445538832123 0.06504866949 0.473 1.29095461805e-38
-0.00267888464812 0.0651861931041 0.474 1.29095461805e-38
-0.000892961549372 0.0651861931041 0.474 1.30017418104e-38
0.000872238812994 0.0636734333486 0.463 1.29091804416e-38
0.0025432449191 0.0618856263647 0.45 1.29091804416e-38
0.00414454727557 0.0605103902233 0.44 1.27247891819e-38
0.00574961740228 0.0599602957667 0.436 1.22638110326e-38
0.00725672550249 0.0588601068535 0.428 1.1987224143e-38
0.00880716296058 0.0584475360111 0.425 1.18028328832e-38
0.0102860127839 0.0577599179404 0.42 1.17106372534e-38
0.0118119597354 0.0574848707121 0.418 1.17106372534e-38
0.0133548616529 0.0573473470979 0.417 1.19854290796e-38
0.0147828465779 0.0567972526414 0.413 1.18932334498e-38
0.0162202509285 0.0563846817989 0.41 1.170884219e-38
0.0178516954469 0.0566597290272 0.412 1.13400596706e-38
0.0192156282776 0.0561096345707 0.408 1.07876047575e-38
0.0208037434382 0.0562471581848 0.409 1.09719960173e-38
0.0223447614707 0.0562471581848 0.409 1.12485829068e-38
0.0238857795031 0.0562471581848 0.409 1.14329741666e-38
0.0254267975356 0.0562471581848 0.409 1.1525172599e-38
0.0267700076299 0.0558345873424 0.406 1.14329769692e-38
0.0284391298509 0.0561096345707 0.408 1.097164289e-38
0.0302702661926 0.0566597290272 0.412 1.07883306301e-38
0.0315136303753 0.0561096345707 0.408 1.12493087794e-38
0.0331318876979 0.0562471581848 0.409 1.17110029923e-38
0.0348424553916 0.0565222054131 0.411 1.19879430091e-38
0.0363024663637 0.0563846817989 0.41 1.18035517494e-38
0.0371087691973 0.0552844928858 0.402 1.21716154027e-38
0.0389116472622 0.0556970637282 0.405 1.24482022923e-38
0.0406372860369 0.0559721109565 0.407 1.22638110326e-38
0.0415490864375 0.0551469692716 0.401 1.21716154027e-38
0.0431673437601 0.0552844928858 0.402 1.20794197728e-38
0.0444596889561 0.0550094456575 0.4 1.20794197728e-38
0.0450474611151 0.0539092567444 0.392 1.21716154027e-38
0.045812318476 0.0530841150595 0.386 1.22638110326e-38
0.0460421524613 0.0517088789181 0.376 1.24489211584e-38
0.0467015122551 0.0508837372332 0.37 1.25411167883e-38
0.0478356111005 0.0506086900049 0.368 1.23567255285e-38
0.0492221505527 0.0506086900049 0.368 1.19879430091e-38
0.04978354832 0.04978354832 0.362 1.23567255285e-38
0.0510061897663 0.0496460247059 0.361 1.23567255285e-38
0.0525114139814 0.04978354832 0.362 1.24489211584e-38
0.0532800391125 0.0492334538635 0.358 1.20801386389e-38
0.0546289008622 0.0492334538635 0.358 1.18035517494e-38
0.0561341250773 0.0493709774776 0.359 1.18957473792e-38
0.0573266243616 0.0492334538635 0.358 1.20801386389e-38
0.0583476900995 0.0489584066352 0.356 1.21723342688e-38
0.0595213505325 0.048820883021 0.355 1.25411167883e-38
0.0605160418786 0.0485458357927 0.353 1.22645298987e-38
0.0618460647771 0.0485458357927 0.353 1.18957473792e-38
0.0629971185886 0.0484083121786 0.352 1.19879430091e-38
0.0648715842882 0.048820883021 0.355 1.20801386389e-38
0.0667686566094 0.0492334538635 0.358 1.20801372376e-38
0.068117518359 0.0492334538635 0.358 1.20804931675e-38
0.0694663801087 0.0492334538635 0.358 1.19882975376e-38
0.0710130497966 0.0493709774776 0.359 1.18046265453e-38
0.0723656793165 0.0493709774776 0.359 1.13436525999e-38
0.0739236523151 0.0495085010918 0.36 1.14354922999e-38
0.075907383352 0.0499210719342 0.363 1.16198863622e-38
0.0783394790487 0.0506086900049 0.368 1.16191604896e-38
0.0812425460267 0.0515713553039 0.375 1.07904886298e-38
0.0864025073848 0.0539092567444 0.392 9.59519365138e-39
0.0896729319622 0.0550094456575 0.4 7.93892332628e-39
0.0950551917651 0.0573473470979 0.417 6.7436283479e-39
0.0998704021452 0.059272677696 0.431 6.46992953444e-39
0.100552368561 0.0587225832394 0.427 6.47173300556e-39
0.0978546450612 0.0562471581848 0.409 6.47317494168e-39
0.095264303014 0.0539092567444 0.392 6.38278838814e-39
0.0927926457297 0.0517088789181 0.376 6.56789711268e-39
0.0937082139005 0.0514338316898 0.374 6.66116893976e-39
0.0941000620066 0.0508837372332 0.37 7.02995426181e-39
0.0957522292614 0.0510212608473 0.371 7.30690268641e-39
0.0976737920892 0.0512963080756 0.373 6.75373170982e-39
0.0990791703926 0.0512963080756 0.373 6.19984466972e-39
0.100215153123 0.0511587844615 0.372 6.01509888149e-39
0.101343600313 0.0510212608473 0.371 5.64848837465e-39
0.10384916753 0.0515713553039 0.375 5.46409431233e-39
0.105262081374 0.0515713553039 0.375 5.37153574616e-39
0.11264879495 0.0544593512009 0.396 5.64739816445e-39
0.117023176211 0.0558345873424 0.406 5.27861564499e-39
0.116800877766 0.0550094456575 0.4 5.18749901495e-39
0.111209506714 0.0517088789181 0.376 5.18786195125e-39
0.111727575124 0.0512963080756 0.373 5.28005898241e-39
0.113436258932 0.0514338316898 0.374 4.91271839908e-39
0.11453833173 0.0512963080756 0.373 5.28078205242e-39
0.117187074217 0.0518464025322 0.377 5.46444884084e-39
0.120495176497 0.0526715442171 0.383 5.46408590454e-39
0.130216023743 0.0562471581848 0.409 6.10837351117e-39
0.154307146725 0.0658738111749 0.479 6.10801337746e-39
0.163933799715 0.0691743779143 0.503 6.10801057487e-39
0.16912578712 0.0705496140557 0.513 6.29240183459e-39
0.17205899626 0.0709621848982 0.516 6.65974101663e-39
0.173665950272 0.070824661284 0.515 6.5704334629e-39
0.176970284782 0.0713747557406 0.519 6.20273835105e-39
0.180304761453 0.0719248501972 0.523 6.47823503044e-39
0.182623824042 0.0720623738113 0.524 7.7660801672e-39
0.184598135654 0.0720623738113 0.524 8.13413401145e-39
0.186928501554 0.0721998974255 0.525 6.93919356158e-39
0.187827114758 0.071787326583 0.522 6.11268110265e-39
0.190157480658 0.0719248501972 0.523 6.84738048619e-39
0.1917606669 0.071787326583 0.522 7.39621584533e-39
0.193727442971 0.071787326583 0.522 8.86448096196e-39
0.196444005321 0.0720623738113 0.524 1.01501624939e-38
0.199554299663 0.0724749446538 0.527 1.09784700162e-38
0.201539914585 0.0724749446538 0.527 1.21755712683e-38
0.203911725958 0.0726124682679 0.528 1.44790186774e-38
0.206291072871 0.072749991882 0.529 1.46630470008e-38
0.208284223334 0.072749991882 0.529 1.45733582939e-38
0.210277373796 0.072749991882 0.529 1.29156460327e-38
0.213073059322 0.0730250391103 0.531 1.22713808469e-38
0.214263674721 0.072749991882 0.529 1.00605172272e-38
0.216665628256 0.0728875154962 0.53 6.46635762465e-39
0.217837404804 0.0726124682679 0.528 6.09759472338e-39
0.221908480559 0.0733000863386 0.533 5.8217266999e-39
0.22349659572 0.0731625627245 0.532 5.91391952717e-39
0.224653301187 0.0728875154962 0.53 6.1926560086e-39
0.229643712884 0.0738501807952 0.537 5.54582644656e-39
0.231667005508 0.0738501807952 0.537 5.36033096364e-39
0.232384765741 0.0734376099528 0.534 7.57085687034e-39
0.233957809821 0.0733000863386 0.533 7.57014501072e-39
0.237294170377 0.0737126571811 0.536 6.555653968e-39
0.24109961833 0.0742627516376 0.54 6.64858808215e-39
0.240882971541 0.0735751335669 0.535 7.38652446515e-39
0.241082663364 0.0730250391103 0.531 6.46635201946e-39
0.244456701624 0.0734376099528 0.534 6.28196075973e-39
0.246930242793 0.0735751335669 0.535 6.18976512987e-39
0.247550040999 0.0731625627245 0.532 6.19012246098e-39
0.249554494773 0.0731625627245 0.532 6.6510950051e-39
0.252031803712 0.0733000863386 0.533 7.2046205102e-39
0.253563402319 0.0731625627245 0.532 7.85034024386e-39
0.256048246799 0.0733000863386 0.533 8.31167572428e-39
0.25854062682 0.0734376099528 0.534 1.06107721017e-38
0.263480173618 0.0742627516376 0.54 1.12547009759e-38
0.264531381518 0.0739877044093 0.538 1.19901010087e-38
0.267549365489 0.0742627516376 0.54 1.22648844272e-38
0.271081650099 0.0746753224801 0.543 1.23563611909e-38
0.271115560031 0.0741252280235 0.539 1.25396762534e-38
0.273146388196 0.0741252280235 0.539 1.24482050949e-38
0.275177216361 0.0741252280235 0.539 1.24478491651e-38
0.277722345165 0.0742627516376 0.54 1.23560066624e-38
0.28027500951 0.0744002752518 0.541 1.22638110326e-38
0.279182356137 0.0735751335669 0.535 1.22638110326e-38
0.285928548771 0.0748128460942 0.544 1.22638110326e-38
0.289036959228 0.0750878933225 0.546 1.24482022923e-38
0.290027882804 0.0748128460942 0.544 1.24482022923e-38
0.295298993384 0.0756379877791 0.55 1.23560066624e-38
0.29628991696 0.0753629405508 0.548 1.23560066624e-38
0.29508799825 0.0745377988659 0.542 1.22638110326e-38
0.299322972012 0.0750878933225 0.546 1.21716154027e-38
0.307451936327 0.0766006530781 0.557 1.20794197728e-38
0.305104615461 0.0755004641649 0.549 1.21716154027e-38
0.306613607446 0.0753629405508 0.548 1.20794197728e-38
0.311494753806 0.0760505586215 0.553 1.20794197728e-38
0.309041935373 0.0749503697083 0.545 1.21716154027e-38
0.312807821738 0.0753629405508 0.548 1.22638110326e-38
0.316021729762 0.0756379877791 0.55 1.21723328675e-38
0.319250708867 0.0759130350074 0.552 1.21723328675e-38
0.317837795023 0.0750878933225 0.546 1.21723328675e-38
0.322824438949 0.0757755113932 0.551 1.21723328675e-38
0.32666944849 0.0761880822356 0.554 1.20801372376e-38
0.32756994558 0.0759130350074 0.552 1.21723328675e-38
0.330246946343 0.0760505586215 0.553 1.21723328675e-38
-0.149895087761 0.035464137483 0.251 1.22641655611e-38
-0.149542801243 0.0356054288674 0.252 1.18950271118e-38
-0.149772635228 0.0358880116361 0.254 1.16184402222e-38
-0.146472068489 0.0353228460986 0.25 1.1432971364e-38
-0.14611224643 0.035464137483 0.251 1.10641888445e-38
-0.14574488883 0.0356054288674 0.252 1.06954091277e-38
-0.145944580654 0.0358880116361 0.254 1.06032134978e-38
-0.14498756701 0.0358880116361 0.254 1.06017785682e-38
-0.143463503944 0.0357467202518 0.253 1.05095829383e-38
-0.140820413113 0.0353228460986 0.25 1.04173873084e-38
-0.140997498315 0.0356054288674 0.252 1.03251916786e-38
-0.138936527988 0.0353228460986 0.25 1.03251916786e-38
-0.137994585425 0.0353228460986 0.25 1.02329960487e-38
-0.138697274577 0.0357467202518 0.253 9.95640915913e-39
-0.138832914306 0.0360293030205 0.255 9.86421352926e-39
-0.137872132892 0.0360293030205 0.255 9.49614987592e-39
-0.139058980521 0.0365944685581 0.259 9.58834550579e-39
-0.144480801911 0.0382899651708 0.271 9.58834550579e-39
-0.147694709935 0.039420296246 0.279 9.49614987592e-39
-0.150848333635 0.0405506273212 0.287 9.40395144346e-39
-0.156029017729 0.0422461239339 0.299 9.40395144346e-39
-0.156456659653 0.0426699980871 0.302 9.3117558136e-39
-0.157375995594 0.0432351636246 0.306 9.3117558136e-39
-0.1643915838 0.045495825775 0.322 9.12737015907e-39
-0.166218952372 0.0463435740813 0.328 9.12737015907e-39
-0.166492115715 0.0467674482345 0.331 9.12736735647e-39
-0.167241901995 0.0473326137721 0.335 9.03517172661e-39
-0.167961546113 0.0478977793097 0.339 9.12736735647e-39
-0.168651048068 0.0484629448472 0.343 9.12736735647e-39
-0.167358702872 0.0484629448472 0.343 9.03516892401e-39
-0.167518833108 0.0488868190004 0.346 8.94297329415e-39
-0.168617138136 0.0495932759224 0.351 8.85078046688e-39
-0.170154388398 0.0504410242288 0.357 8.75858483702e-39
-0.168809294419 0.0504410242288 0.357 8.75858483702e-39
-0.168871462628 0.0508648983819 0.36 8.85078046688e-39
-0.167980384964 0.0510061897663 0.361 8.75858483702e-39
-0.168927979182 0.0517126466883 0.366 8.66638920715e-39
-0.168922327526 0.0521365208415 0.369 8.75858483702e-39
-0.168440052934 0.0524191036103 0.371 8.85078046688e-39
-0.168392955806 0.0528429777635 0.374 8.66710527067e-39
-0.168323252057 0.0532668519166 0.377 8.5749096408e-39
-0.169116367694 0.0539733088386 0.382 8.48271401094e-39
-0.168116024693 0.054114600223 0.383 8.48271401094e-39
-0.168848856007 0.054821057145 0.388 8.29832555381e-39
-0.169975419311 0.0556688054513 0.394 8.11393429408e-39
-0.168063275909 0.0555275140669 0.393 8.11393429408e-39
-0.16785416466 0.0559513882201 0.396 7.92954303436e-39
-0.168042553173 0.0565165537577 0.4 7.8373446019e-39
-0.166535445073 0.0565165537577 0.4 7.65295334217e-39
-0.167091191185 0.0572230106797 0.405 7.56075771231e-39
-0.167200456522 0.0577881762173 0.409 7.19197519285e-39
-0.168089650301 0.0586359245236 0.415 6.63880141367e-39
-0.168131095774 0.0592010900612 0.419 7.28417082272e-39
-0.167347399562 0.05948367283 0.421 8.20612712135e-39
-0.167336096251 0.0600488383676 0.425 8.11393149149e-39
-0.165344829674 0.0599075469832 0.424 7.00687067221e-39
-0.164905884439 0.0603314211364 0.427 6.73028378262e-39
-0.164826761264 0.0608965866739 0.431 7.56004445139e-39
-0.164717495927 0.0614617522115 0.435 8.02102260071e-39
-0.163828302148 0.0617443349803 0.437 7.92882416825e-39
-0.162924037288 0.0620269177491 0.439 8.11321542797e-39
-0.161637343747 0.0621682091335 0.44 8.02101979811e-39
-0.160706704495 0.0624507919023 0.442 8.02101979811e-39
-0.159401172103 0.0625920832867 0.443 8.66710246807e-39
-0.157019941305 0.0623095005179 0.441 8.02173305903e-39
-0.156767500698 0.0628746660555 0.445 8.5749096408e-39
-0.155439361685 0.0630159574398 0.446 7.8373446019e-39
-0.154448438109 0.0632985402086 0.448 7.37636645258e-39
-0.154465393075 0.0640049971306 0.453 9.31247467971e-39
-0.151409731402 0.063439831593 0.449 1.30924983067e-38
-0.150051450227 0.0635811229774 0.45 1.53973890533e-38
-0.148685633511 0.0637224143618 0.451 1.43850279842e-38
-0.147964105508 0.064146288515 0.454 1.44772236141e-38
-0.145931393458 0.0640049971306 0.453 1.41095172919e-38
-0.145498099879 0.0645701626682 0.457 1.38329304023e-38
-0.143147011243 0.0642875798994 0.455 1.38332863321e-38
-0.143297722053 0.0651353282058 0.461 1.30035256633e-38
-0.141867853243 0.0652766195902 0.462 1.18056985386e-38
-0.142856892933 0.0665482420497 0.471 1.12525247594e-38
-0.140483197676 0.0662656592809 0.469 1.19908072631e-38
-0.137237263605 0.0655592023589 0.464 1.3465937341e-38
-0.13490501382 0.0652766195902 0.462 1.36499712696e-38
-0.133164303964 0.0652766195902 0.462 1.16216674126e-38
-0.131708060762 0.0654179109745 0.463 1.27276548372e-38
-0.130524980903 0.0657004937433 0.465 1.29116901672e-38
-0.128772967737 0.0657004937433 0.465 1.30960814269e-38
-0.127567281257 0.0659830765121 0.467 1.29116901672e-38
-0.123921963539 0.0649940368214 0.46 1.26351032776e-38
-0.121126278014 0.0644288712838 0.456 1.27272989074e-38
-0.117051434488 0.0631572488242 0.447 1.27265828439e-38
-0.113818687613 0.0623095005179 0.441 1.25421915842e-38
-0.111394127456 0.0618856263647 0.438 1.25421915842e-38
-0.109242730643 0.0616030435959 0.436 1.23578003245e-38
-0.107599982814 0.0616030435959 0.436 1.22645284974e-38
-0.105957234985 0.0616030435959 0.436 1.20801372376e-38
-0.104075233745 0.0614617522115 0.435 1.21716154027e-38
-0.102907224967 0.0617443349803 0.437 1.23560052611e-38
-0.100565555756 0.0613204608271 0.434 1.2448200891e-38
-0.0989303434677 0.0613204608271 0.434 1.25407524507e-38
-0.0975193135089 0.0614617522115 0.435 1.13422092624e-38
-0.0961007480096 0.0616030435959 0.436 9.77452762495e-39
-0.0944580001804 0.0616030435959 0.436 8.48378880686e-39
-0.0932410103895 0.0618856263647 0.438 7.19305139008e-39
-0.0928453945132 0.0627333746711 0.444 8.85078046688e-39
-0.0917885349579 0.0631572488242 0.447 9.95712802524e-39
-0.0909106444895 0.0637224143618 0.451 9.49686874203e-39
-0.0888157642302 0.063439831593 0.449 7.46856488504e-39
-0.0875121157236 0.0637224143618 0.451 9.40467030957e-39
-0.0854323065453 0.063439831593 0.449 9.31247467971e-39
-0.0839270823302 0.0635811229774 0.45 9.03696678994e-39
-0.0815006382889 0.0630159574398 0.446 9.86672745871e-39
-0.0798202127571 0.0630159574398 0.446 1.04188194355e-38
-0.078840592492 0.0635811229774 0.45 1.13407757341e-38
-0.0764593616937 0.0630159574398 0.446 1.18939495133e-38
-0.0742759388335 0.0625920832867 0.443 1.19861451432e-38
-0.0711317345595 0.0613204608271 0.434 1.2078340773e-38
-0.0686958710925 0.0606140039051 0.429 1.2078340773e-38
-0.0656722354665 0.0593423814456 0.42 1.21705364029e-38
-0.0628690144001 0.0582120503704 0.412 1.23549276626e-38
-0.0607213853573 0.0576468848329 0.408 1.19872269456e-38
-0.0584588393218 0.0569404279109 0.403 1.20794225754e-38
-0.0569404279109 0.0569404279109 0.403 1.22638138352e-38
-0.0555595401141 0.0570817192953 0.404 1.2356009465e-38
-0.0541711167768 0.0572230106797 0.405 1.21712622755e-38
-0.0525151817517 0.0570817192953 0.404 1.19868710158e-38
-0.0509930025705 0.0570817192953 0.404 1.23556535352e-38
-0.0493483708561 0.0569404279109 0.403 1.21712622755e-38
-0.047948644208 0.0570817192953 0.404 1.21734272816e-38
-0.0458518800636 0.0563752623733 0.399 1.11592753531e-38
-0.0444596889561 0.0565165537577 0.4 9.31536275585e-39
-0.0433821066644 0.0570817192953 0.404 7.74839998447e-39
-0.0413418590738 0.0563752623733 0.399 6.36546833912e-39
-0.0397386728322 0.0562339709889 0.398 5.99740888967e-39
-0.0383351784139 0.0563752623733 0.399 5.62862777152e-39
-0.0367395277128 0.0562339709889 0.398 5.35240101563e-39
-0.0351514125522 0.0560926796045 0.397 5.99992842431e-39
-0.0333165084402 0.0555275140669 0.393 5.81553716459e-39
-0.0319977888525 0.0558100968357 0.395 5.26344238522e-39
-0.0304322803134 0.0556688054513 0.394 5.17124675536e-39
-0.0288008357949 0.0553862226826 0.392 5.3563568812e-39
-0.0275329811056 0.0558100968357 0.395 5.54074814092e-39
-0.0261106478361 0.0559513882201 0.396 6.00280529006e-39
-0.0245564426077 0.0558100968357 0.395 6.18719654979e-39
-0.0230097729199 0.0556688054513 0.394 6.46523378329e-39
-0.0215799041098 0.0558100968357 0.395 6.27976632634e-39
-0.0199390401657 0.0553862226826 0.392 6.46307578365e-39
-0.0185091713556 0.0555275140669 0.393 7.75164539171e-39
-0.0170284376472 0.0555275140669 0.393 1.03316684801e-38
-0.0155477039387 0.0555275140669 0.393 1.12521744348e-38
-0.0141027640477 0.0556688054513 0.394 1.19879416078e-38
-0.0126502886161 0.0558100968357 0.395 1.22638096313e-38
-0.0111337610903 0.0556688054513 0.394 1.22645284974e-38
-0.00964925961157 0.0556688054513 0.394 1.24489197571e-38
-0.00820620360562 0.0559513882201 0.396 1.2541115387e-38
-0.00671416658642 0.0559513882201 0.396 1.27255066467e-38
-0.00527487835072 0.0565165537577 0.4 1.28177036778e-38
-0.00399383646554 0.0599075469832 0.424 1.28177036778e-38
-0.00241325684545 0.0603314211364 0.427 1.28177036778e-38
-0.000819490029487 0.0614617522115 0.435 1.28177036778e-38
0.000823257799737 0.0617443349803 0.437 1.30935717013e-38
0.00244716677771 0.0611791694427 0.433 1.30013760715e-38
0.0040503530193 0.0607552952895 0.43 1.27247891819e-38
0.00564411983527 0.0604727125207 0.428 1.23560066624e-38
0.00720586060411 0.0600488383676 0.425 1.1987224143e-38
0.0087864402242 0.0599075469832 0.424 1.18950285131e-38
0.0103349937972 0.0596249642144 0.422 1.1987224143e-38
0.0118402180122 0.0592010900612 0.419 1.20794197728e-38
0.0132908095587 0.0586359245236 0.415 1.22620159692e-38
0.0148186403953 0.0584946331392 0.414 1.22620159692e-38
0.0161806893408 0.0577881762173 0.409 1.20783435756e-38
0.0177650367312 0.0579294676017 0.41 1.18939523159e-38
0.0192156282776 0.0576468848329 0.408 1.1801756686e-38
0.0206511487431 0.0573643020641 0.406 1.18939523159e-38
0.0221808634648 0.0573643020641 0.406 1.19872269456e-38
0.0237689786254 0.0575055934485 0.407 1.20794225754e-38
0.0253646293265 0.0576468848329 0.408 1.23549304652e-38
0.0267700076299 0.0573643020641 0.406 1.22627376379e-38
0.0284391298509 0.0576468848329 0.408 1.18946753859e-38
0.0301967946727 0.058070758986 0.411 1.19868738184e-38
0.0315136303753 0.0576468848329 0.408 1.19868710158e-38
0.0332128947583 0.0579294676017 0.41 1.1802479756e-38
0.0349272302223 0.0582120503704 0.412 1.16188045598e-38
0.036036838561 0.0575055934485 0.407 1.17113561195e-38
0.0373857003107 0.0572230106797 0.405 1.1987224143e-38
0.0390077254036 0.0573643020641 0.406 1.22638110326e-38
0.0402379023904 0.0569404279109 0.403 1.22638110326e-38
0.0416527001194 0.0567991365265 0.402 1.22638110326e-38
0.0429525808559 0.0565165537577 0.4 1.21716154027e-38
0.0449042858456 0.0570817192953 0.404 1.22638110326e-38
0.0459667970563 0.0565165537577 0.4 1.22638110326e-38
0.046880481342 0.0558100968357 0.395 1.23560066624e-38
0.046654415127 0.0538320174542 0.381 1.23567255285e-38
0.0473326137721 0.0529842691479 0.375 1.22645298987e-38
0.0479655991742 0.0521365208415 0.369 1.22645298987e-38
0.048820883021 0.0515713553039 0.365 1.24489211584e-38
0.0501961191625 0.0515713553039 0.365 1.23567255285e-38
0.0510061897663 0.0510061897663 0.361 1.25411167883e-38
0.0522212956721 0.0508648983819 0.36 1.2725508048e-38
0.0531312121876 0.0504410242288 0.357 1.25411167883e-38
0.0540185220816 0.0500171500756 0.354 1.22645298987e-38
0.0553523127503 0.0500171500756 0.354 1.22645298987e-38
0.0568462336546 0.05015844146 0.355 1.22645298987e-38
0.0581837920936 0.05015844146 0.355 1.20801386389e-38
0.0591860189802 0.0498758586912 0.353 1.23567255285e-38
0.0603446083322 0.0497345673068 0.352 1.23567255285e-38
0.0616708634604 0.0497345673068 0.352 1.21723342688e-38
0.0626391804148 0.049451984538 0.35 1.20801386389e-38
0.0639579000025 0.049451984538 0.35 1.20801386389e-38
0.064717105708 0.0490281103848 0.347 1.21723328675e-38
0.0671661563708 0.0498758586912 0.353 1.20801372376e-38
0.0684961792692 0.0498758586912 0.353 1.18039062779e-38
0.070221818044 0.05015844146 0.355 1.14358468284e-38
0.0715593764829 0.05015844146 0.355 1.13436525999e-38
0.0733076218791 0.0504410242288 0.357 1.16202394894e-38
0.075907383352 0.0512887725351 0.363 1.18042748194e-38
0.0772750839529 0.0512887725351 0.363 1.11589054103e-38
0.0808092524479 0.0527016863791 0.373 1.01465611568e-38
0.0872841656234 0.0559513882201 0.396 9.13493717077e-39
0.0916905729314 0.0577881762173 0.409 7.47830951456e-39
0.0984744432674 0.0610378780583 0.432 6.83726731518e-39
0.103114452331 0.0628746660555 0.445 6.56320696672e-39
0.101494311123 0.0608965866739 0.431 6.47317494168e-39
0.0978546450612 0.0577881762173 0.409 6.65828506752e-39
0.0940491971082 0.0546797657606 0.387 6.20019359304e-39
0.0920522788754 0.0527016863791 0.373 6.5689761125e-39
0.0919543168489 0.0518539380727 0.367 6.93847749806e-39
0.0930827640389 0.0517126466883 0.366 7.39981718238e-39
0.0952360447371 0.0521365208415 0.369 7.76932277184e-39
0.0971500720244 0.0524191036103 0.371 7.67605094476e-39
0.0977510313793 0.0519952294571 0.368 7.12288136947e-39
0.0996763619773 0.0522778122259 0.37 6.56898872418e-39
0.100797273627 0.0521365208415 0.369 5.74032106821e-39
0.105233823097 0.0536907260698 0.38 5.64704363594e-39
0.106104178025 0.053408143301 0.378 5.37045674635e-39
0.118622594682 0.0589185072924 0.417 5.55448647107e-39
0.122211395846 0.0599075469832 0.424 5.18570114902e-39
0.120596906293 0.0583533417548 0.413 5.09422718786e-39
0.112984126502 0.0539733088386 0.382 5.27861844759e-39
0.112027112859 0.0528429777635 0.374 5.2793401163e-39
0.113132953427 0.0527016863791 0.373 5.18786195125e-39
0.11453833173 0.0527016863791 0.373 5.46444884084e-39
0.11625455108 0.0528429777635 0.374 5.46444603824e-39
0.120809785312 0.0542558916074 0.384 5.74067279413e-39
0.135310049122 0.0600488383676 0.425 7.12252543966e-39
0.153662858012 0.0673959903561 0.477 6.38531633057e-39
0.162304239081 0.0703631094283 0.498 6.75337998391e-39
0.167477387635 0.0717760232723 0.508 7.49094502282e-39
0.170058310257 0.0720586060411 0.51 7.48985341131e-39
0.17130544221 0.0717760232723 0.508 6.93993204587e-39
0.174924385535 0.0724824801943 0.513 6.11270072083e-39
0.176512500696 0.0723411888099 0.512 6.84773361341e-39
0.180881230302 0.0733302285006 0.519 5.82780553264e-39
0.181779843506 0.0729063543474 0.516 1.08031213354e-38
0.183724012956 0.0729063543474 0.516 7.94758194949e-39
0.186387826523 0.0731889371162 0.518 7.58205324507e-39
0.189430301 0.0736128112694 0.521 6.93884183566e-39
0.190291236502 0.0731889371162 0.518 7.76354521827e-39
0.191871816122 0.0730476457318 0.517 9.60023692455e-39
0.193819753342 0.0730476457318 0.517 1.10703125188e-38
0.196146351472 0.0731889371162 0.518 1.19901010087e-38
0.198480485142 0.0733302285006 0.519 1.09752302141e-38
0.200435957902 0.0733302285006 0.519 1.43861083853e-38
0.202781394883 0.073471519885 0.52 1.44772236141e-38
0.204346903422 0.0733302285006 0.519 1.40198355914e-38
0.207097375705 0.0736128112694 0.521 1.23617645978e-38
0.2102641866 0.0740366854226 0.524 1.22710277196e-38
0.21183346291 0.0738953940382 0.523 7.93966181057e-39
0.214621612895 0.074177976807 0.525 6.46635762465e-39
0.216599692276 0.074177976807 0.525 6.19014488175e-39
0.218161433045 0.0740366854226 0.524 6.00646968554e-39
0.220975957422 0.0743192681914 0.526 6.00646408035e-39
0.222110056268 0.0740366854226 0.524 5.63949343981e-39
0.22665021942 0.074884433729 0.53 6.1915629958e-39
0.228215727959 0.0747431423446 0.529 8.58610181164e-39
0.228032991102 0.0740366854226 0.524 1.15349032156e-38
0.230007302713 0.0740366854226 0.524 9.96613837436e-39
0.229325336298 0.0731889371162 0.518 1.34699464559e-38
0.233509445161 0.0738953940382 0.523 8.86089784179e-39
0.236830734637 0.0743192681914 0.526 6.64929013268e-39
0.240628647049 0.074884433729 0.53 6.46600309614e-39
0.241252213026 0.0744605595758 0.527 6.28161183642e-39
0.244160931659 0.0747431423446 0.529 6.09722337929e-39
0.24522344287 0.0744605595758 0.527 6.18941900915e-39
0.246270882999 0.074177976807 0.525 6.46600309614e-39
0.251558948546 0.0751670164978 0.532 6.46600169484e-39
0.254040025256 0.0753083078821 0.533 6.37416199479e-39
0.25748941892 0.0757321820353 0.536 6.18976793247e-39
0.257572309866 0.0751670164978 0.532 7.47758504326e-39
0.259576763639 0.0751670164978 0.532 8.30589817071e-39
0.260597829377 0.074884433729 0.53 1.0977042093e-38
0.263090209398 0.0750257251134 0.531 1.21737762049e-38
0.269084731866 0.0761560561885 0.539 1.21726887973e-38
0.269103570717 0.0755908906509 0.535 1.23563611909e-38
0.273146388196 0.0761560561885 0.539 1.23560052611e-38
0.272114019147 0.0753083078821 0.533 1.23560052611e-38
0.272579338773 0.074884433729 0.53 1.22638110326e-38
0.278720804282 0.0760147648041 0.538 1.22638110326e-38
0.278660519958 0.0754495992665 0.534 1.21716154027e-38
0.282249321121 0.0758734734197 0.537 1.22638110326e-38
0.285860728906 0.0762973475729 0.54 1.22638110326e-38
0.286829045861 0.0760147648041 0.538 1.22638110326e-38
0.289929920777 0.0762973475729 0.54 1.22638110326e-38
0.295749241929 0.0772863872637 0.547 1.22638110326e-38
0.293454669846 0.0761560561885 0.539 1.22638110326e-38
0.295485498011 0.0761560561885 0.539 1.21716154027e-38
0.302484131252 0.0774276786481 0.548 1.20794197728e-38
0.301770138789 0.0767212217261 0.543 1.21716154027e-38
0.302697010271 0.0764386389573 0.541 1.22638110326e-38
0.303608810672 0.0761560561885 0.539 1.21716154027e-38
0.307907836527 0.0767212217261 0.543 1.21716154027e-38
0.312237004545 0.0772863872637 0.547 1.20794197728e-38
0.31027588013 0.0762973475729 0.54 1.20801372376e-38
0.315202239732 0.0770038044949 0.545 1.20801372376e-38
0.314927192504 0.0764386389573 0.541 1.20801372376e-38
0.316055639694 0.0757321820353 0.536 1.19879416078e-38
0.32222913125 0.0767212217261 0.543 1.20801372376e-38
0.324275030496 0.0767212217261 0.543 1.20801372376e-38
-0.149895087761 0.0364098478158 0.251 1.22638096313e-38
-0.150729648872 0.0368450252798 0.254 1.18950271118e-38
-0.149772635228 0.0368450252798 0.254 1.16184416235e-38
-0.147643845037 0.0365549069705 0.252 1.14329741666e-38
-0.147276487437 0.0366999661251 0.253 1.10641916471e-38
-0.146901594297 0.0368450252798 0.254 1.06954119303e-38
-0.146519165617 0.0369900844344 0.255 1.06032163004e-38
-0.144416749817 0.0366999661251 0.253 1.0693974198e-38
-0.143463503944 0.0366999661251 0.253 1.05095829383e-38
-0.141946976418 0.0365549069705 0.252 1.03251916786e-38
-0.141557012197 0.0366999661251 0.253 1.02329960487e-38
-0.1394922741 0.0364098478158 0.251 1.02329960487e-38
-0.139098542108 0.0365549069705 0.252 1.0048604789e-38
-0.13979369572 0.0369900844344 0.255 9.86421352926e-39
-0.139377357107 0.0371351435891 0.256 9.67982226954e-39
-0.138412807923 0.0371351435891 0.256 9.40395424606e-39
-0.139058980521 0.037570321053 0.259 9.40395424606e-39
-0.14234824395 0.0387307942902 0.267 9.40395424606e-39
-0.146635966495 0.0401813858366 0.277 9.49614707333e-39
-0.149797125735 0.0413418590738 0.285 9.3117558136e-39
-0.15498534537 0.0430825689295 0.297 9.3117558136e-39
-0.154902454424 0.0433726872388 0.299 9.21991611355e-39
-0.156861694955 0.0442430421667 0.305 9.12772048368e-39
-0.161838919455 0.0459837520224 0.317 9.12736735647e-39
-0.16317836178 0.0467090477956 0.322 9.12736735647e-39
-0.166492115715 0.0480145801874 0.331 9.03517172661e-39
-0.167741131553 0.0487398759606 0.336 9.03517172661e-39
-0.168952469688 0.0494651717339 0.341 8.94297609674e-39
-0.168159354051 0.0496102308885 0.342 9.03517172661e-39
-0.16784662912 0.0499003491978 0.344 9.03517172661e-39
-0.168002991585 0.0503355266617 0.347 9.03517172661e-39
-0.16957791955 0.0512058815896 0.353 8.75858483702e-39
-0.169677765462 0.0516410590535 0.356 8.75858483702e-39
-0.168809294419 0.0517861182082 0.357 8.66638920715e-39
-0.168871462628 0.0522212956721 0.36 8.75858483702e-39
-0.16844570459 0.0525114139814 0.362 8.85078046688e-39
-0.168927979182 0.0530916506 0.366 8.75858483702e-39
-0.169380111612 0.0536718872186 0.37 8.66638920715e-39
-0.168440052934 0.0538169463732 0.371 8.57419357729e-39
-0.167942707261 0.0541070646825 0.373 8.48271120834e-39
-0.168323252057 0.0546873013011 0.377 8.48271401094e-39
-0.16867365469 0.0552675379197 0.381 8.39051838108e-39
-0.168554969927 0.0557027153836 0.384 8.48271401094e-39
-0.168848856007 0.0562829520022 0.388 8.66710807326e-39
-0.16868119023 0.0567181294661 0.391 8.20612992395e-39
-0.167635633986 0.0568631886208 0.392 7.92954303436e-39
-0.166582542201 0.0570082477754 0.393 7.65260021496e-39
-0.167202340407 0.0577335435486 0.398 7.46855927985e-39
-0.167368122298 0.0583137801672 0.402 7.37636364998e-39
-0.1662660495 0.0584588393218 0.403 7.19197239026e-39
-0.165974047305 0.0588940167858 0.406 6.73099424094e-39
-0.166469509093 0.059619312559 0.411 6.36221172149e-39
-0.165723490584 0.0599094308683 0.413 6.8231898708e-39
-0.165757400516 0.0604896674869 0.417 7.92953742916e-39
-0.164579972313 0.0606347266415 0.418 8.11392868889e-39
-0.164174937011 0.0610699041055 0.421 7.56004164879e-39
-0.163361098637 0.0613600224147 0.423 7.37565038907e-39
-0.162914617862 0.0617951998787 0.426 7.83662853838e-39
-0.161309547735 0.0617951998787 0.426 8.02101979811e-39
-0.160454263888 0.062085318188 0.428 8.02102260071e-39
-0.1603261597 0.0626655548065 0.432 8.11321823057e-39
-0.158698482952 0.0626655548065 0.432 8.02102260071e-39
-0.157434396033 0.0628106139612 0.433 8.02102260071e-39
-0.156522595632 0.0631007322705 0.435 8.20612712135e-39
-0.155239669862 0.0632457914251 0.436 8.5749096408e-39
-0.154301495069 0.0635359097344 0.438 7.8373446019e-39
-0.153348249196 0.0638260280437 0.44 9.5890615693e-39
-0.152379932242 0.064116146353 0.442 1.30002998742e-38
-0.151396544206 0.0644062646623 0.444 1.49364081014e-38
-0.15039808509 0.0646963829716 0.446 1.45676255819e-38
-0.149051107225 0.0648414421262 0.447 1.42910386923e-38
-0.148355953614 0.0652766195902 0.45 1.39244057647e-38
-0.146660457001 0.0652766195902 0.45 1.39244057647e-38
-0.145287104745 0.0654216787448 0.451 1.37407347724e-38
-0.143587840362 0.0654216787448 0.451 1.36485391425e-38
-0.140315531899 0.0646963829716 0.446 1.37410907022e-38
-0.13987847055 0.0652766195902 0.45 1.35566994425e-38
-0.139718340315 0.0660019153634 0.455 1.3003885797e-38
-0.139217226871 0.066582151982 0.459 1.26351032776e-38
-0.137188282591 0.0664370928273 0.458 1.23592324515e-38
-0.135462643817 0.0664370928273 0.458 1.23592352541e-38
-0.133153000653 0.066146974518 0.456 1.3003885797e-38
-0.129705490874 0.0652766195902 0.45 1.3003885797e-38
-0.130570194146 0.066582151982 0.459 1.30960842295e-38
-0.127717992067 0.0660019153634 0.455 1.32797566231e-38
-0.127111381056 0.066582151982 0.459 1.32797566231e-38
-0.124016157796 0.0658568562087 0.454 1.31875609932e-38
-0.122036194529 0.0657117970541 0.453 1.28187784738e-38
-0.117938744382 0.0644062646623 0.444 1.30031697335e-38
-0.116003994358 0.0642612055076 0.443 1.30031697335e-38
-0.113044410826 0.0635359097344 0.438 1.27265828439e-38
-0.111139802965 0.0633908505798 0.437 1.22656046946e-38
-0.109242730643 0.0632457914251 0.436 1.21734090647e-38
-0.107106404911 0.0629556731158 0.434 1.21734090647e-38
-0.105228171441 0.0628106139612 0.433 1.23578003245e-38
-0.103118220101 0.0625204956519 0.431 1.25403965208e-38
-0.101729796764 0.0626655548065 0.432 1.2448200891e-38
-0.0996386842748 0.0623754364973 0.43 1.18950271118e-38
-0.0980185430671 0.0623754364973 0.43 1.03277014041e-38
-0.0968467665192 0.0626655548065 0.432 8.85257132632e-39
-0.094557846092 0.0622303773426 0.429 7.46963687837e-39
-0.0935914130228 0.0626655548065 0.432 7.93061502768e-39
-0.0930281313703 0.0633908505798 0.437 9.22135384577e-39
-0.0917998382686 0.0636809688891 0.439 9.58762663967e-39
-0.0913778480006 0.0645513238169 0.445 8.11321542797e-39
-0.0901043416559 0.0648414421262 0.447 7.2834547592e-39
-0.0882223404158 0.0646963829716 0.446 8.38980231756e-39
-0.0869299952199 0.0649865012809 0.448 8.20540825524e-39
-0.08505176175 0.0648414421262 0.447 7.92954023176e-39
-0.083367568448 0.0648414421262 0.447 7.46856208244e-39
-0.0813179014317 0.0645513238169 0.445 7.65295334217e-39
-0.0798202127571 0.0646963829716 0.446 1.01422325459e-38
-0.0777893845921 0.0644062646623 0.444 9.86564565629e-39
-0.0762879281473 0.0645513238169 0.445 8.94368935766e-39
-0.0744436046097 0.0644062646623 0.444 8.48271120834e-39
-0.0729346126243 0.0645513238169 0.445 9.5890587667e-39
-0.0709376943916 0.0642612055076 0.443 1.04188194355e-38
-0.0689558472398 0.0639710871984 0.441 1.10641888445e-38
-0.0672942605593 0.0639710871984 0.441 1.16173626237e-38
-0.0650373661792 0.0633908505798 0.437 1.18950271118e-38
-0.0622303773426 0.0622303773426 0.429 1.19872227417e-38
-0.05948367283 0.0610699041055 0.421 1.19872227417e-38
-0.0562471581848 0.0593291942497 0.409 1.20794197728e-38
-0.0537698492451 0.0583137801672 0.402 1.20794197728e-38
-0.0516052652362 0.057588484394 0.397 1.17106372534e-38
-0.0499832401433 0.0574434252393 0.396 1.16184416235e-38
-0.0484912031241 0.0574434252393 0.396 1.15262487962e-38
-0.0471178508678 0.057588484394 0.397 1.18031846092e-38
-0.0453922120931 0.0572983660847 0.395 1.18953830416e-38
-0.0439039428441 0.0572983660847 0.395 1.19875786715e-38
-0.0426304364994 0.057588484394 0.397 1.20794183715e-38
-0.0407201769824 0.0570082477754 0.393 1.22638110326e-38
-0.0393392891856 0.05715330693 0.394 1.19875870793e-38
-0.0381430221311 0.057588484394 0.397 1.1895394252e-38
-0.0364625965993 0.0572983660847 0.395 1.1895394252e-38
-0.0350628699513 0.0574434252393 0.396 1.18968361881e-38
-0.0332317336095 0.0568631886208 0.392 1.13436624089e-38
