VERSION .7
FIELDS x y z rgb
SIZE 4 4 4 4
TYPE F F F F
COUNT 1 1 1 1
WIDTH 1308
HEIGHT 1
VIEWPOINT 0 0 0 1 0 0 0
POINTS 1308
DATA ascii
-0.0924046 0.139634 0.436 9.22028e-39
-0.0903511 0.139634 0.436 9.49687e-39
-0.0887027 0.140274 0.438 9.68126e-39
-0.0858486 0.138993 0.434 9.95785e-39
-0.0841908 0.139634 0.436 1.02344e-38
-0.081949 0.139313 0.435 1.04188e-38
-0.0804513 0.140274 0.438 1.0511e-38
-0.0782095 0.139954 0.437 1.06032e-38
-0.0761513 0.139954 0.437 1.06032e-38
-0.0740932 0.139954 0.437 1.06954e-38
-0.0721999 0.140274 0.438 1.07876e-38
-0.070137 0.140274 0.438 1.06954e-38
-0.0680742 0.140274 0.438 1.06954e-38
-0.0660113 0.140274 0.438 1.06954e-38
-0.0639485 0.140274 0.438 1.06954e-38
-0.0621682 0.140915 0.44 1.06954e-38
-0.0599594 0.140594 0.439 1.06954e-38
-0.0577599 0.140274 0.438 1.06954e-38
-0.0558242 0.140594 0.439 1.06954e-38
-0.0537567 0.140594 0.439 1.07876e-38
-0.0516891 0.140594 0.439 1.08798e-38
-0.0500737 0.141875 0.443 1.08798e-38
-0.0480956 0.142196 0.444 1.07887e-38
-0.0460045 0.142196 0.444 1.07887e-38
-0.0435177 0.140915 0.44 1.0972e-38
-0.0419164 0.142516 0.445 1.0972e-38
-0.0395522 0.141555 0.442 1.0972e-38
-0.0373857 0.141235 0.441 1.09713e-38
-0.0352287 0.140915 0.44 1.10635e-38
-0.0333071 0.141555 0.442 1.10635e-38
-0.0310841 0.140915 0.44 1.10635e-38
-0.0294074 0.142836 0.446 1.10635e-38
-0.0282253 0.14764 0.461 1.10635e-38
-0.025715 0.145719 0.455 1.10635e-38
-0.0235721 0.145719 0.455 1.08791e-38
-0.0195924 0.133228 0.416 1.05103e-38
-0.0156833 0.118496 0.37 9.7731e-39
-0.0129235 0.109849 0.343 9.49579e-39
-0.0109454 0.106326 0.332 6.08601e-39
-0.00918394 0.104085 0.325 4.24501e-39
-0.00751199 0.102163 0.319 3.32777e-39
-0.00593424 0.100882 0.315 3.14626e-39
-0.00438003 0.0992807 0.31 2.96331e-39
-0.00292002 0.0992807 0.31 2.87257e-39
-0.00144588 0.09832 0.307 2.87257e-39
0 0.0979997 0.306 2.87616e-39
0.00145059 0.0986402 0.308 2.96835e-39
0.00289176 0.09832 0.307 3.15238e-39
0.00440829 0.0999213 0.312 3.15238e-39
0.00593424 0.100882 0.315 3.61263e-39
0.00739425 0.100562 0.314 3.70518e-39
0.00890136 0.100882 0.315 3.33856e-39
0.0102201 0.0992807 0.31 2.13966e-39
0.0115294 0.0979997 0.306 2.13966e-39
0.0128434 0.0970389 0.303 3.61479e-39
0.0141762 0.0963984 0.301 4.07505e-39
0.0156457 0.0967187 0.302 4.35055e-39
0.0168984 0.0957579 0.299 4.53458e-39
0.018123 0.0947971 0.296 4.62714e-39
0.019517 0.0947971 0.296 4.71933e-39
0.0209111 0.0947971 0.296 4.99592e-39
0.0219284 0.0931958 0.291 4.99592e-39
0.023379 0.0935161 0.292 4.99592e-39
0.0251781 0.0951174 0.297 4.71863e-39
0.0271138 0.0970389 0.303 4.81082e-39
0.0288234 0.0979997 0.306 4.53568e-39
0.0301657 0.0976794 0.305 1.68122e-39
0.0321202 0.0992807 0.31 3.43257e-39
0.0336886 0.099601 0.311 1.58867e-39
0.0353794 0.100242 0.313 1.68015e-39
0.037089 0.100882 0.315 1.68015e-39
0.0380827 0.099601 0.311 2.23548e-39
0.0392931 0.0989605 0.309 2.60427e-39
0.0410122 0.099601 0.311 1.59048e-39
0.0430232 0.100882 0.315 1.59048e-39
0.0445068 0.100882 0.315 1.86884e-39
0.0474504 0.104085 0.325 1.22457e-39
0.0485289 0.103124 0.322 1.86884e-39
0.0509779 0.105045 0.328 1.86884e-39
0.0525227 0.105045 0.328 5.27574e-39
0.0543972 0.105686 0.33 5.27574e-39
0.0559514 0.105686 0.33 5.91713e-39
0.0578541 0.106326 0.332 5.91713e-39
0.0601336 0.107608 0.336 5.64055e-39
0.0635529 0.11081 0.346 5.64055e-39
0.065936 0.112091 0.35 5.63768e-39
0.0716394 0.118817 0.371 5.36109e-39
0.0830793 0.134509 0.42 5.64055e-39
0.0889052 0.140594 0.439 5.82242e-39
0.0915945 0.141555 0.442 4.25548e-39
0.0953717 0.144117 0.45 3.79451e-39
0.0977077 0.144437 0.451 2.96368e-39
0.100274 0.145078 0.453 2.87076e-39
0.102408 0.145078 0.453 2.77857e-39
0.104541 0.145078 0.453 4.71139e-39
0.106675 0.145078 0.453 7.38217e-39
0.109769 0.146359 0.457 1.09738e-38
0.112167 0.146679 0.458 1.11582e-38
0.114573 0.147 0.459 1.12493e-38
0.116226 0.146359 0.457 1.1433e-38
0.119674 0.14796 0.462 1.15252e-38
0.121058 0.147 0.459 1.13408e-38
0.123489 0.14732 0.46 1.1433e-38
0.125655 0.14732 0.46 1.1433e-38
0.127822 0.14732 0.46 1.1433e-38
0.130836 0.148281 0.463 1.13408e-38
0.132729 0.14796 0.462 1.1433e-38
0.134029 0.147 0.459 1.1433e-38
0.136487 0.14732 0.46 1.13408e-38
0.138654 0.14732 0.46 1.1433e-38
0.14082 0.14732 0.46 1.1433e-38
0.142365 0.146679 0.458 1.1433e-38
0.144838 0.147 0.459 1.1433e-38
0.14796 0.14796 0.462 1.1433e-38
0.150136 0.14796 0.462 1.13408e-38
0.152642 0.148281 0.463 1.13408e-38
0.155491 0.148921 0.465 1.1433e-38
0.156664 0.14796 0.462 1.11575e-38
0.159527 0.148601 0.464 1.11575e-38
0.161016 0.14796 0.462 1.12497e-38
0.163545 0.148281 0.463 1.12497e-38
0.165725 0.148281 0.463 1.12497e-38
0.167906 0.148281 0.463 1.12497e-38
0.171189 0.149241 0.466 1.12497e-38
0.173383 0.149241 0.466 1.13408e-38
0.174825 0.148601 0.464 1.13408e-38
0.17701 0.148601 0.464 1.1433e-38
0.178037 0.14764 0.461 1.1433e-38
0.18099 0.148281 0.463 1.1433e-38
0.183961 0.148921 0.465 1.11575e-38
0.185351 0.148281 0.463 1.11575e-38
0.188341 0.148921 0.465 1.11575e-38
0.189302 0.14796 0.462 1.11575e-38
0.192307 0.148601 0.464 1.11575e-38
0.195331 0.149241 0.466 1.11575e-38
0.197525 0.149241 0.466 1.12486e-38
0.198863 0.148601 0.464 1.13408e-38
0.199748 0.14764 0.461 1.13408e-38
0.202358 0.14796 0.462 1.13408e-38
0.205419 0.148601 0.464 1.13408e-38
0.207604 0.148601 0.464 1.12486e-38
0.209789 0.148601 0.464 1.10653e-38
0.211518 0.148281 0.463 1.11575e-38
0.213699 0.148281 0.463 1.11575e-38
0.216812 0.148921 0.465 1.09731e-38
0.219002 0.148921 0.465 1.10653e-38
0.221192 0.148921 0.465 1.07894e-38
0.222901 0.148601 0.464 1.07894e-38
0.225572 0.148921 0.465 1.07894e-38
0.228741 0.149562 0.467 1.06972e-38
0.233908 0.151483 0.473 1.0605e-38
0.234638 0.150522 0.47 1.06972e-38
0.234836 0.149241 0.466 2.35099e-38
0.236522 0.148921 0.465 2.35099e-38
0.239739 0.149562 0.467 2.35099e-38
0.240384 0.148601 0.464 2.35099e-38
0.244137 0.149562 0.467 2.35099e-38
0.245282 0.148921 0.465 2.35099e-38
0.248004 0.149241 0.466 2.35099e-38
0.249662 0.148921 0.465 2.35099e-38
0.253477 0.149882 0.468 2.35099e-38
0.254588 0.149241 0.466 2.35099e-38
0.258436 0.150202 0.469 2.35099e-38
0.258422 0.148921 0.465 2.35099e-38
0.262293 0.149882 0.468 2.35099e-38
0.265063 0.150202 0.469 2.35099e-38
0.267841 0.150522 0.47 2.35099e-38
0.273502 0.152444 0.476 2.35099e-38
0.27111 0.149882 0.468 2.35099e-38
0.273898 0.150202 0.469 2.35099e-38
0.274929 0.149562 0.467 2.35099e-38
0.276535 0.149241 0.466 2.35099e-38
0.279328 0.149562 0.467 2.35099e-38
0.280925 0.149241 0.466 2.35099e-38
0.283727 0.149562 0.467 2.35099e-38
0.285927 0.149562 0.467 2.35099e-38
0.288743 0.149882 0.468 2.35099e-38
0.291569 0.150202 0.469 2.35099e-38
0.293778 0.150202 0.469 2.35099e-38
0.297249 0.150843 0.471 2.35099e-38
0.29756 0.149882 0.468 2.35099e-38
0.297842 0.148921 0.465 2.35099e-38
0.300678 0.149241 0.466 2.35099e-38
0.305472 0.150522 0.47 2.35099e-38
0.305067 0.149241 0.466 2.35099e-38
0.30924 0.150202 0.469 2.35099e-38
0.310785 0.149882 0.468 2.35099e-38
0.313657 0.150202 0.469 2.35099e-38
0.315193 0.149882 0.468 2.35099e-38
0.316719 0.149562 0.467 2.35099e-38
0.316187 0.148281 0.463 2.35099e-38
0.31768 0.14796 0.462 2.35099e-38
0.32124 0.148601 0.464 2.35099e-38
0.322031 0.14796 0.462 2.35099e-38
0.322804 0.14732 0.46 2.35099e-38
0.32709 0.148281 0.463 2.35099e-38
0.328559 0.14796 0.462 2.35099e-38
0.329303 0.14732 0.46 2.35099e-38
0.33219 0.14764 0.461 2.35099e-38
0.334361 0.14764 0.461 2.35099e-38
0.337993 0.148281 0.463 2.35099e-38
0.338704 0.14764 0.461 2.35099e-38
0.337917 0.146359 0.457 2.35099e-38
0.341558 0.147 0.459 2.35099e-38
-0.114611 0.0503704 0.155 2.35099e-38
-0.113881 0.0503704 0.155 2.35099e-38
-0.113881 0.0506953 0.156 2.35099e-38
-0.11097 0.0497204 0.153 2.35099e-38
-0.125876 0.0575197 0.177 2.35099e-38
-0.122217 0.0562198 0.173 2.35099e-38
-0.119999 0.0555699 0.171 2.35099e-38
-0.11989 0.0558949 0.172 2.35099e-38
-0.12185 0.0571948 0.176 2.35099e-38
-0.126522 0.0597945 0.184 2.35099e-38
-0.127704 0.0607694 0.187 2.35099e-38
-0.125467 0.0601195 0.185 2.35099e-38
-0.124595 0.0601195 0.185 2.35099e-38
-0.12573 0.0610944 0.188 2.35099e-38
-0.128165 0.0627192 0.193 2.35099e-38
-0.128575 0.0633692 0.195 2.35099e-38
-0.136822 0.0679188 0.209 2.35099e-38
-0.134538 0.0672688 0.207 1.47531e-38
-0.135498 0.0682437 0.21 1.46609e-38
-0.134509 0.0682437 0.21 1.46609e-38
-0.134156 0.0685687 0.211 1.41077e-38
-0.135056 0.0695436 0.214 1.41077e-38
-0.135301 0.0701936 0.216 1.41077e-38
-0.134905 0.0705185 0.217 1.41084e-38
-0.136968 0.0721434 0.222 1.44783e-38
-0.139596 0.0740932 0.228 1.47549e-38
-0.13913 0.0744182 0.229 1.49375e-38
-0.139257 0.0750681 0.231 1.53063e-38
-0.138767 0.0753931 0.232 1.53985e-38
-0.137674 0.0753931 0.232 1.53985e-38
-0.13717 0.0757181 0.233 1.53063e-38
-0.137825 0.076693 0.236 1.51219e-38
-0.137872 0.0773429 0.238 1.51219e-38
-0.13905 0.0786428 0.242 1.51219e-38
-0.13905 0.0792927 0.244 1.46609e-38
-0.139596 0.0802676 0.247 1.45687e-38
-0.138993 0.0805926 0.248 1.41999e-38
-0.140604 0.0822175 0.253 1.42921e-38
-0.13831 0.0815675 0.251 1.35553e-38
-0.138767 0.0825424 0.254 1.35553e-38
-0.14082 0.0844923 0.26 1.33709e-38
-0.14067 0.0851422 0.262 1.28188e-38
-0.142097 0.086767 0.267 1.27266e-38
-0.142422 0.087742 0.27 1.29099e-38
-0.142718 0.0887169 0.273 1.25404e-38
-0.145577 0.0913166 0.281 1.25393e-38
-0.145281 0.0919666 0.283 1.26315e-38
-0.145474 0.0929415 0.286 1.18018e-38
-0.144631 0.0932664 0.287 1.18018e-38
-0.145276 0.0945663 0.291 1.16174e-38
-0.145389 0.0955412 0.294 1.12486e-38
-0.145963 0.0968411 0.298 1.0972e-38
-0.146015 0.097816 0.301 1.06032e-38
-0.146039 0.0987909 0.304 1.0511e-38
-0.146985 0.100416 0.309 1.0511e-38
-0.146943 0.101391 0.312 1.02344e-38
-0.14967 0.104315 0.321 1.01422e-38
-0.148158 0.104315 0.321 1.005e-38
-0.149387 0.106265 0.327 1.005e-38
-0.149204 0.10724 0.33 9.77274e-39
-0.149439 0.10854 0.334 9.77274e-39
-0.148752 0.10919 0.336 9.40395e-39
-0.148045 0.10984 0.338 9.31176e-39
-0.147753 0.110815 0.341 9.31176e-39
-0.147004 0.111465 0.343 9.21956e-39
-0.146237 0.112115 0.345 8.85078e-39
-0.147546 0.11439 0.352 8.94298e-39
-0.147131 0.115364 0.355 8.75858e-39
-0.147508 0.116989 0.36 8.75858e-39
-0.147433 0.118289 0.364 8.3898e-39
-0.14812 0.120239 0.37 8.29761e-39
-0.147169 0.120889 0.372 8.11322e-39
-0.146199 0.121539 0.374 7.92954e-39
-0.146755 0.123489 0.38 7.74515e-39
-0.145346 0.123814 0.381 7.37637e-39
-0.144682 0.124789 0.384 7.46856e-39
-0.144362 0.126088 0.388 7.28417e-39
-0.143637 0.127063 0.391 7.37637e-39
-0.142158 0.127388 0.392 7.09871e-39
-0.142101 0.129013 0.397 7.00651e-39
-0.140232 0.129013 0.397 6.63773e-39
-0.139059 0.129663 0.399 6.45334e-39
-0.135805 0.128363 0.395 7.09871e-39
-0.133266 0.127713 0.393 7.74408e-39
-0.130412 0.126738 0.39 8.29832e-39
-0.130553 0.128688 0.396 8.29832e-39
-0.132913 0.132913 0.409 7.83734e-39
-0.132588 0.134538 0.414 6.45298e-39
-0.132847 0.136812 0.421 6.0842e-39
-0.132418 0.138437 0.426 5.80761e-39
-0.132249 0.140387 0.432 5.80761e-39
-0.129913 0.140062 0.431 5.16224e-39
-0.12818 0.140387 0.432 5.34699e-39
-0.125853 0.140062 0.431 5.6243e-39
-0.123536 0.139737 0.43 5.53138e-39
-0.121511 0.139737 0.43 5.53138e-39
-0.119208 0.139412 0.429 5.43883e-39
-0.117187 0.139412 0.429 5.43883e-39
-0.115972 0.140387 0.432 5.43919e-39
-0.114992 0.141687 0.436 5.43919e-39
-0.112162 0.140712 0.433 5.71613e-39
-0.110123 0.140712 0.433 5.80869e-39
-0.108333 0.141037 0.434 5.99308e-39
-0.106289 0.141037 0.434 6.36186e-39
-0.104485 0.141362 0.435 6.82284e-39
-0.102201 0.141037 0.434 7.00723e-39
-0.100618 0.141687 0.436 7.46821e-39
-0.0981127 0.141037 0.434 7.92919e-39
-0.0958474 0.140712 0.433 8.20577e-39
-0.0935914 0.140387 0.432 8.57563e-39
-0.0917688 0.140712 0.433 9.12881e-39
-0.0901439 0.141362 0.435 9.12881e-39
-0.0882977 0.141687 0.436 9.58978e-39
-0.0866399 0.142337 0.438 9.68198e-39
-0.0843839 0.142012 0.437 9.77418e-39
-0.0832677 0.143637 0.442 1.03266e-38
-0.080084 0.141687 0.436 1.0511e-38
-0.0778516 0.141362 0.435 1.06032e-38
-0.0756286 0.141037 0.434 1.06954e-38
-0.0742628 0.142337 0.438 1.06954e-38
-0.0721999 0.142337 0.438 1.08798e-38
-0.0702972 0.142662 0.439 1.07876e-38
-0.0680742 0.142337 0.438 1.07876e-38
-0.0660113 0.142337 0.438 1.06954e-38
-0.0638025 0.142012 0.437 1.06954e-38
-0.0623095 0.143312 0.441 1.06954e-38
-0.0609154 0.144937 0.446 1.06954e-38
-0.0581555 0.143312 0.441 1.06954e-38
-0.0558242 0.142662 0.439 1.06954e-38
-0.0536342 0.142337 0.438 1.06954e-38
-0.0519246 0.143312 0.441 1.07876e-38
-0.0501867 0.144287 0.444 1.07876e-38
-0.0478789 0.143637 0.442 1.07887e-38
-0.0452792 0.142012 0.437 1.07887e-38
-0.043221 0.142012 0.437 1.0972e-38
-0.0414455 0.142987 0.44 1.08798e-38
-0.0391942 0.142337 0.438 1.08798e-38
-0.0373857 0.143312 0.441 1.09713e-38
-0.0354688 0.143962 0.443 1.10635e-38
-0.0334578 0.144287 0.444 1.10635e-38
-0.0310135 0.142662 0.439 1.10635e-38
-0.0293415 0.144612 0.445 1.10635e-38
-0.0274906 0.145912 0.449 1.10635e-38
-0.0256585 0.147536 0.454 1.10635e-38
-0.0237275 0.148836 0.458 1.10635e-38
-0.0200163 0.138112 0.425 1.0511e-38
-0.0155986 0.119589 0.368 9.68198e-39
-0.0127727 0.110165 0.339 9.40396e-39
-0.0109124 0.107565 0.331 8.02212e-39
-0.00918394 0.105615 0.325 4.33613e-39
-0.00753554 0.10399 0.32 3.32634e-39
-0.00593424 0.102366 0.315 3.05586e-39
-0.00439416 0.101066 0.311 2.87292e-39
-0.00292002 0.100741 0.31 2.69105e-39
-0.00145059 0.100091 0.308 2.78361e-39
0 0.100091 0.308 3.06055e-39
0.0014553 0.100416 0.309 3.06055e-39
0.0029106 0.100416 0.309 3.24493e-39
0.00438003 0.100741 0.31 3.33712e-39
0.00593424 0.102366 0.315 3.52151e-39
0.0073707 0.101716 0.313 3.42968e-39
0.00890136 0.102366 0.315 3.52188e-39
0.0101541 0.100091 0.308 1.95599e-39
0.0115671 0.0997659 0.307 2.14039e-39
0.0129705 0.0994409 0.306 3.52332e-39
0.0142233 0.098141 0.302 3.70806e-39
0.0157493 0.0987909 0.304 3.98357e-39
0.017068 0.098141 0.302 4.35055e-39
0.0182454 0.0968411 0.298 4.62786e-39
0.0196489 0.0968411 0.298 4.72005e-39
0.0208405 0.0958662 0.295 4.72005e-39
0.0220791 0.0952163 0.293 4.72005e-39
0.0236192 0.0958662 0.295 4.81225e-39
0.0259411 0.0994409 0.306 4.90444e-39
0.0278297 0.101066 0.311 4.90444e-39
0.0292944 0.101066 0.311 4.62823e-39
0.0307591 0.101066 0.311 4.62859e-39
0.0322239 0.101066 0.311 2.0482e-39
0.0336886 0.101066 0.311 1.77269e-39
0.0354924 0.102041 0.314 1.58867e-39
0.0368535 0.101716 0.313 1.22204e-39
0.0383276 0.101716 0.313 1.31424e-39
0.0399289 0.102041 0.314 2.69681e-39
0.0412759 0.101716 0.313 1.59118e-39
0.043433 0.103341 0.318 1.59118e-39
0.0452132 0.10399 0.32 1.50006e-39
0.0470124 0.10464 0.322 1.68589e-39
0.0488303 0.10529 0.324 2.42272e-39
0.0509779 0.10659 0.328 2.42272e-39
0.0525227 0.10659 0.328 5.36829e-39
0.0553862 0.10919 0.336 4.72473e-39
0.0562905 0.10789 0.332 5.91786e-39
0.0575056 0.10724 0.33 5.54835e-39
0.0595967 0.108215 0.333 5.73022e-39
0.0631855 0.11179 0.344 5.73022e-39
0.0657476 0.113415 0.349 5.17741e-39
0.0714463 0.120239 0.37 5.454e-39
0.0822881 0.135188 0.416 5.73022e-39
0.0889052 0.142662 0.439 5.73022e-39
0.092009 0.144287 0.444 4.53241e-39
0.0945239 0.144937 0.446 3.51756e-39
0.0972744 0.145912 0.449 3.24097e-39
0.0996104 0.146237 0.45 3.05586e-39
0.102182 0.146887 0.452 3.05514e-39
0.104541 0.147211 0.453 4.80359e-39
0.10691 0.147536 0.454 7.47436e-39
0.109049 0.147536 0.454 1.11582e-38
0.111187 0.147536 0.454 1.11582e-38
0.113824 0.148186 0.456 1.12493e-38
0.115972 0.148186 0.456 1.1433e-38
0.118638 0.148836 0.458 1.13408e-38
0.120795 0.148836 0.458 1.1433e-38
0.123489 0.149486 0.46 1.1433e-38
0.125655 0.149486 0.46 1.13408e-38
0.127544 0.149161 0.459 1.13408e-38
0.129705 0.149161 0.459 1.1433e-38
0.132442 0.149811 0.461 1.13408e-38
0.134321 0.149486 0.46 1.13408e-38
0.137674 0.150786 0.464 1.13408e-38
0.139257 0.150136 0.462 1.1433e-38
0.141739 0.150461 0.463 1.1433e-38
0.142054 0.148511 0.457 1.1433e-38
0.144207 0.148511 0.457 1.1433e-38
0.147 0.149161 0.459 1.1433e-38
0.149811 0.149811 0.461 1.1433e-38
0.151323 0.149161 0.459 1.13408e-38
0.154822 0.150461 0.463 1.13408e-38
0.157003 0.150461 0.463 1.13408e-38
0.160215 0.151436 0.466 1.12497e-38
0.161713 0.150786 0.464 1.12497e-38
0.163192 0.150136 0.462 1.12497e-38
0.166083 0.150786 0.464 1.12497e-38
0.168631 0.151111 0.465 1.12497e-38
0.170087 0.150461 0.463 1.1433e-38
0.172639 0.150786 0.464 1.1433e-38
0.173694 0.149811 0.461 1.1433e-38
0.177391 0.151111 0.465 1.1433e-38
0.179195 0.150786 0.464 1.1433e-38
0.182162 0.151436 0.466 1.1433e-38
0.18317 0.150461 0.463 1.11571e-38
0.185351 0.150461 0.463 1.11571e-38
0.188746 0.151436 0.466 1.11571e-38
0.191351 0.151761 0.467 1.11571e-38
0.192721 0.151111 0.465 1.11571e-38
0.19575 0.151761 0.467 1.11571e-38
0.198373 0.152086 0.468 1.13408e-38
0.200149 0.151761 0.467 1.12486e-38
0.200182 0.150136 0.462 1.11564e-38
0.20192 0.149811 0.461 1.12486e-38
0.204976 0.150461 0.463 1.12486e-38
0.206709 0.150136 0.462 1.12486e-38
0.208885 0.150136 0.462 1.10653e-38
0.210604 0.149811 0.461 1.10653e-38
0.214622 0.151111 0.465 1.10653e-38
0.217744 0.151761 0.467 1.08809e-38
0.219944 0.151761 0.467 1.09731e-38
0.22024 0.150461 0.463 1.06972e-38
0.222901 0.150786 0.464 1.06972e-38
0.225087 0.150786 0.464 1.06972e-38
0.228741 0.151761 0.467 1.06972e-38
0.230941 0.151761 0.467 1.0605e-38
0.233639 0.152086 0.468 1.06972e-38
0.234836 0.151436 0.466 2.35099e-38
0.236522 0.151111 0.465 2.35099e-38
0.238712 0.151111 0.465 2.35099e-38
0.241938 0.151761 0.467 2.35099e-38
0.243615 0.151436 0.466 2.35099e-38
0.245282 0.151111 0.465 2.35099e-38
0.247472 0.151111 0.465 2.35099e-38
0.248051 0.150136 0.462 2.35099e-38
0.251852 0.151111 0.465 2.35099e-38
0.255135 0.151761 0.467 2.35099e-38
0.257334 0.151761 0.467 2.35099e-38
0.258422 0.151111 0.465 2.35099e-38
0.261172 0.151436 0.466 2.35099e-38
0.263932 0.151761 0.467 2.35099e-38
0.266702 0.152086 0.468 2.35099e-38
0.268906 0.152086 0.468 2.35099e-38
0.270531 0.151761 0.467 2.35099e-38
0.273314 0.152086 0.468 2.35099e-38
0.274341 0.151436 0.466 2.35099e-38
0.276535 0.151436 0.466 2.35099e-38
0.279927 0.152086 0.468 2.35099e-38
0.281528 0.151761 0.467 2.35099e-38
0.283727 0.151761 0.467 2.35099e-38
0.286539 0.152086 0.468 2.35099e-38
0.28936 0.152411 0.469 2.35099e-38
0.289704 0.151436 0.466 2.35099e-38
0.293151 0.152086 0.468 2.35099e-38
0.296618 0.152736 0.47 2.35099e-38
0.299467 0.153061 0.471 2.35099e-38
0.298483 0.151436 0.466 2.35099e-38
0.301968 0.152086 0.468 2.35099e-38
0.305472 0.152736 0.47 2.35099e-38
0.307686 0.152736 0.47 2.35099e-38
0.310558 0.153061 0.471 2.35099e-38
0.31012 0.151761 0.467 2.35099e-38
0.31232 0.151761 0.467 2.35099e-38
0.313172 0.151111 0.465 2.35099e-38
0.314006 0.150461 0.463 2.35099e-38
0.314821 0.149811 0.461 2.35099e-38
0.319055 0.150786 0.464 2.35099e-38
0.32124 0.150786 0.464 2.35099e-38
0.322728 0.150461 0.463 2.35099e-38
0.322804 0.149486 0.46 2.35099e-38
0.323557 0.148836 0.458 2.35099e-38
0.325714 0.148836 0.458 2.35099e-38
0.327156 0.148511 0.457 2.35099e-38
0.330749 0.149161 0.459 2.35099e-38
0.333636 0.149486 0.46 2.35099e-38
0.335802 0.149486 0.46 2.35099e-38
0.335765 0.148511 0.457 2.35099e-38
0.337178 0.148186 0.456 2.35099e-38
0.339325 0.148186 0.456 2.35099e-38
-0.111653 0.0497817 0.151 2.35099e-38
-0.113881 0.0511004 0.155 2.35099e-38
-0.111691 0.050441 0.153 2.35099e-38
-0.112421 0.0511004 0.155 2.35099e-38
-0.123032 0.0570346 0.173 2.35099e-38
-0.122217 0.0570346 0.173 2.35099e-38
-0.120701 0.0567049 0.172 2.35099e-38
-0.123376 0.0583533 0.177 2.35099e-38
-0.123234 0.058683 0.178 2.35099e-38
-0.126522 0.0606611 0.184 2.35099e-38
-0.12907 0.0623095 0.189 2.35099e-38
-0.12818 0.0623095 0.189 2.35099e-38
-0.126616 0.0619798 0.188 2.35099e-38
-0.127068 0.0626392 0.19 2.35099e-38
-0.126173 0.0626392 0.19 2.35099e-38
-0.126597 0.0632985 0.192 2.35099e-38
-0.132239 0.0665953 0.202 1.41988e-38
-0.140387 0.0712109 0.216 1.46598e-38
-0.141951 0.0725296 0.22 2.35099e-38
-0.13579 0.0698921 0.212 1.47531e-38
-0.135428 0.0702218 0.213 1.34613e-38
-0.135687 0.0708812 0.215 1.12479e-38
-0.135927 0.0715405 0.217 1.17096e-38
-0.135527 0.0718702 0.218 1.50297e-38
-0.138202 0.0738483 0.224 1.17088e-38
-0.138984 0.0748373 0.227 1.47531e-38
-0.138522 0.075167 0.228 1.52141e-38
-0.138051 0.0754967 0.229 1.53985e-38
-0.136973 0.0754967 0.229 1.53063e-38
-0.136487 0.0758264 0.23 1.53063e-38
-0.13717 0.0768154 0.233 1.53063e-38
-0.137241 0.0774748 0.235 1.52141e-38
-0.138451 0.0787935 0.239 1.51219e-38
-0.139624 0.0801122 0.243 1.51219e-38
-0.139619 0.0807716 0.245 1.47531e-38
-0.141857 0.0827497 0.251 1.45687e-38
-0.140114 0.08242 0.25 1.41077e-38
-0.140048 0.0830793 0.252 1.41999e-38
-0.13831 0.0827497 0.251 1.30954e-38
-0.138767 0.0837387 0.254 1.31876e-38
-0.140279 0.0853871 0.259 1.35553e-38
-0.140133 0.0860464 0.261 1.30032e-38
-0.142629 0.0883542 0.268 1.30032e-38
-0.142949 0.0893433 0.271 1.28188e-38
-0.143241 0.0903323 0.274 1.26315e-38
-0.145059 0.0923104 0.28 1.24471e-38
-0.144767 0.0929697 0.282 1.21705e-38
-0.143948 0.0932994 0.283 1.20783e-38
-0.143119 0.0936291 0.284 1.20783e-38
-0.144277 0.0952775 0.289 1.1433e-38
-0.145389 0.0969259 0.294 1.1433e-38
-0.147433 0.0992336 0.301 1.1433e-38
-0.148441 0.100882 0.306 1.10642e-38
-0.147 0.100882 0.306 1.06954e-38
-0.146985 0.101871 0.309 1.0511e-38
-0.146943 0.10286 0.312 1.03266e-38
-0.147339 0.104179 0.316 1.02344e-38
-0.148158 0.105827 0.321 1.005e-38
-0.148931 0.107476 0.326 9.86565e-39
-0.148299 0.108135 0.328 9.77274e-39
-0.148992 0.109783 0.333 9.77274e-39
-0.148752 0.110772 0.336 9.77274e-39
-0.148921 0.112091 0.34 9.31176e-39
-0.151653 0.115388 0.35 9.40395e-39
-0.14829 0.114069 0.346 9.03517e-39
-0.147084 0.114399 0.347 8.85078e-39
-0.147546 0.116047 0.352 8.66639e-39
-0.146303 0.116377 0.353 8.482e-39
-0.146689 0.118025 0.358 8.482e-39
-0.147433 0.120003 0.364 8.3898e-39
-0.14772 0.121652 0.369 8.11322e-39
-0.146378 0.121982 0.37 8.02102e-39
-0.146199 0.1233 0.374 7.92919e-39
-0.145596 0.124289 0.377 7.92919e-39
-0.144965 0.125278 0.38 7.83699e-39
-0.144682 0.126597 0.384 7.6526e-39
-0.14399 0.127586 0.387 7.28346e-39
-0.143637 0.128905 0.391 7.28346e-39
-0.142883 0.129894 0.394 7.28274e-39
-0.143533 0.132202 0.401 6.731e-39
-0.141645 0.132202 0.401 6.63809e-39
-0.13871 0.131213 0.398 6.54517e-39
-0.136148 0.130553 0.396 6.82248e-39
-0.132927 0.129235 0.392 7.46856e-39
-0.129743 0.127916 0.388 7.93134e-39
-0.130224 0.130224 0.395 7.93062e-39
-0.133563 0.135498 0.411 7.74623e-39
-0.133869 0.137806 0.418 7.09906e-39
-0.133162 0.139125 0.422 6.26751e-39
-0.132107 0.140114 0.425 5.71434e-39
-0.131024 0.141103 0.428 5.34628e-39
-0.128707 0.140773 0.427 5.16332e-39
-0.126993 0.141103 0.428 5.25552e-39
-0.124977 0.141103 0.428 5.6243e-39
-0.123248 0.141433 0.429 5.43991e-39
-0.121511 0.141762 0.43 5.5321e-39
-0.119485 0.141762 0.43 5.34807e-39
-0.11828 0.142751 0.433 5.71469e-39
-0.115435 0.141762 0.43 5.53102e-39
-0.113674 0.142092 0.431 5.62322e-39
-0.112421 0.143081 0.434 5.71542e-39
-0.110377 0.143081 0.434 5.90052e-39
-0.108582 0.143411 0.435 6.08491e-39
-0.106534 0.143411 0.435 5.90196e-39
-0.104485 0.143411 0.435 6.73064e-39
-0.102672 0.14374 0.436 7.00723e-39
-0.100388 0.143411 0.435 7.28382e-39
-0.0976606 0.142422 0.432 8.11358e-39
-0.0954047 0.142092 0.431 8.29976e-39
-0.0935914 0.142422 0.432 8.39196e-39
-0.0913449 0.142092 0.431 8.76074e-39
-0.0895222 0.142422 0.432 9.12953e-39
-0.0885002 0.14407 0.437 9.31392e-39
-0.0860465 0.143411 0.435 9.77489e-39
-0.0838046 0.143081 0.434 1.03266e-38
-0.082891 0.145059 0.44 1.03266e-38
-0.0804513 0.1444 0.438 1.0511e-38
-0.0789254 0.145389 0.441 1.0511e-38
-0.0758028 0.143411 0.435 1.06032e-38
-0.0739237 0.14374 0.436 1.06954e-38
-0.0720351 0.14407 0.437 1.06954e-38
-0.0698168 0.14374 0.436 1.06954e-38
-0.0679188 0.14407 0.437 1.06954e-38
-0.0663128 0.145059 0.44 1.06954e-38
-0.0640945 0.144729 0.439 1.06954e-38
-0.0618856 0.1444 0.438 1.06954e-38
-0.0598228 0.1444 0.438 1.06954e-38
-0.057628 0.14407 0.437 1.06954e-38
-0.0555699 0.14407 0.437 1.06954e-38
-0.0533893 0.14374 0.436 1.07876e-38
-0.0514536 0.14407 0.437 1.08798e-38
-0.0498476 0.145389 0.441 1.08798e-38
-0.0477706 0.145389 0.441 1.07887e-38
-0.0454864 0.144729 0.439 1.07887e-38
-0.0434188 0.144729 0.439 1.0972e-38
-0.0411629 0.14407 0.437 1.08798e-38
-0.0391047 0.14407 0.437 1.10635e-38
-0.0373857 0.145389 0.441 1.11557e-38
-0.0353087 0.145389 0.441 1.10635e-38
-0.0334578 0.146378 0.444 1.10635e-38
-0.0310841 0.145059 0.44 1.10635e-38
-0.0293415 0.146708 0.445 1.10635e-38
-0.0273681 0.147367 0.447 1.10635e-38
-0.025602 0.149345 0.453 1.10635e-38
-0.0237275 0.150993 0.458 1.10635e-38
-0.0199692 0.139784 0.424 1.0511e-38
-0.015641 0.121652 0.369 9.6827e-39
-0.0129611 0.11341 0.344 9.68089e-39
-0.0108135 0.108135 0.328 9.49615e-39
-0.00904265 0.105498 0.32 4.06244e-39
-0.00744135 0.104179 0.316 2.87111e-39
-0.00595308 0.104179 0.316 2.77964e-39
-0.00442242 0.10319 0.313 2.78072e-39
-0.00292944 0.10253 0.311 2.69069e-39
-0.0014553 0.101871 0.309 2.78361e-39
0 0.101541 0.308 2.87616e-39
0.0014553 0.101871 0.309 3.06055e-39
0.00290118 0.101541 0.308 3.52079e-39
0.00442242 0.10319 0.313 3.42932e-39
0.00593424 0.103849 0.315 3.52188e-39
0.00739425 0.103519 0.314 3.52188e-39
0.00876007 0.102201 0.31 3.24493e-39
0.010253 0.10253 0.311 3.52188e-39
0.0116424 0.101871 0.309 2.695e-39
0.0129282 0.100552 0.305 2.695e-39
0.0141291 0.098904 0.3 3.98465e-39
0.0156975 0.099893 0.303 3.98465e-39
0.016955 0.098904 0.3 4.2598e-39
0.0182454 0.0982446 0.298 4.53638e-39
0.0197149 0.0985743 0.299 4.53638e-39
0.0208405 0.0972556 0.295 4.62858e-39
0.0220791 0.0965962 0.293 4.62858e-39
0.0235391 0.0969259 0.294 4.62858e-39
0.0261106 0.101541 0.308 4.62858e-39
0.0279192 0.10286 0.312 4.62858e-39
0.0292944 0.10253 0.311 4.72114e-39
0.0309569 0.10319 0.313 4.72114e-39
0.0323275 0.10286 0.312 1.6805e-39
0.0337969 0.10286 0.312 1.95565e-39
0.0354924 0.103519 0.314 1.49647e-39
0.0369712 0.103519 0.314 1.13022e-39
0.0384501 0.103519 0.314 1.40716e-39
0.0400561 0.103849 0.315 1.40716e-39
0.0416715 0.104179 0.316 2.69681e-39
0.0435696 0.105168 0.319 1.68338e-39
0.0454958 0.106157 0.322 1.68303e-39
0.0473044 0.106816 0.324 1.77559e-39
0.048981 0.107146 0.325 1.96103e-39
0.0514442 0.109124 0.331 4.53998e-39
0.0526829 0.108465 0.329 5.27574e-39
0.0547269 0.109454 0.332 5.36793e-39
0.05646 0.109783 0.333 6.10225e-39
0.0585512 0.110772 0.336 5.91713e-39
0.0597757 0.110113 0.334 6.19012e-39
0.0622671 0.111761 0.339 5.72951e-39
0.064994 0.11374 0.345 4.80792e-39
0.0718325 0.122641 0.372 6.09793e-39
0.0824859 0.137477 0.417 6.19012e-39
0.0885002 0.14407 0.437 6.09793e-39
0.0934595 0.148686 0.451 5.36073e-39
0.0945239 0.147037 0.446 3.88562e-39
0.0972744 0.148026 0.449 3.24025e-39
0.100274 0.149345 0.453 3.33208e-39
0.102182 0.149015 0.452 3.69978e-39
0.104772 0.149675 0.454 6.27582e-39
0.10644 0.149015 0.452 1.06987e-38
0.109049 0.149675 0.454 1.09738e-38
0.111187 0.149675 0.454 1.11582e-38
0.113575 0.150004 0.455 1.1433e-38
0.115718 0.150004 0.455 1.1433e-38
0.118379 0.150664 0.457 1.13408e-38
0.120531 0.150664 0.457 1.1433e-38
0.122952 0.150993 0.458 1.12486e-38
0.125109 0.150993 0.458 1.13408e-38
0.127266 0.150993 0.458 1.13408e-38
0.129705 0.151323 0.459 1.1433e-38
0.132442 0.151982 0.461 1.15252e-38
0.134029 0.151323 0.459 1.13408e-38
0.136191 0.151323 0.459 1.13408e-38
0.138654 0.151653 0.46 1.1433e-38
0.139902 0.150664 0.457 1.1433e-38
0.142365 0.150993 0.458 1.1433e-38
0.144522 0.150993 0.458 1.1433e-38
0.14732 0.151653 0.46 1.1433e-38
0.150136 0.152312 0.462 1.1433e-38
0.151323 0.151323 0.459 1.13408e-38
0.154822 0.152642 0.463 1.1433e-38
0.155647 0.151323 0.459 1.11575e-38
0.158496 0.151982 0.461 1.11575e-38
0.161364 0.152642 0.463 1.11575e-38
0.163192 0.152312 0.462 1.11575e-38
0.166083 0.152971 0.464 1.11575e-38
0.167906 0.152642 0.463 1.12497e-38
0.169719 0.152312 0.462 1.1433e-38
0.172639 0.152971 0.464 1.1433e-38
0.172941 0.151323 0.459 1.1433e-38
0.175102 0.151323 0.459 1.1433e-38
0.179195 0.152971 0.464 1.1433e-38
0.18099 0.152642 0.463 1.11582e-38
0.183566 0.152971 0.464 1.11571e-38
0.185751 0.152971 0.464 1.12497e-38
0.187531 0.152642 0.463 1.11575e-38
0.189302 0.152312 0.462 1.11575e-38
0.191893 0.152642 0.463 1.11575e-38
0.194073 0.152642 0.463 1.11575e-38
0.197949 0.153961 0.467 1.11575e-38
0.198434 0.152642 0.463 1.11575e-38
0.199748 0.151982 0.461 1.10653e-38
0.203234 0.152971 0.464 1.10653e-38
0.204976 0.152642 0.463 1.10653e-38
0.208052 0.153301 0.465 1.09734e-38
0.209789 0.152971 0.464 1.08812e-38
0.212888 0.153631 0.466 1.08812e-38
0.21416 0.152971 0.464 1.06968e-38
0.216812 0.153301 0.465 1.06968e-38
0.219002 0.153301 0.465 1.0789e-38
0.220716 0.152971 0.464 1.06961e-38
0.222421 0.152642 0.463 1.06961e-38
0.225572 0.153301 0.465 1.08794e-38
0.228741 0.153961 0.467 1.06965e-38
0.23193 0.15462 0.469 1.06043e-38
0.233639 0.15429 0.468 1.03295e-38
0.234836 0.153631 0.466 2.35099e-38
0.237539 0.153961 0.467 2.35099e-38
0.238712 0.153301 0.465 2.35099e-38
0.240902 0.153301 0.465 2.35099e-38
0.243615 0.153631 0.466 2.35099e-38
0.245809 0.153631 0.466 2.35099e-38
0.247472 0.153301 0.465 2.35099e-38
0.249662 0.153301 0.465 2.35099e-38
0.252394 0.153631 0.466 2.35099e-38
0.255135 0.153961 0.467 2.35099e-38
0.257885 0.15429 0.468 2.35099e-38
0.258422 0.153301 0.465 2.35099e-38
0.262854 0.15462 0.469 2.35099e-38
0.264497 0.15429 0.468 2.35099e-38
0.267271 0.15462 0.469 2.35099e-38
0.268906 0.15429 0.468 2.35099e-38
0.27111 0.15429 0.468 2.35099e-38
0.274482 0.15495 0.47 2.35099e-38
0.276107 0.15462 0.469 2.35099e-38
0.276535 0.153631 0.466 2.35099e-38
0.279328 0.153961 0.467 2.35099e-38
0.283336 0.15495 0.47 2.35099e-38
0.28555 0.15495 0.47 2.35099e-38
0.287151 0.15462 0.469 2.35099e-38
0.289977 0.15495 0.47 2.35099e-38
0.290947 0.15429 0.468 2.35099e-38
0.291899 0.153631 0.466 2.35099e-38
0.295987 0.15462 0.469 2.35099e-38
0.296288 0.153631 0.466 2.35099e-38
0.299764 0.15429 0.468 2.35099e-38
0.303258 0.15495 0.47 2.35099e-38
0.306122 0.155279 0.471 2.35099e-38
0.305722 0.153961 0.467 2.35099e-38
0.309899 0.15495 0.47 2.35099e-38
0.31012 0.153961 0.467 2.35099e-38
0.312989 0.15429 0.468 2.35099e-38
0.315193 0.15429 0.468 2.35099e-38
0.315362 0.153301 0.465 2.35099e-38
0.316869 0.152971 0.464 2.35099e-38
0.321118 0.153961 0.467 2.35099e-38
0.321932 0.153301 0.465 2.35099e-38
0.324122 0.153301 0.465 2.35099e-38
0.324909 0.152642 0.463 2.35099e-38
0.323557 0.150993 0.458 2.35099e-38
0.325003 0.150664 0.457 2.35099e-38
0.325724 0.150004 0.455 2.35099e-38
0.330749 0.151323 0.459 2.35099e-38
0.332186 0.150993 0.458 2.35099e-38
0.335073 0.151323 0.459 2.35099e-38
0.3365 0.150993 0.458 2.35099e-38
0.338657 0.150993 0.458 2.35099e-38
0.338581 0.150004 0.455 2.35099e-38
-0.113853 0.0511616 0.153 2.35099e-38
-0.114611 0.0518304 0.155 2.35099e-38
-0.113146 0.051496 0.154 2.35099e-38
-0.111691 0.0511616 0.153 2.35099e-38
-0.113871 0.0524992 0.157 2.35099e-38
-0.116735 0.0541711 0.162 2.35099e-38
-0.126456 0.0598557 0.179 2.35099e-38
-0.121402 0.0578494 0.173 2.35099e-38
-0.123927 0.0598557 0.179 2.35099e-38
-0.124459 0.0605245 0.181 2.35099e-38
-0.128387 0.0628652 0.188 2.35099e-38
-0.128858 0.063534 0.19 2.35099e-38
-0.126616 0.0628652 0.188 2.35099e-38
-0.127068 0.063534 0.19 2.35099e-38
-0.125509 0.0631996 0.189 2.35099e-38
-0.140015 0.0725625 0.217 1.39255e-38
-0.136431 0.071225 0.213 1.39255e-38
-0.136064 0.0715594 0.214 1.47534e-38
-0.138211 0.0732313 0.219 1.45691e-38
-0.13718 0.0732313 0.219 4.70126e-39
-0.13677 0.0735657 0.22 5.62179e-39
-0.138202 0.0749033 0.224 1.20773e-38
-0.136535 0.0745689 0.223 1.51226e-38
-0.138522 0.0762408 0.228 1.47531e-38
-0.139257 0.077244 0.231 1.52141e-38
-0.138169 0.077244 0.231 1.52148e-38
-0.137081 0.077244 0.231 1.50315e-38
-0.13717 0.0779128 0.233 1.51229e-38
-0.137241 0.0785816 0.235 1.50308e-38
-0.138451 0.0799191 0.239 1.50308e-38
-0.139624 0.0812567 0.243 1.47542e-38
-0.139619 0.0819255 0.245 1.47531e-38
-0.140726 0.083263 0.249 1.47531e-38
-0.140674 0.0839318 0.251 1.43843e-38
-0.140604 0.0846006 0.253 1.43843e-38
-0.13831 0.0839318 0.251 1.38319e-38
-0.139313 0.0852694 0.255 1.36475e-38
-0.14082 0.0869413 0.26 1.31876e-38
-0.141744 0.0882789 0.264 1.31876e-38
-0.142629 0.0896164 0.268 1.30032e-38
-0.142422 0.0902852 0.27 1.28177e-38
-0.143241 0.0916228 0.274 1.28159e-38
-0.145059 0.0936291 0.28 1.28159e-38
-0.144254 0.0939635 0.281 1.24471e-38
-0.143948 0.0946323 0.283 1.22627e-38
-0.142615 0.0946323 0.283 1.18018e-38
-0.144777 0.096973 0.29 1.21705e-38
-0.1444 0.0976418 0.292 1.13408e-38
-0.145963 0.0996481 0.298 1.12486e-38
-0.1465 0.100986 0.302 1.12486e-38
-0.146039 0.101654 0.304 1.06032e-38
-0.145083 0.101989 0.305 1.0511e-38
-0.147414 0.104664 0.313 1.04188e-38
-0.148737 0.10667 0.319 1.005e-38
-0.149081 0.108008 0.323 1.005e-38
-0.148931 0.109011 0.326 9.95784e-39
-0.147847 0.109345 0.327 9.77274e-39
-0.148097 0.110683 0.331 9.77274e-39
-0.146981 0.111017 0.332 9.40395e-39
-0.147607 0.112689 0.337 9.40395e-39
-0.14732 0.113692 0.34 9.12737e-39
-0.146576 0.114361 0.342 9.12737e-39
-0.14666 0.115699 0.346 8.94298e-39
-0.147965 0.11804 0.353 8.85078e-39
-0.147546 0.119043 0.356 8.57419e-39
-0.147098 0.120046 0.359 8.20541e-39
-0.147838 0.122052 0.365 8.20541e-39
-0.14732 0.123055 0.368 8.02102e-39
-0.146774 0.124059 0.371 7.92882e-39
-0.14659 0.125396 0.375 7.83663e-39
-0.145982 0.126399 0.378 7.74443e-39
-0.144202 0.126399 0.378 7.65224e-39
-0.144306 0.128071 0.383 7.37637e-39
-0.143618 0.129074 0.386 7.09978e-39
-0.142902 0.130078 0.389 7.19198e-39
-0.142521 0.131415 0.393 7.19198e-39
-0.142101 0.132753 0.397 7.00687e-39
-0.141291 0.133756 0.4 6.72921e-39
-0.139059 0.133421 0.399 6.72849e-39
-0.136492 0.132753 0.397 6.63701e-39
-0.133944 0.132084 0.395 7.09907e-39
-0.129743 0.129743 0.388 7.92954e-39
-0.128575 0.130412 0.39 7.92954e-39
-0.132263 0.136097 0.407 7.92954e-39
-0.132588 0.138437 0.414 7.09906e-39
-0.133478 0.141447 0.423 6.2693e-39
-0.132418 0.14245 0.426 5.99092e-39
-0.130412 0.14245 0.426 5.43775e-39
-0.129008 0.143119 0.428 5.2548e-39
-0.126993 0.143119 0.428 5.53174e-39
-0.124393 0.14245 0.426 5.53174e-39
-0.122961 0.143119 0.428 5.62394e-39
-0.121228 0.143453 0.429 5.34735e-39
-0.11893 0.143119 0.428 5.43954e-39
-0.11746 0.143788 0.43 5.62321e-39
-0.115704 0.144122 0.431 5.43883e-39
-0.113937 0.144456 0.432 5.34699e-39
-0.112162 0.144791 0.433 5.53174e-39
-0.110885 0.145794 0.436 5.53174e-39
-0.108333 0.145125 0.434 5.90052e-39
-0.106289 0.145125 0.434 6.08635e-39
-0.103764 0.144456 0.432 6.54661e-39
-0.101494 0.144122 0.431 7.00759e-39
-0.099926 0.144791 0.433 7.74515e-39
-0.0972085 0.143788 0.43 8.29761e-39
-0.0951833 0.143788 0.43 8.66711e-39
-0.0935914 0.144456 0.432 8.7593e-39
-0.0919807 0.145125 0.434 9.03589e-39
-0.0901439 0.145459 0.435 9.31248e-39
-0.0882977 0.145794 0.436 9.77346e-39
-0.0860465 0.145459 0.435 9.95785e-39
-0.0841908 0.145794 0.436 1.005e-38
-0.0825142 0.146463 0.438 1.04188e-38
-0.080635 0.146797 0.439 1.0511e-38
-0.0782095 0.146128 0.437 1.04199e-38
-0.0759771 0.145794 0.436 1.04199e-38
-0.0744323 0.146797 0.439 1.05121e-38
-0.0725296 0.147131 0.44 1.05121e-38
-0.0706174 0.147466 0.441 1.06954e-38
-0.068385 0.147131 0.44 1.06032e-38
-0.0657099 0.145794 0.436 1.0511e-38
-0.0636565 0.145794 0.436 1.06032e-38
-0.0617443 0.146128 0.437 1.06032e-38
-0.0596862 0.146128 0.437 1.06954e-38
-0.057628 0.146128 0.437 1.06954e-38
-0.0551884 0.145125 0.434 1.06954e-38
-0.0531444 0.145125 0.434 1.07876e-38
-0.0513359 0.145794 0.436 1.07876e-38
-0.0496215 0.146797 0.439 1.08798e-38
-0.0476623 0.147131 0.44 1.09713e-38
-0.0454864 0.146797 0.439 1.10635e-38
-0.0435177 0.147131 0.44 1.10635e-38
-0.0416339 0.1478 0.442 1.10635e-38
-0.0394627 0.147466 0.441 1.10635e-38
-0.0378943 0.149472 0.447 1.10635e-38
-0.0358692 0.149807 0.448 1.10642e-38
-0.0335332 0.148803 0.445 1.0972e-38
-0.0311547 0.147466 0.441 1.0972e-38
-0.0291437 0.1478 0.442 1.0972e-38
-0.027062 0.1478 0.442 1.0972e-38
-0.0252629 0.149472 0.447 1.08798e-38
-0.0233131 0.150475 0.45 1.0972e-38
-0.0207698 0.147466 0.441 1.06032e-38
-0.0158953 0.125396 0.375 1.04188e-38
-0.0128858 0.114361 0.342 9.49722e-39
-0.0108135 0.10968 0.328 5.62612e-39
-0.00901439 0.10667 0.319 4.88855e-39
-0.00748844 0.106336 0.318 4.2436e-39
-0.00595308 0.105667 0.316 2.96294e-39
-0.00439416 0.103995 0.311 2.78036e-39
-0.00292944 0.103995 0.311 2.87255e-39
-0.00144588 0.102658 0.307 2.78433e-39
0 0.102992 0.308 2.78433e-39
0.00146472 0.103995 0.311 3.61227e-39
0.00290118 0.102992 0.308 3.70446e-39
0.00446481 0.105667 0.316 3.61227e-39
0.00606611 0.107673 0.322 3.70446e-39
0.0074178 0.105333 0.315 4.16579e-39
0.00881658 0.10433 0.312 3.9814e-39
0.0101871 0.103326 0.309 3.79736e-39
0.0115294 0.102323 0.306 2.60208e-39
0.0128858 0.101654 0.304 3.34072e-39
0.0140349 0.0996481 0.298 4.07755e-39
0.0156975 0.10132 0.303 3.52511e-39
0.016955 0.100317 0.3 4.07755e-39
0.0181842 0.0993137 0.297 4.17011e-39
0.019583 0.0993137 0.297 4.26231e-39
0.0209111 0.0989793 0.296 4.3538e-39
0.0219284 0.0973074 0.291 4.53748e-39
0.0235391 0.0983105 0.294 4.44529e-39
0.025602 0.100986 0.302 4.53748e-39
0.0275612 0.102992 0.308 5.08921e-39
0.0292002 0.103661 0.31 4.90482e-39
0.0307591 0.103995 0.311 4.53532e-39
0.0324311 0.104664 0.313 4.53532e-39
0.0339052 0.104664 0.313 1.68015e-39
0.0356054 0.105333 0.315 1.68015e-39
0.0369712 0.104998 0.314 9.46196e-40
0.0384501 0.104998 0.314 1.03803e-39
0.0398018 0.104664 0.313 2.32839e-39
0.0416715 0.105667 0.316 2.78901e-39
0.0437061 0.107005 0.32 1.68375e-39
0.0452132 0.107005 0.32 1.59155e-39
0.0474504 0.108677 0.325 1.40824e-39
0.0492824 0.109345 0.327 1.77881e-39
0.0512888 0.110349 0.33 4.72509e-39
0.0530031 0.110683 0.331 4.72509e-39
0.054562 0.110683 0.331 5.36865e-39
0.0567991 0.112021 0.335 5.92002e-39
0.0587254 0.112689 0.337 5.73491e-39
0.0606705 0.113358 0.339 5.27393e-39
0.0628181 0.114361 0.342 5.82352e-39
0.0663128 0.117705 0.352 5.63913e-39
0.0712532 0.12339 0.369 5.08596e-39
0.08031 0.135762 0.406 5.63913e-39
0.0887027 0.146463 0.438 5.63913e-39
0.0934595 0.15081 0.451 5.08596e-39
0.0953717 0.150475 0.45 4.1622e-39
0.0977077 0.15081 0.451 3.14733e-39
0.0998318 0.15081 0.451 3.23809e-39
0.10173 0.150475 0.45 4.61813e-39
0.104311 0.151144 0.452 5.2635e-39
0.10644 0.151144 0.452 9.7785e-39
0.109289 0.152147 0.455 1.09738e-38
0.110942 0.151478 0.453 1.15245e-38
0.113075 0.151478 0.453 1.15245e-38
0.115209 0.151478 0.453 1.13408e-38
0.118638 0.15315 0.458 1.13408e-38
0.11974 0.151813 0.454 1.13408e-38
0.122683 0.152816 0.457 1.13408e-38
0.125109 0.15315 0.458 1.13408e-38
0.126432 0.152147 0.455 1.13408e-38
0.129705 0.153485 0.459 1.13408e-38
0.132155 0.153819 0.46 1.13408e-38
0.134321 0.153819 0.46 1.12486e-38
0.136487 0.153819 0.46 1.13408e-38
0.138051 0.15315 0.458 1.13408e-38
0.140208 0.15315 0.458 1.13408e-38
0.142365 0.15315 0.458 1.15245e-38
0.144838 0.153485 0.459 1.15245e-38
0.146679 0.15315 0.458 1.1433e-38
0.149811 0.154154 0.461 1.12486e-38
0.151982 0.154154 0.461 1.13408e-38
0.155157 0.155157 0.464 1.11571e-38
0.156664 0.154488 0.462 1.12493e-38
0.15884 0.154488 0.462 1.11575e-38
0.161364 0.154822 0.463 1.11575e-38
0.163898 0.155157 0.464 1.12497e-38
0.165367 0.154488 0.462 1.11575e-38
0.167906 0.154822 0.463 1.11575e-38
0.169352 0.154154 0.461 1.13408e-38
0.171895 0.154488 0.462 1.11575e-38
0.173694 0.154154 0.461 1.11575e-38
0.175102 0.153485 0.459 1.12497e-38
0.178423 0.154488 0.462 1.12497e-38
0.180599 0.154488 0.462 1.11582e-38
0.182775 0.154488 0.462 1.10649e-38
0.18495 0.154488 0.462 1.11575e-38
0.187936 0.155157 0.464 1.11575e-38
0.189302 0.154488 0.462 1.11575e-38
0.191064 0.154154 0.461 1.11575e-38
0.194911 0.155491 0.465 1.11575e-38
0.196678 0.155157 0.464 1.10653e-38
0.198863 0.155157 0.464 1.11575e-38
0.201482 0.155491 0.465 1.11575e-38
0.203672 0.155491 0.465 1.10653e-38
0.205862 0.155491 0.465 1.10653e-38
0.207157 0.154822 0.463 1.09734e-38
0.207529 0.153485 0.459 1.0789e-38
0.211061 0.154488 0.462 1.0789e-38
0.213237 0.154488 0.462 1.0789e-38
0.215879 0.154822 0.463 1.0789e-38
0.219002 0.155491 0.465 1.06968e-38
0.219765 0.154488 0.462 1.07883e-38
0.222421 0.154822 0.463 1.07883e-38
0.225572 0.155491 0.465 1.08794e-38
0.229231 0.156494 0.468 1.07876e-38
0.231435 0.156494 0.468 1.05128e-38
0.233639 0.156494 0.468 1.03295e-38
0.235844 0.156494 0.468 2.35099e-38
0.238048 0.156494 0.468 2.35099e-38
0.240252 0.156494 0.468 2.35099e-38
0.240902 0.155491 0.465 2.35099e-38
0.244137 0.15616 0.467 2.35099e-38
0.245809 0.155826 0.466 2.35099e-38
0.24694 0.155157 0.464 2.35099e-38
0.249662 0.155491 0.465 2.35099e-38
0.253477 0.156494 0.468 2.35099e-38
0.254588 0.155826 0.466 2.35099e-38
0.257334 0.15616 0.467 2.35099e-38
0.258978 0.155826 0.466 2.35099e-38
0.261733 0.15616 0.467 2.35099e-38
0.266193 0.157498 0.471 2.35099e-38
0.267271 0.156829 0.469 2.35099e-38
0.26948 0.156829 0.469 2.35099e-38
0.271689 0.156829 0.469 2.35099e-38
0.273314 0.156494 0.468 2.35099e-38
0.276107 0.156829 0.469 2.35099e-38
0.277129 0.15616 0.467 2.35099e-38
0.280525 0.156829 0.469 2.35099e-38
0.281528 0.15616 0.467 2.35099e-38
0.284942 0.156829 0.469 2.35099e-38
0.287151 0.156829 0.469 2.35099e-38
0.290594 0.157498 0.471 2.35099e-38
0.292812 0.157498 0.471 2.35099e-38
0.293151 0.156494 0.468 2.35099e-38
0.295987 0.156829 0.469 2.35099e-38
0.298831 0.157163 0.47 2.35099e-38
0.300404 0.156829 0.469 2.35099e-38
0.303904 0.157498 0.471 2.35099e-38
0.307422 0.158166 0.473 2.35099e-38
0.30834 0.157498 0.471 2.35099e-38
0.30924 0.156829 0.469 2.35099e-38
0.313441 0.157832 0.472 2.35099e-38
0.314326 0.157163 0.47 2.35099e-38
0.311825 0.154822 0.463 2.35099e-38
0.316041 0.155826 0.466 2.35099e-38
0.314138 0.153819 0.46 2.35099e-38
0.318367 0.154822 0.463 2.35099e-38
0.320548 0.154822 0.463 2.35099e-38
0.322031 0.154488 0.462 2.35099e-38
0.324207 0.154488 0.462 2.35099e-38
0.325677 0.154154 0.461 2.35099e-38
0.330692 0.155491 0.465 2.35099e-38
0.334314 0.15616 0.467 2.35099e-38
0.33147 0.153819 0.46 2.35099e-38
0.33146 0.152816 0.457 2.35099e-38
0.336533 0.154154 0.461 2.35099e-38
0.340173 0.154822 0.463 2.35099e-38
0.340135 0.153819 0.46 2.35099e-38
0.337837 0.151813 0.454 2.35099e-38
-0.116085 0.0528995 0.156 2.35099e-38
-0.110914 0.0508649 0.15 2.35099e-38
-0.111677 0.0515431 0.152 2.35099e-38
-0.110961 0.0515431 0.152 2.35099e-38
-0.11097 0.0518822 0.153 2.35099e-38
-0.114573 0.0539168 0.159 2.35099e-38
-0.120898 0.0576469 0.17 2.35099e-38
-0.12477 0.0606988 0.179 2.35099e-38
-0.123234 0.0603597 0.178 2.35099e-38
-0.124459 0.061377 0.181 2.35099e-38
-0.127021 0.0630725 0.186 2.35099e-38
-0.126823 0.0634116 0.187 2.35099e-38
-0.125942 0.0634116 0.187 2.35099e-38
-0.126399 0.0640898 0.189 2.35099e-38
-0.136144 0.07155 0.211 1.29103e-38
-0.133869 0.0708718 0.209 1.43865e-38
-0.134792 0.0718891 0.212 5.62322e-39
-0.136318 0.0732455 0.216 1.29103e-38
-0.136553 0.0739237 0.218 5.62322e-39
-0.136148 0.0742628 0.219 1.42006e-38
-0.137585 0.0756191 0.223 8.75823e-39
-0.137759 0.0762974 0.225 1.52159e-38
-0.140345 0.0783319 0.231 1.14337e-38
-0.138654 0.0779928 0.23 1.50322e-38
-0.137571 0.0779928 0.23 1.52162e-38
-0.137081 0.0783319 0.231 1.50322e-38
-0.137759 0.0793492 0.234 1.50322e-38
-0.137825 0.0800274 0.236 1.48471e-38
-0.139031 0.0813838 0.24 1.48471e-38
-0.140773 0.0830793 0.245 1.49393e-38
-0.141329 0.0840966 0.248 1.47549e-38
-0.140726 0.0844357 0.249 1.43861e-38
-0.141235 0.085453 0.252 1.43861e-38
-0.138381 0.0844357 0.249 1.39251e-38
-0.13831 0.0851139 0.251 1.36485e-38
-0.140952 0.0874876 0.258 1.35563e-38
-0.143529 0.0898613 0.265 1.37397e-38
-0.139596 0.0881658 0.26 1.30943e-38
-0.141565 0.0902004 0.266 1.29099e-38
-0.141367 0.0908786 0.268 1.22638e-38
-0.142718 0.0925741 0.273 1.29099e-38
-0.144541 0.0946087 0.279 1.27248e-38
-0.146307 0.0966433 0.285 1.2817e-38
-0.144456 0.0963042 0.284 1.19872e-38
-0.143119 0.0963042 0.284 1.17106e-38
-0.143778 0.0976606 0.288 1.18028e-38
-0.145883 0.100034 0.295 1.15262e-38
-0.146453 0.101391 0.299 1.15262e-38
-0.146015 0.102069 0.301 1.08798e-38
-0.144598 0.102069 0.301 1.06032e-38
-0.147461 0.105121 0.31 1.0972e-38
-0.148356 0.106816 0.315 1.0511e-38
-0.148271 0.107834 0.318 9.95784e-39
-0.147697 0.108512 0.32 9.86565e-39
-0.146646 0.108851 0.321 9.68126e-39
-0.145587 0.10919 0.322 9.68126e-39
-0.147202 0.111564 0.329 9.68126e-39
-0.146538 0.112242 0.331 8.8515e-39
-0.148045 0.114616 0.338 9.31247e-39
-0.14732 0.115294 0.34 8.8515e-39
-0.146576 0.115972 0.342 8.94369e-39
-0.147508 0.118007 0.348 8.94369e-39
-0.147965 0.119702 0.353 8.57491e-39
-0.147546 0.120719 0.356 8.39052e-39
-0.147098 0.121737 0.359 8.20613e-39
-0.147838 0.123771 0.365 8.11393e-39
-0.14732 0.124789 0.368 8.20541e-39
-0.146378 0.125467 0.37 8.02102e-39
-0.147372 0.12784 0.377 8.02102e-39
-0.145982 0.12818 0.378 7.92811e-39
-0.145346 0.129197 0.381 7.56004e-39
-0.144306 0.129875 0.383 7.46785e-39
-0.144734 0.13191 0.389 7.09978e-39
-0.144004 0.132927 0.392 6.91611e-39
-0.142883 0.133605 0.394 6.54733e-39
-0.142459 0.134962 0.398 6.54733e-39
-0.140938 0.135301 0.399 6.54625e-39
-0.139059 0.135301 0.399 6.72993e-39
-0.136148 0.134283 0.396 6.73064e-39
-0.133605 0.133605 0.394 6.91539e-39
-0.130412 0.132249 0.39 8.20576e-39
-0.129564 0.133266 0.393 8.11357e-39
-0.131613 0.137335 0.405 7.28417e-39
-0.132908 0.140726 0.415 6.17783e-39
-0.133162 0.1431 0.422 5.71649e-39
-0.132418 0.144456 0.426 5.62322e-39
-0.130412 0.144456 0.426 5.62034e-39
-0.129008 0.145135 0.428 5.25444e-39
-0.126993 0.145135 0.428 5.53102e-39
-0.124977 0.145135 0.428 5.62322e-39
-0.123823 0.146152 0.431 5.43883e-39
-0.120098 0.144117 0.425 5.43882e-39
-0.118652 0.144795 0.427 5.43882e-39
-0.117187 0.145474 0.429 5.34734e-39
-0.115704 0.146152 0.431 5.34735e-39
-0.113937 0.146491 0.432 5.53174e-39
-0.111903 0.146491 0.432 5.34771e-39
-0.10936 0.145813 0.43 5.71685e-39
-0.107834 0.146491 0.432 5.80904e-39
-0.105309 0.145813 0.43 6.08635e-39
-0.103284 0.145813 0.43 6.36222e-39
-0.10173 0.146491 0.432 6.8232e-39
-0.0994644 0.146152 0.431 7.56076e-39
-0.0969824 0.145474 0.429 8.29761e-39
-0.0958474 0.14683 0.433 8.482e-39
-0.0938081 0.14683 0.433 8.57491e-39
-0.0919807 0.147169 0.434 9.03589e-39
-0.0903511 0.147847 0.436 9.22028e-39
-0.0885002 0.148186 0.437 9.68126e-39
-0.0858486 0.147169 0.434 1.005e-38
-0.0838046 0.147169 0.434 1.03266e-38
-0.0821374 0.147847 0.436 1.04188e-38
-0.0804513 0.148526 0.438 1.0511e-38
-0.0780305 0.147847 0.436 1.06032e-38
-0.0759771 0.147847 0.436 1.06032e-38
-0.0739237 0.147847 0.436 1.06954e-38
-0.0721999 0.148526 0.438 1.06954e-38
-0.0706174 0.149543 0.441 1.06954e-38
-0.0680742 0.148526 0.438 1.06032e-38
-0.0657099 0.147847 0.436 1.06032e-38
-0.0635105 0.147508 0.435 1.06032e-38
-0.0620269 0.148865 0.439 1.06954e-38
-0.0600959 0.149204 0.44 1.06032e-38
-0.057628 0.148186 0.437 1.06032e-38
-0.0554427 0.147847 0.436 1.06032e-38
-0.0532669 0.147508 0.435 1.07876e-38
-0.0511004 0.147169 0.434 1.07876e-38
-0.0493955 0.148186 0.437 1.07876e-38
-0.047554 0.148865 0.439 1.08791e-38
-0.0453828 0.148526 0.438 1.09713e-38
-0.043221 0.148186 0.437 1.09713e-38
-0.0410687 0.147847 0.436 1.10635e-38
-0.0392837 0.148865 0.439 1.10635e-38
-0.0373857 0.149543 0.441 1.10635e-38
-0.0352287 0.149204 0.44 1.08798e-38
-0.0332317 0.149543 0.441 1.08798e-38
-0.0308722 0.148186 0.437 1.07876e-38
-0.02888 0.148526 0.438 1.08798e-38
-0.0270008 0.149543 0.441 1.08798e-38
-0.0253194 0.151917 0.448 1.0972e-38
-0.0234167 0.153273 0.452 1.0972e-38
-0.021335 0.153612 0.453 1.06954e-38
-0.0167854 0.134283 0.396 1.04188e-38
-0.0130365 0.117328 0.346 9.221e-39
-0.0110443 0.113598 0.335 9.77345e-39
-0.00904265 0.108512 0.32 4.52052e-39
-0.0073707 0.106138 0.313 4.52018e-39
-0.00587772 0.105799 0.312 2.87291e-39
-0.00439416 0.10546 0.311 3.14733e-39
-0.00292944 0.10546 0.311 2.78252e-39
-0.00145059 0.104443 0.308 2.78432e-39
0 0.104103 0.307 3.06091e-39
0.00144117 0.103764 0.306 3.42897e-39
0.00289176 0.104103 0.307 3.42896e-39
0.00446481 0.107155 0.316 3.42896e-39
0.00597192 0.107494 0.317 3.52151e-39
0.00748844 0.107834 0.318 3.52151e-39
0.00881658 0.105799 0.312 3.15381e-39
0.0101871 0.104782 0.309 3.15381e-39
0.0116801 0.105121 0.31 3.43147e-39
0.0130553 0.104443 0.308 3.52547e-39
0.0142704 0.102747 0.303 3.89282e-39
0.0156457 0.102408 0.302 4.07756e-39
0.0170115 0.102069 0.301 4.0772e-39
0.0182454 0.101052 0.298 4.35379e-39
