VERSION .7
FIELDS x y z rgb
SIZE 4 4 4 4
TYPE F F F F
COUNT 1 1 1 1
WIDTH 1246
HEIGHT 1
VIEWPOINT 0 0 0 1 0 0 0
POINTS 1246
DATA ascii
0.215253 -0.0463907 0.394 2.35099e-38
0.212149 -0.045331 0.385 2.35099e-38
0.210072 -0.0445068 0.378 2.35099e-38
0.210731 -0.0442713 0.376 2.35099e-38
0.207416 -0.0432116 0.367 2.35099e-38
0.209144 -0.0432116 0.367 2.35099e-38
0.210873 -0.0432116 0.367 2.35099e-38
0.212022 -0.0430939 0.366 2.35099e-38
0.206738 -0.041681 0.354 2.35099e-38
0.204873 -0.0409745 0.348 2.35099e-38
0.205918 -0.0408568 0.347 2.35099e-38
0.20516 -0.0403858 0.343 2.35099e-38
0.206775 -0.0403858 0.343 2.35099e-38
0.204745 -0.0396793 0.337 2.35099e-38
0.203883 -0.0392084 0.333 2.35099e-38
0.201133 -0.0383842 0.326 2.35099e-38
0.200803 -0.0380309 0.323 2.35099e-38
0.199819 -0.03756 0.319 2.35099e-38
0.198797 -0.037089 0.315 2.35099e-38
0.199645 -0.0369712 0.314 2.35099e-38
0.201124 -0.0369712 0.314 2.35099e-38
0.201957 -0.0368535 0.313 2.35099e-38
0.202131 -0.036618 0.311 2.35099e-38
0.202287 -0.0363825 0.309 2.35099e-38
0.200445 -0.0357938 0.304 2.35099e-38
0.201877 -0.0357938 0.304 2.35099e-38
0.201971 -0.0355583 0.302 2.35099e-38
0.2007 -0.0350874 0.298 2.35099e-38
0.200747 -0.0348519 0.296 2.35099e-38
0.200775 -0.0346164 0.294 2.35099e-38
0.200784 -0.0343809 0.292 2.35099e-38
0.198006 -0.0336744 0.286 2.35099e-38
0.193776 -0.0327325 0.278 2.35099e-38
0.197191 -0.0330857 0.281 2.35099e-38
0.197808 -0.032968 0.28 2.35099e-38
0.199838 -0.0330857 0.281 2.35099e-38
0.198298 -0.0326148 0.277 2.35099e-38
0.192396 -0.0314373 0.267 2.35099e-38
0.19583 -0.0317906 0.27 2.35099e-38
0.196371 -0.0316728 0.269 2.35099e-38
0.196904 -0.0315551 0.268 2.35099e-38
0.194469 -0.0309664 0.263 2.35099e-38
0.197196 -0.0312018 0.265 2.35099e-38
-0.182718 -0.0275801 0.244 2.35099e-38
-0.18529 -0.0281452 0.249 2.35099e-38
-0.187075 -0.0285974 0.253 2.35099e-38
-0.188087 -0.0289365 0.256 2.35099e-38
-0.191991 -0.0297277 0.263 2.35099e-38
-0.192203 -0.0299538 0.265 2.35099e-38
-0.195279 -0.030632 0.271 2.35099e-38
-0.19615 -0.0309711 0.274 2.35099e-38
-0.195571 -0.0310841 0.275 2.35099e-38
-0.192156 -0.030745 0.272 2.35099e-38
-0.191577 -0.030858 0.273 2.35099e-38
-0.194473 -0.0315362 0.279 2.35099e-38
-0.196621 -0.0321014 0.284 2.35099e-38
-0.197346 -0.0324405 0.287 2.35099e-38
-0.200092 -0.0331187 0.293 2.35099e-38
-0.202781 -0.0337969 0.299 2.35099e-38
-0.201373 -0.0337969 0.299 2.35099e-38
-0.203309 -0.0343621 0.304 2.35099e-38
-0.203205 -0.0345881 0.306 2.35099e-38
-0.201764 -0.0345881 0.306 2.35099e-38
-0.202942 -0.0350403 0.31 2.35099e-38
-0.204081 -0.0354924 0.314 2.35099e-38
-0.203893 -0.0357185 0.316 2.35099e-38
-0.203686 -0.0359445 0.318 2.35099e-38
-0.204731 -0.0363967 0.322 2.35099e-38
-0.202584 -0.0362836 0.321 2.35099e-38
-0.206083 -0.0371879 0.329 2.35099e-38
-0.20702 -0.03764 0.333 2.35099e-38
-0.204218 -0.037414 0.331 1.04199e-38
-0.203271 -0.037527 0.332 1.05121e-38
-0.204138 -0.0379791 0.336 1.04199e-38
-0.204364 -0.0383182 0.339 1.06043e-38
-0.206356 -0.0389964 0.345 1.06043e-38
-0.204731 -0.0389964 0.345 1.06043e-38
-0.203695 -0.0391095 0.346 1.06054e-38
-0.204402 -0.0395616 0.35 1.06054e-38
-0.203912 -0.0397877 0.352 1.05132e-38
-0.207425 -0.040805 0.361 1.0421e-38
-0.206865 -0.041031 0.363 1.03281e-38
-0.206285 -0.0412571 0.365 9.77488e-39
-0.204006 -0.0411441 0.364 9.77381e-39
-0.203959 -0.0414831 0.367 9.68161e-39
-0.203332 -0.0417092 0.369 9.40502e-39
-0.204326 -0.0422744 0.374 8.94405e-39
-0.205814 -0.0429526 0.38 8.85185e-39
-0.205635 -0.0432917 0.383 8.85185e-39
-0.205428 -0.0436308 0.386 8.94405e-39
-0.205193 -0.0439699 0.389 8.7593e-39
-0.203883 -0.0440829 0.39 8.7593e-39
-0.206191 -0.0449872 0.398 8.7593e-39
-0.203803 -0.0448741 0.397 8.6671e-39
-0.205494 -0.0456654 0.404 8.57491e-39
-0.204599 -0.0458914 0.406 8.57491e-39
-0.204185 -0.0462305 0.409 8.6671e-39
-0.203742 -0.0465696 0.412 8.57491e-39
-0.203271 -0.0469087 0.415 8.48271e-39
-0.202772 -0.0472478 0.418 8.29832e-39
-0.203686 -0.047926 0.424 8.20612e-39
-0.203116 -0.0482651 0.427 8.20612e-39
-0.202518 -0.0486042 0.43 8.11393e-39
-0.202358 -0.0490564 0.434 8.02174e-39
-0.201698 -0.0493955 0.437 8.02174e-39
-0.201011 -0.0497346 0.44 7.92954e-39
-0.201651 -0.0504128 0.446 7.92954e-39
-0.20134 -0.0508649 0.45 7.92954e-39
-0.199664 -0.0509779 0.451 7.92954e-39
-0.199291 -0.0514301 0.455 7.83734e-39
-0.199748 -0.0521083 0.461 7.74443e-39
-0.198863 -0.0524474 0.464 7.83663e-39
-0.198797 -0.0530125 0.469 7.74443e-39
-0.198265 -0.0534647 0.473 7.65224e-39
-0.197695 -0.0539168 0.477 7.74371e-39
-0.197087 -0.0543689 0.481 7.46964e-39
-0.196847 -0.0549341 0.486 7.10086e-39
-0.195759 -0.0552732 0.489 6.91646e-39
-0.194643 -0.0556123 0.492 7.00866e-39
-0.193499 -0.0559514 0.495 6.91646e-39
-0.193098 -0.0565166 0.5 6.91646e-39
-0.191888 -0.0568557 0.503 6.91646e-39
-0.189896 -0.0569687 0.504 6.54768e-39
-0.18901 -0.0574208 0.508 6.63988e-39
-0.188087 -0.057873 0.512 6.63988e-39
-0.187126 -0.0583251 0.516 6.73207e-39
-0.18577 -0.0586642 0.519 6.73207e-39
-0.185092 -0.0592294 0.524 6.1789e-39
-0.181578 -0.0588902 0.521 7.00759e-39
-0.179125 -0.0588902 0.521 7.92954e-39
-0.176671 -0.0588902 0.521 8.11393e-39
-0.174217 -0.0588902 0.521 8.20613e-39
-0.171104 -0.0586642 0.519 8.20612e-39
-0.168985 -0.0587772 0.52 7.93062e-39
-0.166856 -0.0588902 0.521 7.93062e-39
-0.164086 -0.0587772 0.52 7.93062e-39
-0.160705 -0.0584381 0.517 8.2994e-39
-0.160719 -0.0593424 0.525 8.39052e-39
-0.157041 -0.0588902 0.521 8.39052e-39
-0.15429 -0.0587772 0.52 8.2994e-39
-0.152717 -0.0591163 0.523 8.39159e-39
-0.150829 -0.0593424 0.525 8.57634e-39
-0.148639 -0.0594554 0.526 8.48486e-39
-0.146161 -0.0594554 0.526 8.48486e-39
-0.143138 -0.0592294 0.524 8.48486e-39
-0.140401 -0.0591163 0.523 8.57598e-39
-0.138466 -0.0593424 0.525 8.57598e-39
-0.135734 -0.0592294 0.524 8.57634e-39
-0.133012 -0.0591163 0.523 8.57634e-39
-0.130299 -0.0590033 0.522 8.57634e-39
-0.12784 -0.0590033 0.522 8.57634e-39
-0.124661 -0.0586642 0.519 8.30119e-39
-0.122688 -0.0588902 0.521 8.39339e-39
-0.120465 -0.0590033 0.522 8.39339e-39
-0.117554 -0.0587772 0.52 8.57778e-39
-0.114884 -0.0586642 0.519 8.57778e-39
-0.112006 -0.0584381 0.517 8.66925e-39
-0.110207 -0.0587772 0.52 8.66925e-39
-0.108173 -0.0590033 0.522 8.66818e-39
-0.105512 -0.0588902 0.521 8.7593e-39
-0.103651 -0.0592294 0.524 8.94369e-39
-0.100411 -0.0587772 0.52 8.85257e-39
-0.0983388 -0.0590033 0.522 8.94584e-39
-0.096064 -0.0591163 0.523 8.66925e-39
-0.0941377 -0.0594554 0.526 8.76144e-39
-0.0911376 -0.0591163 0.523 8.66853e-39
-0.0890136 -0.0593424 0.525 8.66854e-39
-0.0868706 -0.0595684 0.527 9.12916e-39
-0.0839083 -0.0592294 0.524 8.94405e-39
-0.0814404 -0.0592294 0.524 9.12844e-39
-0.0783696 -0.0587772 0.52 8.94477e-39
-0.0763586 -0.0591163 0.523 8.85257e-39
-0.0737541 -0.0590033 0.522 8.85293e-39
-0.0712956 -0.0590033 0.522 8.76145e-39
-0.0693647 -0.0594554 0.526 8.94584e-39
-0.0667602 -0.0593424 0.525 8.94584e-39
-0.06441 -0.0594554 0.526 8.85365e-39
-0.0616972 -0.0592294 0.524 8.76145e-39
-0.0597945 -0.0597945 0.529 8.76145e-39
-0.0568698 -0.0593424 0.525 8.85329e-39
-0.05419 -0.0591163 0.523 8.6689e-39
-0.0519246 -0.0593424 0.525 8.66854e-39
-0.0487926 -0.0585511 0.518 8.66854e-39
-0.0468899 -0.0592294 0.524 8.66854e-39
-0.0446763 -0.0595684 0.527 8.66854e-39
-0.0419541 -0.0592294 0.524 8.57634e-39
-0.0397123 -0.0595684 0.527 8.48414e-39
-0.037089 -0.0593424 0.525 8.6671e-39
-0.0346164 -0.0593424 0.525 8.6671e-39
-0.0320826 -0.0592294 0.524 8.57491e-39
-0.028993 -0.057986 0.513 8.6671e-39
-0.0277167 -0.0604727 0.535 8.6671e-39
-0.025715 -0.0617161 0.546 8.6671e-39
-0.0199645 -0.0532386 0.471 9.94633e-39
-0.0172187 -0.0516561 0.457 1.04952e-38
-0.0149345 -0.051204 0.453 1.07718e-38
-0.0127162 -0.0508649 0.45 1.09608e-38
-0.0101259 -0.0486042 0.43 1.0874e-38
-0.00810071 -0.0486042 0.43 1.0874e-38
-0.00586359 -0.0469087 0.415 1.19811e-38
-0.00394674 -0.0473609 0.419 1.17977e-38
-0.0019875 -0.0477 0.422 1.17073e-38
0 -0.0477 0.422 1.19846e-38
0.00199221 -0.047813 0.423 1.22605e-38
0.00395616 -0.0474739 0.42 7.46853e-39
0.00583533 -0.0466827 0.413 7.65474e-39
0.00768625 -0.0461175 0.408 5.71899e-39
0.00972556 -0.0466827 0.413 7.6558e-39
0.0116142 -0.0464566 0.411 1.06979e-38
0.0132202 -0.0453263 0.401 6.08848e-39
0.0150334 -0.0451002 0.399 8.20898e-39
0.0167006 -0.044535 0.394 7.74834e-39
0.0185563 -0.044535 0.394 1.00532e-38
0.0203601 -0.044422 0.393 1.30921e-38
0.0219284 -0.0438568 0.388 1.28169e-38
0.0241231 -0.044535 0.394 1.28169e-38
0.0251216 -0.0430656 0.381 1.27251e-38
0.0250792 -0.0401268 0.355 1.33722e-38
0.0268265 -0.0402398 0.356 1.38311e-38
0.0286633 -0.0404659 0.358 1.37389e-38
0.0307733 -0.041031 0.363 1.3646e-38
0.0323039 -0.040805 0.361 1.29088e-38
0.0343809 -0.0412571 0.365 1.18021e-38
0.0365945 -0.0418222 0.37 1.06028e-38
0.0380262 -0.0414831 0.367 1.0695e-38
0.0397547 -0.0414831 0.367 1.07894e-38
0.0404659 -0.0404659 0.358 1.09727e-38
0.0385019 -0.0369618 0.327 1.24486e-38
0.0385725 -0.0356054 0.315 1.40159e-38
0.0396746 -0.0352663 0.312 1.47527e-38
0.0416715 -0.0357185 0.316 1.47527e-38
0.0428866 -0.0354924 0.314 1.41988e-38
0.0439416 -0.0351533 0.311 1.40133e-38
0.0452603 -0.0350403 0.31 1.36442e-38
0.0467204 -0.0350403 0.31 1.3552e-38
0.0480249 -0.0349272 0.309 1.30928e-38
0.0489999 -0.0345881 0.306 1.33687e-38
0.0489575 -0.0335708 0.297 1.42892e-38
0.0513735 -0.034249 0.303 1.41059e-38
0.0524521 -0.034023 0.301 1.37357e-38
0.0536907 -0.0339099 0.3 1.38286e-38
0.0551036 -0.0339099 0.3 1.34591e-38
0.0561398 -0.0336839 0.298 1.31828e-38
0.0573502 -0.0335708 0.297 1.3091e-38
0.0583533 -0.0333448 0.295 1.25382e-38
0.0599452 -0.0334578 0.296 1.26307e-38
0.0613393 -0.0334578 0.296 1.26307e-38
0.0618856 -0.0330057 0.292 1.29995e-38
0.0641275 -0.0334578 0.296 1.29073e-38
0.0644147 -0.0328926 0.291 1.38293e-38
0.0651071 -0.0325535 0.288 1.42906e-38
0.0662327 -0.0324405 0.287 1.57664e-38
0.0671134 -0.0322144 0.285 1.65058e-38
0.0679753 -0.0319884 0.283 1.68749e-38
0.0697979 -0.0322144 0.285 1.7611e-38
0.0698921 -0.0316493 0.28 1.98187e-38
0.0722282 -0.0321014 0.284 2.01853e-38
0.0730476 -0.0318753 0.282 1.98083e-38
0.0743758 -0.0318753 0.282 2.02545e-38
0.0754355 -0.0317623 0.281 2.10735e-38
0.0759394 -0.0314232 0.278 2.18082e-38
0.0880858 -0.0358315 0.317 2.09813e-38
0.142497 -0.0560644 0.496 1.89911e-38
0.149505 -0.057873 0.512 1.92677e-38
0.15251 -0.058099 0.514 2.01853e-38
0.154931 -0.058099 0.514 2.10068e-38
0.156433 -0.0577599 0.511 2.09813e-38
0.160083 -0.0582121 0.515 2.10735e-38
0.163455 -0.0585511 0.518 2.22663e-38
0.165575 -0.0584381 0.517 2.20833e-38
0.167035 -0.058099 0.514 1.46357e-38
0.171104 -0.0586642 0.519 8.84033e-39
0.174551 -0.0590033 0.522 7.09799e-39
0.177349 -0.0591163 0.523 6.63737e-39
0.178437 -0.0586642 0.519 6.26967e-39
0.18123 -0.0587772 0.52 5.71937e-39
0.182972 -0.0585511 0.518 6.3615e-39
0.185054 -0.0584381 0.517 6.3615e-39
0.186401 -0.058099 0.514 6.2693e-39
0.189557 -0.0583251 0.516 6.17711e-39
0.193103 -0.0586642 0.519 6.17711e-39
0.194417 -0.0583251 0.516 5.99272e-39
0.19761 -0.0585511 0.518 5.90124e-39
0.199664 -0.0584381 0.517 5.90124e-39
0.202489 -0.0585511 0.518 5.80832e-39
0.207303 -0.0592294 0.524 5.43882e-39
0.210171 -0.0593424 0.525 5.34555e-39
0.211023 -0.0588902 0.521 5.71182e-39
0.213067 -0.0587772 0.52 5.16224e-39
0.214273 -0.0584381 0.517 5.07005e-39
0.21587 -0.0582121 0.515 5.07005e-39
0.217447 -0.057986 0.513 5.07004e-39
0.217721 -0.0574208 0.508 4.97785e-39
0.21838 -0.0569687 0.504 4.97785e-39
0.216374 -0.0558384 0.494 5.25336e-39
0.217372 -0.0554993 0.491 5.25336e-39
0.217447 -0.0549341 0.486 5.16116e-39
0.21838 -0.054595 0.483 5.16116e-39
0.218371 -0.0540298 0.478 5.25336e-39
0.216468 -0.0530125 0.469 5.34555e-39
0.215879 -0.0523343 0.463 5.34556e-39
0.216176 -0.0518822 0.459 5.3452e-39
0.217862 -0.0517692 0.458 5.3452e-39
0.215695 -0.0507519 0.449 5.43775e-39
0.215385 -0.0501867 0.444 5.52958e-39
0.216986 -0.0500737 0.443 5.52994e-39
0.217094 -0.0496215 0.439 5.43775e-39
0.216666 -0.0490564 0.434 5.52994e-39
0.216694 -0.0486042 0.43 5.34663e-39
0.21821 -0.0484912 0.429 5.25443e-39
0.216637 -0.0477 0.422 2.35099e-38
0.216553 -0.0472478 0.418 2.35099e-38
0.217476 -0.0470218 0.416 2.35099e-38
0.21416 -0.0458914 0.406 2.35099e-38
0.21075 -0.0447611 0.396 2.35099e-38
0.212078 -0.0446481 0.395 2.35099e-38
0.212855 -0.044422 0.393 2.35099e-38
0.215253 -0.044535 0.394 2.35099e-38
0.213251 -0.0437438 0.387 2.35099e-38
0.211739 -0.0430656 0.381 2.35099e-38
0.211852 -0.0427265 0.378 2.35099e-38
0.209111 -0.0418222 0.37 2.35099e-38
0.210284 -0.0417092 0.369 2.35099e-38
0.208 -0.040918 0.362 2.35099e-38
0.208546 -0.0406919 0.36 2.35099e-38
0.206738 -0.0400137 0.354 2.35099e-38
0.205461 -0.0394486 0.349 2.35099e-38
0.205918 -0.0392225 0.347 2.35099e-38
0.206356 -0.0389964 0.345 2.35099e-38
0.209789 -0.0393355 0.348 2.35099e-38
0.204745 -0.0380922 0.337 2.35099e-38
0.202659 -0.037414 0.331 2.35099e-38
0.202367 -0.0370749 0.328 2.35099e-38
0.200803 -0.0365097 0.323 2.35099e-38
0.201698 -0.0363967 0.322 2.35099e-38
0.20069 -0.0359445 0.318 2.35099e-38
0.199009 -0.0353794 0.313 2.35099e-38
0.201124 -0.0354924 0.314 2.35099e-38
0.201957 -0.0353794 0.313 2.35099e-38
0.203431 -0.0353794 0.313 2.35099e-38
0.203596 -0.0351533 0.311 2.35099e-38
0.199786 -0.034249 0.303 2.35099e-38
0.201213 -0.034249 0.303 2.35099e-38
0.201303 -0.034023 0.301 2.35099e-38
0.201373 -0.0337969 0.299 2.35099e-38
0.204138 -0.034023 0.301 2.35099e-38
0.201458 -0.0333448 0.295 2.35099e-38
0.199409 -0.0327796 0.29 2.35099e-38
0.198698 -0.0324405 0.287 2.35099e-38
0.19517 -0.0316493 0.28 2.35099e-38
0.199296 -0.0321014 0.284 2.35099e-38
0.199221 -0.0318753 0.282 2.35099e-38
0.199127 -0.0316493 0.28 2.35099e-38
0.196866 -0.0310841 0.275 2.35099e-38
0.195279 -0.030632 0.271 2.35099e-38
0.19728 -0.030745 0.272 2.35099e-38
0.196371 -0.0304059 0.269 2.35099e-38
0.198373 -0.0305189 0.27 2.35099e-38
0.194469 -0.0297277 0.263 2.35099e-38
0.19794 -0.0300668 0.266 2.35099e-38
-0.182718 -0.0264309 0.244 2.35099e-38
-0.18529 -0.0269725 0.249 2.35099e-38
-0.185596 -0.0271892 0.251 2.35099e-38
-0.188822 -0.0278391 0.257 2.35099e-38
-0.192721 -0.0285974 0.264 2.35099e-38
-0.193654 -0.0289223 0.267 2.35099e-38
-0.197441 -0.0296806 0.274 2.35099e-38
-0.196866 -0.0297889 0.275 2.35099e-38
-0.195571 -0.0297889 0.275 2.35099e-38
-0.192863 -0.0295723 0.273 2.35099e-38
-0.194384 -0.0300056 0.277 2.35099e-38
-0.19517 -0.0303305 0.28 2.35099e-38
-0.195929 -0.0306555 0.283 2.35099e-38
-0.196659 -0.0309805 0.286 2.35099e-38
-0.200092 -0.0317388 0.293 2.35099e-38
-0.202781 -0.0323887 0.299 2.35099e-38
-0.20272 -0.0326053 0.301 2.35099e-38
-0.20264 -0.032822 0.303 2.35099e-38
-0.203205 -0.033147 0.306 2.35099e-38
-0.201105 -0.0330386 0.305 2.35099e-38
-0.203596 -0.0336886 0.311 2.35099e-38
-0.204081 -0.0340135 0.314 2.35099e-38
-0.203893 -0.0342302 0.316 2.35099e-38
-0.203686 -0.0344468 0.318 2.35099e-38
-0.20346 -0.0346635 0.32 2.35099e-38
-0.201952 -0.0346635 0.32 2.35099e-38
-0.204204 -0.0353134 0.326 2.35099e-38
-0.204533 -0.0356384 0.329 2.35099e-38
-0.204218 -0.035855 0.331 1.08809e-38
-0.202659 -0.035855 0.331 1.07887e-38
-0.205353 -0.0366133 0.338 1.07887e-38
-0.203761 -0.0366133 0.338 1.07887e-38
-0.203964 -0.0369383 0.341 1.07887e-38
-0.204731 -0.0373716 0.345 1.0789e-38
-0.204284 -0.0375882 0.347 1.0789e-38
-0.20557 -0.0381298 0.352 1.06054e-38
-0.20565 -0.0384548 0.355 1.05132e-38
-0.207425 -0.0391047 0.361 1.05132e-38
-0.206295 -0.0392131 0.362 1.03281e-38
-0.20572 -0.0394297 0.364 9.95927e-39
-0.204566 -0.039538 0.365 9.9582e-39
-0.203959 -0.0397547 0.367 9.77381e-39
-0.20223 -0.0397547 0.367 9.31283e-39
-0.203234 -0.0402963 0.372 9.22063e-39
-0.204731 -0.0409462 0.378 8.94405e-39
-0.204562 -0.0412712 0.381 8.85185e-39
-0.204896 -0.0417045 0.385 8.75966e-39
-0.204665 -0.0420295 0.388 8.7593e-39
-0.204406 -0.0423544 0.391 8.7593e-39
-0.204637 -0.0427877 0.395 8.85149e-39
-0.20483 -0.043221 0.399 8.7593e-39
-0.204986 -0.0436543 0.403 8.6671e-39
-0.204095 -0.043871 0.405 8.6671e-39
-0.203686 -0.0441959 0.408 8.6671e-39
-0.201764 -0.0441959 0.408 8.6671e-39
-0.202781 -0.0448459 0.414 8.57491e-39
-0.201802 -0.0450625 0.416 8.39052e-39
-0.202725 -0.0457125 0.422 8.20612e-39
-0.20264 -0.0461458 0.426 8.11393e-39
-0.20346 -0.0467957 0.432 8.11393e-39
-0.202358 -0.0470124 0.434 7.92954e-39
-0.203083 -0.0476623 0.44 7.92954e-39
-0.200097 -0.0474457 0.438 7.92954e-39
-0.201199 -0.0482039 0.445 7.92954e-39
-0.200445 -0.0485289 0.448 7.92954e-39
-0.200106 -0.0489622 0.452 7.92954e-39
-0.200168 -0.0495038 0.457 7.83663e-39
-0.200615 -0.0501537 0.463 7.83663e-39
-0.200149 -0.050587 0.467 7.65295e-39
-0.198373 -0.0506954 0.468 7.65295e-39
-0.197846 -0.0511286 0.472 7.56075e-39
-0.19728 -0.0515619 0.476 7.46964e-39
-0.197087 -0.0521036 0.481 7.37744e-39
-0.197657 -0.0528618 0.488 7.37744e-39
-0.195359 -0.0528618 0.488 7.10086e-39
-0.193061 -0.0528618 0.488 7.00866e-39
-0.192717 -0.0534034 0.493 7.00866e-39
-0.192712 -0.0540534 0.499 6.82427e-39
-0.191888 -0.0544867 0.503 6.91646e-39
-0.191026 -0.05492 0.507 6.73207e-39
-0.189754 -0.0552449 0.51 6.91646e-39
-0.18772 -0.0553533 0.511 6.63988e-39
-0.186401 -0.0556782 0.514 6.82427e-39
-0.18577 -0.0562198 0.519 6.54768e-39
-0.185092 -0.0567615 0.524 6.0867e-39
-0.181578 -0.0564365 0.521 6.45441e-39
-0.178437 -0.0562198 0.519 7.92954e-39
-0.175993 -0.0562198 0.519 8.20613e-39
-0.174551 -0.0565448 0.522 8.20613e-39
-0.171434 -0.0563282 0.52 8.29832e-39
-0.16736 -0.0557866 0.515 8.11501e-39
-0.165575 -0.0560032 0.517 8.11501e-39
-0.16314 -0.0560032 0.517 8.11501e-39
-0.161016 -0.0561115 0.518 8.2072e-39
-0.158882 -0.0562198 0.519 8.2072e-39
-0.156438 -0.0562198 0.519 8.2994e-39
-0.153697 -0.0561115 0.518 8.39159e-39
-0.152425 -0.0565448 0.522 8.39159e-39
-0.150254 -0.0566531 0.523 8.57634e-39
-0.148073 -0.0567615 0.524 8.48486e-39
-0.145883 -0.0568698 0.525 8.48486e-39
-0.143411 -0.0568698 0.525 8.48486e-39
-0.140133 -0.0565448 0.522 8.57634e-39
-0.138202 -0.0567615 0.524 8.57634e-39
-0.135475 -0.0566531 0.523 8.57598e-39
-0.132503 -0.0564365 0.521 8.85185e-39
-0.130299 -0.0565448 0.522 8.7593e-39
-0.127596 -0.0564365 0.521 8.7593e-39
-0.125382 -0.0565448 0.522 8.48486e-39
-0.123159 -0.0566531 0.523 8.66925e-39
-0.121388 -0.0569781 0.526 8.57706e-39
-0.118007 -0.0565448 0.522 8.57706e-39
-0.114884 -0.0562198 0.519 8.57706e-39
-0.112656 -0.0563282 0.52 8.48486e-39
-0.110207 -0.0563282 0.52 8.57706e-39
-0.108794 -0.0568698 0.525 8.66818e-39
-0.105714 -0.0565448 0.522 8.85149e-39
-0.103256 -0.0565448 0.522 8.94369e-39
-0.100604 -0.0564365 0.521 8.94477e-39
-0.0985272 -0.0566531 0.523 8.85365e-39
-0.096615 -0.0569781 0.526 8.57814e-39
-0.0943167 -0.0570864 0.527 8.48594e-39
-0.0918347 -0.0570864 0.527 8.66925e-39
-0.0890136 -0.0568698 0.525 8.85365e-39
-0.0868706 -0.0570864 0.527 9.03804e-39
-0.0839083 -0.0567615 0.524 9.03624e-39
-0.0811295 -0.0565448 0.522 9.12844e-39
-0.0782189 -0.0562198 0.519 8.94512e-39
-0.0757746 -0.0562198 0.519 8.94512e-39
-0.0734715 -0.0563282 0.52 8.85257e-39
-0.0708859 -0.0562198 0.519 8.76109e-39
-0.0691009 -0.0567615 0.524 8.76109e-39
-0.06587 -0.0561115 0.518 8.94512e-39
-0.0641651 -0.0567615 0.524 8.94512e-39
-0.0614618 -0.0565448 0.522 8.94477e-39
-0.0593424 -0.0568698 0.525 8.85257e-39
-0.0569781 -0.0569781 0.526 8.94477e-39
-0.0542936 -0.0567615 0.524 8.85258e-39
-0.0520235 -0.0569781 0.526 8.76038e-39
-0.0490752 -0.0564365 0.521 8.66818e-39
-0.0468899 -0.0567615 0.524 8.57598e-39
-0.0446763 -0.0570864 0.527 8.66818e-39
-0.0422744 -0.0571948 0.528 8.66818e-39
-0.0397877 -0.0571948 0.528 8.57598e-39
-0.0373009 -0.0571948 0.528 8.6671e-39
-0.0348142 -0.0571948 0.528 8.6671e-39
-0.0320826 -0.0567615 0.524 8.6671e-39
-0.0292756 -0.0561115 0.518 8.6671e-39
-0.027613 -0.0577364 0.533 8.6671e-39
-0.0248673 -0.0571948 0.528 8.57491e-39
-0.0204307 -0.0522119 0.482 8.84646e-39
-0.0171434 -0.0492871 0.455 1.05885e-38
-0.0146048 -0.0479873 0.443 1.14218e-38
-0.0122641 -0.0470124 0.434 1.10562e-38
-0.0100552 -0.0462541 0.427 1.17956e-38
-0.00789348 -0.0453875 0.419 1.19807e-38
-0.00586359 -0.0449542 0.415 1.21665e-38
-0.00391848 -0.0450625 0.416 1.24438e-38
-0.00199221 -0.0458208 0.423 1.2536e-38
0 -0.0461458 0.426 1.2536e-38
0.00198279 -0.0456042 0.421 1.21687e-38
0.00390906 -0.0449542 0.415 7.56035e-39
0.00590598 -0.0452792 0.418 5.90372e-39
0.00766741 -0.0440876 0.407 7.01224e-39
0.00960781 -0.0441959 0.408 5.07649e-39
0.0112468 -0.0431127 0.398 1.00518e-38
0.0130553 -0.0428961 0.396 9.59044e-39
0.0149957 -0.0431127 0.398 1.33683e-38
0.016743 -0.0427877 0.395 1.3552e-38
0.0186976 -0.0430044 0.397 1.30899e-38
0.0207227 -0.0433294 0.4 1.29055e-38
0.0224371 -0.0430044 0.397 1.29073e-38
0.0244905 -0.0433294 0.4 1.29073e-38
0.0261766 -0.0430044 0.397 1.24474e-38
0.0254324 -0.0389964 0.36 1.02362e-38
0.0269019 -0.0386715 0.357 1.11574e-38
0.0287434 -0.0388881 0.359 1.12493e-38
0.030858 -0.0394297 0.364 1.13415e-38
0.0325724 -0.0394297 0.364 1.125e-38
0.0345693 -0.0397547 0.367 1.10663e-38
0.037089 -0.0406213 0.375 1.12514e-38
0.0386479 -0.0404046 0.373 1.17121e-38
0.0402963 -0.0402963 0.372 1.18043e-38
0.0395616 -0.0379132 0.35 1.1617e-38
0.0380309 -0.0349885 0.323 1.26322e-38
0.0384501 -0.0340135 0.314 1.38333e-38
0.0396746 -0.0337969 0.312 1.45701e-38
0.0411441 -0.0337969 0.312 1.44768e-38
0.0428866 -0.0340135 0.314 1.43846e-38
0.0439416 -0.0336886 0.311 1.41066e-38
0.0456983 -0.0339052 0.313 1.4291e-38
0.0464189 -0.0333636 0.308 1.31872e-38
0.0478695 -0.0333636 0.308 1.31872e-38
0.0483593 -0.0327137 0.302 1.40155e-38
0.0486278 -0.0319554 0.295 1.43839e-38
0.051204 -0.0327137 0.302 1.43839e-38
0.0519293 -0.0322804 0.298 1.4107e-38
0.0527959 -0.0319554 0.295 1.41052e-38
0.0543689 -0.0320637 0.296 1.32751e-38
0.0555746 -0.0319554 0.295 1.34595e-38
0.056964 -0.0319554 0.295 1.32751e-38
0.0575621 -0.0315221 0.291 1.29985e-38
0.0597427 -0.0319554 0.295 1.29985e-38
0.0611321 -0.0319554 0.295 1.27226e-38
0.0612498 -0.0313055 0.289 1.263e-38
0.0632609 -0.0316304 0.292 1.27222e-38
0.0641934 -0.0314138 0.29 1.28137e-38
0.0644289 -0.0308722 0.285 1.2078e-38
0.0660019 -0.0309805 0.286 1.2078e-38
0.0668779 -0.0307638 0.284 1.4098e-38
0.0677351 -0.0305472 0.282 1.30889e-38
0.0693081 -0.0306555 0.283 1.33604e-38
0.0701418 -0.0304389 0.281 1.47297e-38
0.0717195 -0.0305472 0.282 1.79533e-38
0.0727886 -0.0304389 0.281 1.88759e-38
0.0735846 -0.0302222 0.279 2.0798e-38
0.0746301 -0.0301139 0.278 2.22666e-38
0.0762126 -0.0302222 0.279 2.20844e-38
0.129423 -0.0496121 0.458 1.4098e-38
0.143934 -0.05427 0.501 1.33604e-38
0.149213 -0.0553533 0.511 1.56516e-38
0.152807 -0.0557866 0.515 1.89681e-38
0.155232 -0.0557866 0.515 2.01609e-38
0.157352 -0.0556782 0.514 2.0798e-38
0.160394 -0.0558949 0.516 2.20837e-38
0.16314 -0.0560032 0.517 2.22674e-38
0.165895 -0.0561115 0.518 2.20844e-38
0.16801 -0.0560032 0.517 2.19922e-38
0.170774 -0.0561115 0.518 8.3808e-39
0.174217 -0.0564365 0.521 6.54698e-39
0.175993 -0.0562198 0.519 6.72848e-39
0.178437 -0.0562198 0.519 6.26931e-39
0.180881 -0.0562198 0.519 5.99416e-39
0.182619 -0.0560032 0.517 6.2693e-39
0.185412 -0.0561115 0.518 6.2693e-39
0.187126 -0.0558949 0.516 6.3615e-39
0.190659 -0.0562198 0.519 6.2693e-39
0.193847 -0.0564365 0.521 6.17711e-39
0.195547 -0.0562198 0.519 5.99272e-39
0.197992 -0.0562198 0.519 5.71685e-39
0.20005 -0.0561115 0.518 5.90124e-39
0.201708 -0.0558949 0.516 5.71613e-39
0.20572 -0.0563282 0.52 5.53102e-39
0.210972 -0.0570864 0.527 5.34663e-39
0.212644 -0.0568698 0.525 5.52815e-39
0.212658 -0.0562198 0.519 5.16116e-39
0.214273 -0.0560032 0.517 5.25336e-39
0.21587 -0.0557866 0.515 5.16224e-39
0.218295 -0.0557866 0.515 5.25443e-39
0.219435 -0.0554616 0.512 5.07076e-39
0.220113 -0.0550283 0.508 5.07076e-39
0.21725 -0.0537284 0.496 5.16116e-39
0.218258 -0.0534034 0.493 5.16116e-39
0.217447 -0.0526452 0.486 5.06897e-39
0.21838 -0.0523202 0.483 5.16116e-39
0.218371 -0.0517786 0.478 5.43775e-39
0.218314 -0.051237 0.473 5.34591e-39
0.21821 -0.0506954 0.468 5.34555e-39
0.217118 -0.0499371 0.461 5.43775e-39
0.216435 -0.0492871 0.455 5.43775e-39
0.215695 -0.0486372 0.449 5.52995e-39
0.216355 -0.0483122 0.446 5.34519e-39
0.216986 -0.0479873 0.443 5.43775e-39
0.216105 -0.0473373 0.437 5.62214e-39
0.214169 -0.0464707 0.429 5.34663e-39
0.215182 -0.0462541 0.427 5.43883e-39
0.215667 -0.0459291 0.424 2.35099e-38
0.215097 -0.0453875 0.419 2.35099e-38
0.216035 -0.0451709 0.417 2.35099e-38
0.214862 -0.0445209 0.411 2.35099e-38
0.214688 -0.0440876 0.407 2.35099e-38
0.211282 -0.0430044 0.397 2.35099e-38
0.213152 -0.0430044 0.397 2.35099e-38
0.213397 -0.0426794 0.394 2.35099e-38
0.213614 -0.0423544 0.391 2.35099e-38
0.2127 -0.0418128 0.386 2.35099e-38
0.212851 -0.0414879 0.383 2.35099e-38
0.212973 -0.0411629 0.38 2.35099e-38
0.209111 -0.0400797 0.37 2.35099e-38
0.211424 -0.040188 0.371 2.35099e-38
0.206851 -0.0389964 0.36 2.35099e-38
0.206229 -0.0385631 0.356 2.35099e-38
0.20557 -0.0381298 0.352 2.35099e-38
0.205461 -0.0378049 0.349 2.35099e-38
0.205918 -0.0375882 0.347 2.35099e-38
0.20516 -0.0371549 0.343 2.35099e-38
0.204967 -0.03683 0.34 2.35099e-38
0.202923 -0.03618 0.334 2.35099e-38
0.203271 -0.0359634 0.332 2.35099e-38
0.202367 -0.0355301 0.328 2.35099e-38
0.200803 -0.0349885 0.323 2.35099e-38
0.201698 -0.0348801 0.322 2.35099e-38
0.199428 -0.0342302 0.316 2.35099e-38
0.200281 -0.0341219 0.315 2.35099e-38
0.201124 -0.0340135 0.314 2.35099e-38
0.201957 -0.0339052 0.313 2.35099e-38
0.202131 -0.0336886 0.311 2.35099e-38
0.202287 -0.0334719 0.309 2.35099e-38
0.199786 -0.032822 0.303 2.35099e-38
0.201877 -0.0329303 0.304 2.35099e-38
0.200634 -0.032497 0.3 2.35099e-38
0.20272 -0.0326053 0.301 2.35099e-38
0.202103 -0.0322804 0.298 2.35099e-38
0.202141 -0.0320637 0.296 2.35099e-38
0.201472 -0.0317388 0.293 2.35099e-38
0.202852 -0.0317388 0.293 2.35099e-38
0.197262 -0.0306555 0.283 2.35099e-38
0.198594 -0.0306555 0.283 2.35099e-38
0.200634 -0.0307638 0.284 2.35099e-38
0.197704 -0.0301139 0.278 2.35099e-38
0.19615 -0.0296806 0.274 2.35099e-38
0.193838 -0.029139 0.269 2.35099e-38
0.196555 -0.0293556 0.271 2.35099e-38
0.196371 -0.029139 0.269 2.35099e-38
0.201312 -0.0296806 0.274 2.35099e-38
0.195208 -0.0285974 0.264 2.35099e-38
0.199428 -0.0290307 0.268 2.35099e-38
-0.183467 -0.0253854 0.245 2.35099e-38
-0.186034 -0.0259034 0.25 2.35099e-38
-0.187075 -0.0262143 0.253 2.35099e-38
-0.189557 -0.0267323 0.258 2.35099e-38
-0.193451 -0.0274576 0.265 2.35099e-38
-0.195105 -0.0278721 0.269 2.35099e-38
-0.197441 -0.0283902 0.274 2.35099e-38
-0.199014 -0.0288046 0.278 2.35099e-38
-0.19486 -0.0283902 0.274 2.35099e-38
-0.192156 -0.0281829 0.272 2.35099e-38
-0.18877 -0.0278721 0.269 2.35099e-38
-0.193079 -0.028701 0.277 2.35099e-38
-0.195929 -0.0293227 0.283 2.35099e-38
-0.197346 -0.0297371 0.287 2.35099e-38
-0.201458 -0.030566 0.295 2.35099e-38
-0.20346 -0.0310841 0.3 2.35099e-38
-0.20272 -0.0311877 0.301 2.35099e-38
-0.203309 -0.0314986 0.304 2.35099e-38
-0.203205 -0.0317058 0.306 2.35099e-38
-0.201105 -0.0316022 0.305 2.35099e-38
-0.204251 -0.0323275 0.312 2.35099e-38
-0.203431 -0.0324311 0.313 2.35099e-38
-0.203248 -0.0326383 0.315 2.35099e-38
-0.202405 -0.0327419 0.316 2.35099e-38
-0.204731 -0.0333636 0.322 2.35099e-38
-0.201952 -0.0331564 0.32 2.35099e-38
-0.203577 -0.0336744 0.325 2.35099e-38
-0.205777 -0.0342961 0.331 2.35099e-38
-0.206069 -0.034607 0.334 2.35099e-38
-0.203271 -0.0343997 0.332 1.06965e-38
-0.204745 -0.0349178 0.337 1.06965e-38
-0.204364 -0.035125 0.339 1.06043e-38
-0.204562 -0.0354359 0.342 1.06046e-38
-0.205325 -0.0358503 0.346 1.06046e-38
-0.204284 -0.0359539 0.347 1.05128e-38
-0.204986 -0.0363684 0.351 1.05128e-38
-0.20565 -0.0367829 0.355 1.0605e-38
-0.205701 -0.0370937 0.358 1.04199e-38
-0.205725 -0.0374045 0.361 1.05121e-38
-0.205155 -0.0376118 0.363 1.04199e-38
-0.205687 -0.0380262 0.367 1.04199e-38
-0.203403 -0.0379226 0.366 1.00504e-38
-0.202781 -0.0381298 0.368 9.49722e-39
-0.202687 -0.0384407 0.371 9.22063e-39
-0.20419 -0.0390624 0.377 9.12844e-39
-0.204025 -0.0393732 0.38 8.75966e-39
-0.203832 -0.039684 0.383 8.85185e-39
-0.204138 -0.0400985 0.387 8.85149e-39
-0.204929 -0.0406166 0.392 8.7593e-39
-0.203601 -0.0407202 0.393 8.85149e-39
-0.20329 -0.041031 0.396 8.7593e-39
-0.204477 -0.0416527 0.402 8.7593e-39
-0.203088 -0.0417563 0.403 8.7593e-39
-0.203686 -0.0422744 0.408 8.6671e-39
-0.202259 -0.042378 0.409 8.7593e-39
-0.202292 -0.0427925 0.413 8.7593e-39
-0.203742 -0.0435177 0.42 8.6671e-39
-0.203686 -0.0439322 0.424 8.39052e-39
-0.205019 -0.0446575 0.431 8.29832e-39
-0.20346 -0.0447611 0.432 8.02174e-39
-0.202358 -0.0449683 0.434 8.02174e-39
-0.20216 -0.0453828 0.438 7.92954e-39
-0.201924 -0.0457973 0.442 8.02174e-39
-0.201651 -0.0462117 0.446 7.92954e-39
-0.200893 -0.0465225 0.449 7.92954e-39
-0.201877 -0.0472478 0.456 7.92954e-39
-0.200606 -0.0474551 0.458 7.83663e-39
-0.201482 -0.0481804 0.465 7.74443e-39
-0.19972 -0.048284 0.466 7.83734e-39
-0.198797 -0.0485948 0.469 7.37744e-39
-0.197846 -0.0489057 0.472 7.37744e-39
-0.197695 -0.0494237 0.477 7.37816e-39
-0.197497 -0.0499418 0.482 7.28525e-39
-0.196847 -0.0503563 0.486 7.37744e-39
-0.195359 -0.0505635 0.488 7.28525e-39
-0.193852 -0.0507707 0.49 7.10086e-39
-0.192717 -0.0510815 0.493 6.82427e-39
-0.192712 -0.0517032 0.499 6.73207e-39
-0.191506 -0.0520141 0.502 6.73279e-39
-0.191026 -0.0525321 0.507 6.45621e-39
-0.189382 -0.0527394 0.509 6.91574e-39
-0.187352 -0.052843 0.51 7.10013e-39
-0.186038 -0.0531538 0.513 6.63915e-39
-0.18577 -0.0537755 0.519 6.73099e-39
-0.184385 -0.0540863 0.522 6.26895e-39
-0.180881 -0.0537755 0.519 6.54589e-39
-0.178437 -0.0537755 0.519 7.83663e-39
-0.176332 -0.0538791 0.52 8.20613e-39
-0.173883 -0.0538791 0.52 8.11393e-39
-0.171104 -0.0537755 0.519 8.29832e-39
-0.168985 -0.0538791 0.52 8.02281e-39
-0.166856 -0.0539827 0.521 8.11501e-39
-0.163771 -0.0537755 0.519 8.20756e-39
-0.161948 -0.0539827 0.521 8.20756e-39
-0.160107 -0.05419 0.523 8.29975e-39
-0.157041 -0.0539827 0.521 8.39195e-39
-0.154884 -0.0540863 0.522 8.57491e-39
-0.152133 -0.0539827 0.521 8.6671e-39
-0.149967 -0.0540863 0.522 8.66746e-39
-0.148073 -0.0542936 0.524 8.66746e-39
-0.145328 -0.05419 0.523 8.66746e-39
-0.143138 -0.0542936 0.524 8.66745e-39
-0.140133 -0.0540863 0.522 8.85185e-39
-0.138202 -0.0542936 0.524 8.57598e-39
-0.135734 -0.0542936 0.524 8.48379e-39
-0.132757 -0.0540863 0.522 8.5767e-39
-0.130049 -0.0539827 0.521 8.39339e-39
-0.12784 -0.0540863 0.522 8.48559e-39
-0.124902 -0.0538791 0.52 8.76038e-39
-0.123394 -0.0542936 0.524 8.76038e-39
-0.120696 -0.05419 0.523 8.85257e-39
-0.11778 -0.0539827 0.521 8.66818e-39
-0.115105 -0.0538791 0.52 8.66818e-39
-0.11244 -0.0537755 0.519 8.66818e-39
-0.109995 -0.0537755 0.519 8.76038e-39
-0.108587 -0.0542936 0.524 8.76038e-39
-0.105917 -0.05419 0.523 8.94477e-39
-0.104047 -0.0545008 0.526 8.66818e-39
-0.100797 -0.0540863 0.522 8.85293e-39
-0.098904 -0.0543972 0.525 8.94512e-39
-0.096615 -0.0545008 0.526 8.85364e-39
-0.0937798 -0.0542936 0.524 8.76145e-39
-0.0913119 -0.0542936 0.524 8.66925e-39
-0.0879963 -0.0537755 0.519 8.66925e-39
-0.0858816 -0.0539827 0.521 8.76145e-39
-0.0843886 -0.0546044 0.527 8.66925e-39
-0.0812849 -0.05419 0.523 8.94369e-39
-0.078671 -0.0540863 0.522 9.12808e-39
-0.0766506 -0.0543972 0.525 9.12808e-39
-0.0738954 -0.05419 0.523 9.12808e-39
-0.0710225 -0.0538791 0.52 9.12808e-39
-0.068969 -0.05419 0.523 9.12808e-39
-0.0661244 -0.0538791 0.52 8.76038e-39
-0.0639202 -0.0540863 0.522 8.76038e-39
-0.0614618 -0.0540863 0.522 8.76038e-39
-0.0593424 -0.0543972 0.525 8.94477e-39
-0.0567615 -0.0542936 0.524 8.94477e-39
-0.0555369 -0.0555369 0.536 9.03696e-39
-0.052518 -0.0550189 0.531 8.76073e-39
-0.0492636 -0.05419 0.523 8.57634e-39
-0.0471584 -0.0546044 0.527 8.57634e-39
-0.044422 -0.0542936 0.524 8.66854e-39
-0.041794 -0.0540863 0.522 8.57634e-39
-0.0396369 -0.0545008 0.526 8.57634e-39
-0.0373716 -0.0548116 0.529 8.85113e-39
-0.0346164 -0.0543972 0.525 8.75966e-39
-0.0320826 -0.0542936 0.524 8.75966e-39
-0.0292756 -0.0536719 0.518 8.57526e-39
-0.0274576 -0.0549153 0.53 8.48414e-39
-0.0250557 -0.0551225 0.532 8.66746e-39
-0.0198797 -0.0485948 0.469 9.94739e-39
-0.016955 -0.0466262 0.45 1.07714e-38
-0.0145059 -0.04559 0.44 1.11459e-38
-0.0122358 -0.0448647 0.433 1.04145e-38
-0.0101259 -0.0445539 0.43 1.1152e-38
-0.00793116 -0.0436214 0.421 1.17055e-38
-0.00593424 -0.0435177 0.42 1.18899e-38
-0.00389022 -0.0427925 0.413 1.27208e-38
-0.00199221 -0.0438286 0.423 1.26286e-38
0 -0.0443467 0.428 1.27208e-38
0.00196395 -0.0432069 0.417 1.06979e-38
0.0038808 -0.0426888 0.412 6.45869e-39
0.00582121 -0.0426888 0.412 6.45869e-39
0.00749786 -0.0412382 0.398 8.2068e-39
0.00944297 -0.0415491 0.401 8.94328e-39
0.0112185 -0.0411346 0.397 1.26293e-38
0.0131213 -0.0412382 0.398 1.28137e-38
0.014958 -0.0411346 0.397 1.30913e-38
0.0167006 -0.0408238 0.394 1.29984e-38
0.0186505 -0.041031 0.396 1.31824e-38
0.0208782 -0.0417563 0.403 1.33668e-38
0.0223806 -0.041031 0.396 1.28144e-38
0.0244293 -0.0413419 0.399 1.22609e-38
0.0265722 -0.0417563 0.403 1.06936e-38
0.0255031 -0.0374045 0.361 1.1895e-38
0.0269019 -0.0369901 0.357 1.1895e-38
0.0289836 -0.0375082 0.362 1.22638e-38
0.0311124 -0.0380262 0.367 1.21716e-38
0.0329303 -0.0381298 0.368 1.20794e-38
0.0347577 -0.0382335 0.369 1.21727e-38
0.0371879 -0.0389587 0.376 1.21727e-38
0.0381298 -0.0381298 0.368 1.20805e-38
0.0394297 -0.0377154 0.364 1.2079e-38
0.0380922 -0.0349178 0.337 1.15266e-38
0.037089 -0.0326383 0.315 1.31872e-38
0.0380827 -0.0322239 0.311 1.34656e-38
0.0395475 -0.0322239 0.311 1.39265e-38
0.0411441 -0.0323275 0.312 1.39251e-38
0.0424769 -0.0322239 0.311 1.37404e-38
0.0439416 -0.0322239 0.311 1.37393e-38
0.0449683 -0.031913 0.308 1.37382e-38
0.0458161 -0.0314986 0.304 1.34616e-38
0.0477141 -0.0318094 0.307 1.34616e-38
0.0486796 -0.0314986 0.304 1.41073e-38
0.0489575 -0.0307733 0.297 1.44761e-38
0.0510345 -0.0311877 0.301 1.41999e-38
0.0522778 -0.0310841 0.3 1.39226e-38
0.0529748 -0.0306697 0.296 1.4107e-38
0.0551036 -0.0310841 0.3 1.4107e-38
0.0563282 -0.0309805 0.299 1.39222e-38
0.056964 -0.030566 0.295 1.383e-38
0.0577599 -0.0302552 0.292 1.36456e-38
0.0593377 -0.0303588 0.293 1.3829e-38
0.0603032 -0.0301516 0.291 1.34613e-38
0.0612498 -0.0299444 0.289 1.34613e-38
0.0623943 -0.0298407 0.288 1.35527e-38
0.063308 -0.0296335 0.286 1.29052e-38
0.0639767 -0.0293227 0.283 1.18032e-38
0.0655404 -0.0294263 0.284 1.28148e-38
0.0661715 -0.0291154 0.281 1.37321e-38
0.0682155 -0.0294263 0.284 1.37321e-38
0.0688183 -0.0291154 0.281 1.75787e-38
0.0696425 -0.0289082 0.279 1.9602e-38
0.0717195 -0.0292191 0.282 1.9602e-38
0.0725296 -0.0290118 0.28 2.13504e-38
0.0735846 -0.0289082 0.279 2.2083e-38
0.0748986 -0.0289082 0.279 2.2634e-38
0.0764857 -0.0290118 0.28 2.22688e-38
0.132249 -0.0484912 0.468 1.5017e-38
0.143646 -0.0518068 0.5 1.52843e-38
0.149505 -0.0530502 0.512 1.84103e-38
0.1534 -0.0535683 0.517 1.97878e-38
0.155232 -0.0533611 0.515 2.11635e-38
0.157964 -0.0534647 0.516 2.1716e-38
0.16257 -0.05419 0.523 2.20837e-38
0.164402 -0.0539827 0.521 2.22681e-38
0.165895 -0.0536719 0.518 2.21762e-38
0.167685 -0.0534647 0.516 9.67081e-39
0.171104 -0.0537755 0.519 8.10673e-39
0.174217 -0.0539827 0.521 6.72812e-39
0.17701 -0.0540863 0.522 6.36186e-39
0.177062 -0.0533611 0.515 6.26931e-39
0.180184 -0.0535683 0.517 6.08636e-39
0.182266 -0.0534647 0.516 6.2693e-39
0.185412 -0.0536719 0.518 6.2693e-39
0.187126 -0.0534647 0.516 6.3615e-39
0.189924 -0.0535683 0.517 6.2693e-39
0.192359 -0.0535683 0.517 6.08491e-39
0.194794 -0.0535683 0.517 5.99272e-39
0.196847 -0.0534647 0.516 5.80904e-39
0.20005 -0.0536719 0.518 5.80904e-39
0.202098 -0.0535683 0.517 5.71613e-39
0.206511 -0.0540863 0.522 5.80761e-39
0.20937 -0.05419 0.523 5.43775e-39
0.211428 -0.0540863 0.522 5.52815e-39
0.212248 -0.0536719 0.518 5.43668e-39
0.214688 -0.0536719 0.518 5.43703e-39
0.217127 -0.0536719 0.518 5.16224e-39
0.217447 -0.0531538 0.513 4.88565e-39
0.217721 -0.0526358 0.508 4.6105e-39
0.21708 -0.0519105 0.501 4.6105e-39
0.218126 -0.0515996 0.498 5.34555e-39
0.217815 -0.0509779 0.492 5.34555e-39
0.218342 -0.0505635 0.488 5.43775e-39
0.218832 -0.050149 0.484 5.43775e-39
0.218827 -0.049631 0.479 5.34555e-39
0.217391 -0.048802 0.471 5.3459e-39
0.216812 -0.0481804 0.465 5.34555e-39
0.216176 -0.0475587 0.459 5.52995e-39
0.215959 -0.0470406 0.454 5.52995e-39
0.214735 -0.0463153 0.447 5.62214e-39
0.216355 -0.0462117 0.446 5.43739e-39
0.216986 -0.0459009 0.443 5.62214e-39
0.2166 -0.0453828 0.438 5.71433e-39
0.215168 -0.0446575 0.431 5.34663e-39
0.218206 -0.0448647 0.433 5.34663e-39
0.218719 -0.0445539 0.43 2.35099e-38
0.216637 -0.043725 0.422 2.35099e-38
0.216553 -0.0433105 0.418 2.35099e-38
0.217476 -0.0431033 0.416 2.35099e-38
0.214688 -0.0421708 0.407 2.35099e-38
0.211815 -0.0412382 0.398 2.35099e-38
0.212615 -0.041031 0.396 2.35099e-38
0.212314 -0.0406166 0.392 2.35099e-38
0.212521 -0.0403057 0.389 2.35099e-38
0.211598 -0.0397877 0.384 2.35099e-38
0.212295 -0.0395804 0.382 2.35099e-38
0.210171 -0.0388551 0.375 2.35099e-38
0.210242 -0.0385443 0.372 2.35099e-38
0.209714 -0.0381298 0.368 2.35099e-38
0.207425 -0.0374045 0.361 2.35099e-38
0.206808 -0.0369901 0.357 2.35099e-38
0.207322 -0.0367829 0.355 2.35099e-38
0.207227 -0.036472 0.352 2.35099e-38
0.205918 -0.0359539 0.347 2.35099e-38
0.205758 -0.0356431 0.344 2.35099e-38
0.20557 -0.0353323 0.341 2.35099e-38
0.204138 -0.0348142 0.336 2.35099e-38
0.203271 -0.0343997 0.332 2.35099e-38
0.202367 -0.0339853 0.328 2.35099e-38
0.201425 -0.0335708 0.324 2.35099e-38
0.202325 -0.0334672 0.323 2.35099e-38
0.200059 -0.0328455 0.317 2.35099e-38
0.202188 -0.0329492 0.318 2.35099e-38
0.204326 -0.0330528 0.319 2.35099e-38
0.201312 -0.0323275 0.312 2.35099e-38
0.202781 -0.0323275 0.312 2.35099e-38
0.201632 -0.031913 0.308 2.35099e-38
0.200445 -0.0314986 0.304 2.35099e-38
0.201877 -0.0314986 0.304 2.35099e-38
0.201971 -0.0312913 0.302 2.35099e-38
0.202047 -0.0310841 0.3 2.35099e-38
0.204816 -0.0312913 0.302 2.35099e-38
0.203507 -0.0308769 0.298 2.35099e-38
0.200097 -0.0301516 0.291 2.35099e-38
0.200775 -0.030048 0.29 2.35099e-38
0.195868 -0.0291154 0.281 2.35099e-38
0.198594 -0.0293227 0.283 2.35099e-38
0.199221 -0.0292191 0.282 2.35099e-38
0.199127 -0.0290118 0.28 2.35099e-38
0.197582 -0.0285974 0.276 2.35099e-38
0.195279 -0.0280793 0.271 2.35099e-38
0.198006 -0.0282865 0.273 2.35099e-38
0.197101 -0.0279757 0.27 2.35099e-38
0.1947 -0.0274576 0.265 2.35099e-38
0.196687 -0.0275612 0.266 2.35099e-38
0.200916 -0.0279757 0.27 2.35099e-38
-0.182718 -0.0241326 0.244 2.35099e-38
-0.18529 -0.0246271 0.249 2.35099e-38
-0.186335 -0.0249238 0.252 2.35099e-38
-0.189557 -0.0255172 0.258 2.35099e-38
-0.192721 -0.0261106 0.264 2.35099e-38
-0.194379 -0.0265063 0.268 2.35099e-38
-0.199602 -0.0273964 0.277 2.35099e-38
-0.19973 -0.0275942 0.279 2.35099e-38
-0.196282 -0.0272975 0.276 2.35099e-38
-0.19145 -0.026803 0.271 2.35099e-38
-0.191577 -0.0270008 0.273 2.35099e-38
-0.194473 -0.0275942 0.279 2.35099e-38
-0.197313 -0.0281876 0.285 2.35099e-38
-0.200097 -0.0287811 0.291 2.35099e-38
-0.201458 -0.0291767 0.295 2.35099e-38
-0.202781 -0.0295723 0.299 2.35099e-38
-0.204741 -0.0300668 0.304 2.35099e-38
-0.203978 -0.0301657 0.305 2.35099e-38
-0.204533 -0.0304624 0.308 2.35099e-38
-0.202423 -0.0303635 0.307 2.35099e-38
-0.204905 -0.0309569 0.313 2.35099e-38
-0.204731 -0.0311548 0.315 2.35099e-38
-0.204538 -0.0313526 0.317 2.35099e-38
-0.203686 -0.0314515 0.318 2.35099e-38
-0.20346 -0.0316493 0.32 2.35099e-38
-0.203846 -0.031946 0.323 2.35099e-38
-0.20483 -0.0323416 0.327 2.35099e-38
-0.205155 -0.0326383 0.33 2.35099e-38
-0.204835 -0.0328361 0.332 2.35099e-38
-0.202659 -0.0327372 0.331 1.0789e-38
-0.204138 -0.0332317 0.336 1.0789e-38
-0.204967 -0.0336273 0.34 1.0789e-38
-0.203964 -0.0337263 0.341 1.07887e-38
-0.205918 -0.0343197 0.347 1.07887e-38
-0.204873 -0.0344186 0.348 1.0972e-38
-0.204986 -0.0347153 0.351 1.0972e-38
-0.206229 -0.0352098 0.356 1.0972e-38
-0.207425 -0.0357043 0.361 1.08798e-38
-0.208004 -0.0360999 0.365 1.07876e-38
-0.206285 -0.0360999 0.365 1.07876e-38
-0.207369 -0.0365945 0.37 1.07876e-38
-0.205626 -0.0365945 0.37 1.06036e-38
-0.203883 -0.0365945 0.37 9.77381e-39
-0.202687 -0.0366934 0.371 9.31283e-39
-0.205814 -0.0375835 0.38 9.31283e-39
-0.204025 -0.0375835 0.38 8.85185e-39
-0.20596 -0.0382758 0.387 8.94405e-39
-0.20361 -0.0381769 0.386 8.6689e-39
-0.204406 -0.0386715 0.391 8.66818e-39
-0.203083 -0.0387704 0.392 8.66818e-39
-0.202777 -0.0390671 0.395 8.75966e-39
-0.203968 -0.0396605 0.401 8.75966e-39
-0.203591 -0.0399572 0.404 8.75894e-39
-0.203186 -0.0402539 0.407 8.66674e-39
-0.201764 -0.0403528 0.408 8.66674e-39
-0.202292 -0.0408473 0.413 8.66746e-39
-0.203742 -0.0415397 0.42 8.57526e-39
-0.202725 -0.0417375 0.422 8.20756e-39
-0.203591 -0.0423309 0.428 8.20756e-39
-0.204873 -0.0430232 0.435 8.11608e-39
-0.20329 -0.0431221 0.436 8.02389e-39
-0.201237 -0.0431221 0.436 7.93097e-39
-0.201467 -0.0436167 0.441 7.74658e-39
-0.202103 -0.0442101 0.447 7.65403e-39
-0.200893 -0.0444079 0.449 7.92989e-39
-0.199221 -0.0445068 0.45 7.83734e-39
-0.19973 -0.0451002 0.456 7.83734e-39
-0.200182 -0.0456936 0.462 7.83734e-39
-0.199292 -0.0459903 0.465 7.74515e-39
-0.199221 -0.0464849 0.47 7.56076e-39
-0.197426 -0.0465838 0.471 7.56076e-39
-0.19728 -0.0470783 0.476 7.37637e-39
-0.196268 -0.047375 0.479 7.83663e-39
-0.195632 -0.0477706 0.483 7.56004e-39
-0.195359 -0.0482651 0.488 7.19161e-39
-0.193061 -0.0482651 0.488 7.00722e-39
-0.192326 -0.0486608 0.492 6.91467e-39
-0.190781 -0.0488586 0.494 6.63808e-39
-0.191125 -0.0495509 0.501 6.63809e-39
-0.190649 -0.0500454 0.506 6.82319e-39
-0.189382 -0.0503421 0.509 7.00794e-39
-0.188087 -0.0506388 0.512 7.00794e-39
-0.187489 -0.0511334 0.517 6.73135e-39
-0.18577 -0.0513312 0.519 6.73099e-39
-0.185092 -0.0518257 0.524 6.45441e-39
-0.180881 -0.0513312 0.519 7.09907e-39
-0.178093 -0.0512323 0.518 7.92882e-39
-0.175314 -0.0511334 0.517 8.20613e-39
-0.174886 -0.0517268 0.523 8.20613e-39
-0.171763 -0.051529 0.521 8.29832e-39
-0.169309 -0.051529 0.521 8.02281e-39
-0.166856 -0.051529 0.521 8.11501e-39
-0.164086 -0.0514301 0.52 8.20756e-39
-0.16257 -0.0517268 0.523 8.20756e-39
-0.159801 -0.0516279 0.522 8.29975e-39
-0.157643 -0.0517268 0.523 8.20756e-39
-0.15518 -0.0517268 0.523 8.57526e-39
-0.153593 -0.0520235 0.526 8.57526e-39
-0.149967 -0.0516279 0.522 8.66746e-39
-0.147508 -0.0516279 0.522 8.66746e-39
-0.144494 -0.0514301 0.52 8.6671e-39
-0.142591 -0.0516279 0.522 8.66711e-39
-0.139596 -0.0514301 0.52 8.66818e-39
-0.137411 -0.051529 0.521 8.57598e-39
-0.135734 -0.0518257 0.524 8.57598e-39
-0.133266 -0.0518257 0.524 8.5767e-39
-0.131297 -0.0520235 0.526 8.48451e-39
-0.12784 -0.0516279 0.522 8.6689e-39
-0.124661 -0.0513312 0.519 8.76038e-39
-0.122924 -0.0516279 0.522 8.66818e-39
-0.120465 -0.0516279 0.522 8.66818e-39
-0.117328 -0.0513312 0.519 8.76038e-39
-0.114663 -0.0512323 0.518 8.66818e-39
-0.11244 -0.0513312 0.519 8.66818e-39
-0.109783 -0.0512323 0.518 8.85257e-39
-0.108173 -0.0516279 0.522 8.85257e-39
-0.105512 -0.051529 0.521 8.85257e-39
-0.104047 -0.0520235 0.526 8.85257e-39
-0.10157 -0.0520235 0.526 8.85293e-39
-0.0990924 -0.0520235 0.526 8.85293e-39
-0.0967987 -0.0521224 0.527 8.85185e-39
-0.0941377 -0.0520235 0.526 8.94405e-39
-0.0913119 -0.0518257 0.524 9.03624e-39
-0.0883354 -0.051529 0.521 8.94405e-39
-0.0862113 -0.0517268 0.523 8.94405e-39
-0.0839083 -0.0518257 0.524 8.94405e-39
-0.082062 -0.0522213 0.528 8.94369e-39
-0.0788217 -0.0517268 0.523 9.03588e-39
-0.0773806 -0.0524191 0.53 9.03588e-39
-0.0738954 -0.0517268 0.523 9.12808e-39
-0.0711591 -0.051529 0.521 9.12808e-39
-0.0685734 -0.0514301 0.52 9.12808e-39
-0.0656157 -0.0510345 0.516 8.76038e-39
-0.0636753 -0.0514301 0.52 8.76038e-39
-0.0609908 -0.0512323 0.518 9.03696e-39
-0.0588902 -0.051529 0.521 9.03696e-39
-0.0565448 -0.0516279 0.522 9.12916e-39
-0.0540863 -0.0516279 0.522 9.22171e-39
-0.0518257 -0.0518257 0.524 8.76073e-39
-0.0495462 -0.0520235 0.526 8.57634e-39
-0.0471584 -0.0521224 0.527 8.66854e-39
-0.0443372 -0.0517268 0.523 8.57634e-39
-0.0421143 -0.0520235 0.526 8.57598e-39
-0.0397123 -0.0521224 0.527 8.48379e-39
-0.0373009 -0.0522213 0.528 8.85078e-39
-0.0347483 -0.0521224 0.527 8.7593e-39
-0.0323275 -0.0522213 0.528 8.7593e-39
-0.0294451 -0.051529 0.521 8.6671e-39
-0.0275094 -0.052518 0.531 8.6671e-39
-0.0254325 -0.0534081 0.54 8.6671e-39
-0.0204307 -0.0476717 0.482 8.66493e-39
-0.0172187 -0.0451991 0.457 1.08647e-38
-0.0146378 -0.0439134 0.444 1.17866e-38
-0.0124054 -0.0434188 0.439 1.05077e-38
-0.0103849 -0.0436167 0.441 1.12431e-38
-0.00796883 -0.0418364 0.423 1.17045e-38
-0.0059625 -0.0417375 0.422 1.18903e-38
-0.00389964 -0.0409462 0.414 1.30892e-38
-0.00197808 -0.0415397 0.42 1.30892e-38
0 -0.0414408 0.419 1.29977e-38
0.00194982 -0.0409462 0.414 1.20786e-38
0.00387138 -0.0406495 0.411 1.01429e-38
0.00582121 -0.0407484 0.412 1.04195e-38
0.00747902 -0.0392649 0.397 1.30913e-38
0.00941943 -0.0395616 0.4 1.30906e-38
0.0112468 -0.0393638 0.398 1.26314e-38
0.0132202 -0.0396605 0.401 1.26314e-38
0.014958 -0.0392649 0.397 1.27233e-38
0.0164887 -0.0384736 0.389 9.58795e-39
0.0183679 -0.0385725 0.39 9.77234e-39
0.0205673 -0.0392649 0.397 9.311e-39
0.022098 -0.0386715 0.391 8.85113e-39
0.0241844 -0.0390671 0.395 8.85113e-39
0.0258469 -0.0387704 0.392 9.31211e-39
0.0254324 -0.0356054 0.36 1.2818e-38
0.0269019 -0.0353087 0.357 1.33701e-38
0.0290636 -0.0359021 0.363 1.35545e-38
0.0318753 -0.0371879 0.376 1.33701e-38
0.0339146 -0.0374846 0.379 1.34623e-38
0.0357938 -0.0375835 0.38 1.29092e-38
0.0378802 -0.0378802 0.383 1.22649e-38
0.0386479 -0.0368912 0.373 1.19883e-38
0.0393214 -0.0359021 0.363 1.18025e-38
0.0383182 -0.0335284 0.339 1.12497e-38
0.03756 -0.0315504 0.319 1.2634e-38
0.0384501 -0.0310558 0.314 1.34638e-38
0.0400561 -0.0311548 0.315 1.3556e-38
0.0412759 -0.0309569 0.313 1.37404e-38
0.0422037 -0.0305613 0.309 1.36464e-38
0.0433765 -0.0303635 0.307 1.38308e-38
0.0448223 -0.0303635 0.307 1.383e-38
0.0456654 -0.0299679 0.303 1.35535e-38
0.0472478 -0.0300668 0.304 1.38304e-38
0.0478789 -0.0295723 0.299 1.42917e-38
0.0487926 -0.0292756 0.296 1.42917e-38
0.051204 -0.029869 0.302 1.42917e-38
0.0526263 -0.029869 0.302 1.42917e-38
0.0526169 -0.0290778 0.294 1.41066e-38
0.0543689 -0.0292756 0.296 1.41988e-38
0.0559514 -0.0293745 0.297 1.41066e-38
0.056964 -0.0291767 0.295 1.40144e-38
0.0571665 -0.0285832 0.289 1.40144e-38
0.0591352 -0.02888 0.292 1.42899e-38
0.0603032 -0.0287811 0.291 1.383e-38
0.0610379 -0.0284843 0.288 1.383e-38
0.0626109 -0.0285832 0.289 1.36464e-38
0.0630866 -0.0281876 0.285 1.41974e-38
0.0635246 -0.027792 0.281 1.4013e-38
0.0653096 -0.0279898 0.283 1.4013e-38
0.0668779 -0.0280887 0.284 1.48417e-38
0.0686959 -0.0282865 0.286 1.48417e-38
0.0700428 -0.0282865 0.286 1.60305e-38
0.0688937 -0.0272975 0.276 2.10731e-38
0.0709565 -0.0275942 0.279 2.14405e-38
0.0722705 -0.0275942 0.279 2.15327e-38
0.0730571 -0.0273964 0.277 2.19926e-38
0.0754355 -0.027792 0.281 2.21759e-38
0.0767589 -0.027792 0.281 2.21766e-38
0.134509 -0.0470783 0.476 1.56682e-38
0.14221 -0.0489575 0.495 1.57449e-38
0.149797 -0.0507377 0.513 1.85932e-38
0.153697 -0.0512323 0.518 2.00626e-38
0.155534 -0.0510345 0.516 2.10731e-38
0.157964 -0.0510345 0.516 2.19926e-38
0.160705 -0.0511334 0.517 2.22681e-38
0.162824 -0.0510345 0.516 2.22684e-38
0.165254 -0.0510345 0.516 2.21766e-38
0.16801 -0.0511334 0.517 2.07026e-38
0.170774 -0.0512323 0.518 7.46244e-39
0.173883 -0.0514301 0.52 6.63665e-39
0.176671 -0.051529 0.521 6.36221e-39
0.178437 -0.0513312 0.519 6.36185e-39
0.180533 -0.0512323 0.518 6.17782e-39
0.183326 -0.0513312 0.519 6.2693e-39
0.18577 -0.0513312 0.519 6.3615e-39
0.187852 -0.0512323 0.518 6.2693e-39
0.190659 -0.0513312 0.519 6.2693e-39
0.192359 -0.0511334 0.517 6.08491e-39
0.193663 -0.0508366 0.514 6.08491e-39
0.196847 -0.0510345 0.516 6.17676e-39
0.198119 -0.0507377 0.513 5.90124e-39
0.201708 -0.0510345 0.516 5.80904e-39
0.206511 -0.0516279 0.522 5.71648e-39
0.20937 -0.0517268 0.523 5.0704e-39
0.211023 -0.051529 0.521 5.16045e-39
0.214297 -0.0517268 0.523 5.16045e-39
0.215931 -0.051529 0.521 5.25336e-39
0.217127 -0.0512323 0.518 5.16224e-39
0.217447 -0.0507377 0.513 4.88637e-39
0.217292 -0.0501443 0.507 4.88565e-39
0.216214 -0.0493531 0.499 5.62034e-39
0.216812 -0.0489575 0.495 5.43595e-39
