VERSION .7
FIELDS x y z rgb
SIZE 4 4 4 4
TYPE F F F F
COUNT 1 1 1 1
WIDTH 848
HEIGHT 1
VIEWPOINT 0 0 0 1 0 0 0
POINTS 848
DATA ascii
0.0821524625422 -0.0426360881548 0.552 5.34805979299e-39
0.0842322717205 -0.0426360881548 0.552 5.44025822545e-39
0.0864684433642 -0.042713327445 0.553 5.34806539818e-39
0.0879114993701 -0.0424043702844 0.549 5.43954216194e-39
0.0896522092259 -0.0422498917041 0.547 5.5317405944e-39
0.0925515084336 -0.0426360881548 0.552 5.43954496453e-39
0.0944598840655 -0.0425588488647 0.551 5.53102453088e-39
0.0967111267902 -0.0426360881548 0.552 5.53066719977e-39
0.0984329977947 -0.0424816095745 0.55 5.53066719977e-39
0.10068800829 -0.0425588488647 0.551 5.43954216194e-39
0.10257754507 -0.0424816095745 0.55 5.43954216194e-39
0.105220635901 -0.042713327445 0.553 5.34734653207e-39
0.107110172682 -0.0426360881548 0.552 5.34734653207e-39
0.108398750107 -0.0423271309943 0.548 5.34734653207e-39
0.110463488205 -0.0423271309943 0.548 5.34734653207e-39
0.112733569781 -0.0424043702844 0.549 5.34734653207e-39
0.115220298146 -0.0425588488647 0.551 5.34734653207e-39
0.117083460535 -0.0424816095745 0.55 5.34734653207e-39
0.119589027751 -0.0426360881548 0.552 5.34734653207e-39
0.120566764131 -0.0422498917041 0.547 5.34734653207e-39
0.122403552128 -0.042172652414 0.546 5.34734653207e-39
0.122637153884 -0.0415547380929 0.538 5.16295527235e-39
0.120029856871 -0.0400099522902 0.518 5.25515090221e-39
0.121039619298 -0.0397009951297 0.514 5.25515090221e-39
0.122019239563 -0.0393920379691 0.51 5.16295527235e-39
0.126371014202 -0.0401644308705 0.52 5.34663046856e-39
0.128330254733 -0.0401644308705 0.52 5.34663046856e-39
0.130289495263 -0.0401644308705 0.52 5.34663046856e-39
0.131485762317 -0.0399327130001 0.517 5.34663046856e-39
0.133433699537 -0.0399327130001 0.517 5.34663046856e-39
0.133548616529 -0.0393920379691 0.51 5.34663046856e-39
0.134938923752 -0.0392375593889 0.508 5.34663046856e-39
0.135236577602 -0.038774123648 0.502 5.34663046856e-39
0.136581671581 -0.0386196450678 0.5 5.34734933467e-39
0.136803970026 -0.038156209327 0.494 5.34734933467e-39
0.136981055228 -0.0376927735861 0.488 5.43954496453e-39
0.138250793802 -0.0375382950059 0.486 5.5317405944e-39
0.137776054751 -0.0369203806848 0.478 5.44026102805e-39
0.138701042347 -0.0366886628144 0.475 5.44026102805e-39
0.138124573499 -0.0360707484933 0.467 5.44026102805e-39
0.139285046736 -0.035916269913 0.465 5.53245665791e-39
0.140127143387 -0.0356845520426 0.462 5.80760581528e-39
0.139411267039 -0.0350666377215 0.454 5.71541018541e-39
0.140189311596 -0.0348349198511 0.451 5.62321735815e-39
0.141259358347 -0.0346804412709 0.449 5.43882609842e-39
0.142314334017 -0.0345259626906 0.447 5.43882609842e-39
0.141421372468 -0.0339080483695 0.439 5.43882890102e-39
0.141445862975 -0.0335218519188 0.434 5.34663327115e-39
0.14341075516 -0.033599091209 0.435 5.34663327115e-39
0.140381467879 -0.0325177411471 0.421 5.16295246975e-39
0.142304914592 -0.0325949804372 0.422 5.07075964248e-39
0.142189997599 -0.0322087839865 0.417 4.97856401262e-39
0.143761157793 -0.0322087839865 0.417 4.70197992563e-39
0.141847130506 -0.0314363910852 0.407 4.70197992563e-39
0.140562320851 -0.0308184767641 0.399 4.60978149317e-39
0.141353552603 -0.0306639981838 0.397 4.42539023344e-39
0.141410069157 -0.0303550410233 0.393 4.14880054125e-39
0.143981572353 -0.0305867588937 0.396 4.24099897371e-39
0.143269463776 -0.0301233231529 0.39 3.87221645426e-39
0.141027640477 -0.0293509302515 0.38 3.77930476088e-39
0.142834286312 -0.0294281695416 0.381 3.9636988232e-39
0.142755163137 -0.0291192123811 0.377 4.23920811428e-39
0.14341075516 -0.0289647338008 0.375 4.42252457808e-39
0.144437472553 -0.0288874945107 0.374 4.42252738068e-39
0.143116869081 -0.0283468194797 0.367 4.33033175081e-39
0.142137248816 -0.0278833837389 0.361 3.77895023237e-39
0.14190741483 -0.0275744265784 0.357 4.24028571279e-39
0.142851241278 -0.0274971872883 0.356 5.07004357897e-39
0.144597602789 -0.0275744265784 0.357 5.43882329582e-39
0.142672272191 -0.0269565122573 0.349 4.97784514651e-39
0.141511798954 -0.0264930765165 0.343 4.51686979979e-39
0.142387805537 -0.0264158372264 0.342 4.51687260238e-39
0.149137765941 -0.0274199479981 0.355 4.700906531e-39
0.133096484099 -0.0242531371026 0.314 4.70162399582e-39
0.126154367413 -0.02278559059 0.295 4.79381962568e-39
0.124245991781 -0.022244915559 0.288 4.88601525554e-39
0.122284867366 -0.0217042405281 0.281 4.88673131906e-39
0.119393103698 -0.0210090869169 0.272 4.88673131906e-39
0.114219955144 -0.019927736855 0.258 4.88708724887e-39
0.116531482193 -0.0201594547254 0.261 4.70341625655e-39
0.117064621683 -0.0200822154352 0.26 4.70341625655e-39
0.116682193003 -0.0198504975648 0.257 5.07004357897e-39
0.119481646299 -0.0201594547254 0.261 5.25443483869e-39
0.121388138046 -0.0203139333056 0.263 5.16223920883e-39
0.122844381248 -0.0203911725958 0.264 5.25443483869e-39
0.122431810405 -0.0201594547254 0.261 5.43882609842e-39
0.123415198441 -0.0201594547254 0.261 5.43882609842e-39
0.122492094729 -0.0198504975648 0.257 5.43882609842e-39
0.124421193098 -0.0200049761451 0.259 5.43882609842e-39
0.123944570161 -0.0197732582747 0.256 5.43882890102e-39
0.126372898087 -0.0200049761451 0.259 5.53102453088e-39
0.126857056565 -0.019927736855 0.258 5.71541579061e-39
0.128324603077 -0.0200049761451 0.259 5.80761142047e-39
0.12979968513 -0.0200822154352 0.26 5.80761142047e-39
0.131282302724 -0.0201594547254 0.261 5.89980705033e-39
0.13175892566 -0.0200822154352 0.26 6.17639393992e-39
0.132738545926 -0.0200822154352 0.26 6.45298082951e-39
0.135261068108 -0.0203139333056 0.263 6.91539110586e-39
0.135215854865 -0.0201594547254 0.261 7.09978236559e-39
0.142983113237 -0.0211635654971 0.274 7.28417362531e-39
0.473427867518 -0.0685884896404 0.888 7.5607605149e-39
0.494491587103 -0.0711373862148 0.921 7.74515177463e-39
0.516885329587 -0.0738407613696 0.956 7.83734740449e-39
0.518853989543 -0.0736090434992 0.953 7.83734740449e-39
0.533408886021 -0.0751538293019 0.973 7.83734740449e-39
0.536522948133 -0.0750765900117 0.972 7.92954023176e-39
0.555190365839 -0.0771620508454 0.999 8.02173586162e-39
0.542168951853 -0.0748448721413 0.969 8.02173586162e-39
0.559901962537 -0.0767758543947 0.994 8.02173586162e-39
0.565915323857 -0.0770848115553 0.998 8.02173305903e-39
0.549696956814 -0.0743814364005 0.963 8.11392868889e-39
0.557347414307 -0.0749221114315 0.97 8.20792218468e-39
0.592016552267 -0.0785523580678 1.017 8.29976188474e-39
0.570655178832 -0.075231068592 0.974 8.29976188474e-39
0.603512019302 -0.0785523580678 1.017 8.3919575146e-39
0.607941033231 -0.078629597358 1.018 8.29976468733e-39
-0.308748049293 -0.0379847757806 0.517 7.55967871249e-39
-0.305613264445 -0.0378378327408 0.515 7.46748308263e-39
-0.304852174854 -0.0379847757806 0.517 7.37564758647e-39
-0.303490125909 -0.0380582473004 0.518 7.46784601893e-39
-0.302702661926 -0.0382051903402 0.52 7.19197799545e-39
-0.300743421396 -0.0382051903402 0.52 7.00758673572e-39
-0.298209595903 -0.0381317188203 0.519 7.09978236559e-39
-0.297395757528 -0.0382786618601 0.521 7.2834575618e-39
-0.295999798651 -0.03835213338 0.522 7.2834575618e-39
-0.29403302258 -0.03835213338 0.522 7.19126193194e-39
-0.291506732627 -0.0382786618601 0.521 7.2834575618e-39
-0.286764993767 -0.0379113042607 0.516 7.46784882153e-39
-0.284820824317 -0.0379113042607 0.516 7.37565319166e-39
-0.28342486544 -0.0379847757806 0.517 7.2834575618e-39
-0.282021371021 -0.0380582473004 0.518 7.37565319166e-39
-0.280610341062 -0.0381317188203 0.519 7.2834575618e-39
-0.277581053781 -0.0379847757806 0.517 7.2834575618e-39
-0.274566837581 -0.0378378327408 0.515 7.2834547592e-39
-0.271567692461 -0.037690889701 0.513 7.2834547592e-39
-0.270160430273 -0.0377643612209 0.514 7.19197799545e-39
-0.270311141083 -0.0380582473004 0.518 7.28417082272e-39
-0.268877504502 -0.0381317188203 0.519 7.28417082272e-39
-0.267436332381 -0.0382051903402 0.52 7.28417082272e-39
-0.26598762472 -0.0382786618601 0.521 7.00902867184e-39
-0.263011086222 -0.0381317188203 0.519 7.1005054356e-39
-0.261558610791 -0.0382051903402 0.52 6.91611137327e-39
-0.258101681586 -0.0379847757806 0.517 7.09978236559e-39
-0.255658282578 -0.0379113042607 0.516 7.19125632674e-39
-0.254697501164 -0.0380582473004 0.518 7.2830918229e-39
-0.254209574917 -0.0382786618601 0.521 7.2830890203e-39
-0.250794091185 -0.0380582473004 0.518 7.55859691008e-39
-0.249322776902 -0.0381317188203 0.519 7.19161225655e-39
-0.245937435332 -0.0379113042607 0.516 7.19161225655e-39
-0.245411831382 -0.0381317188203 0.519 7.19161225655e-39
-0.241110921641 -0.0377643612209 0.514 7.28380788642e-39
-0.239639607358 -0.0378378327408 0.515 7.28380788642e-39
-0.239083861246 -0.0380582473004 0.518 7.19161225655e-39
-0.237589940342 -0.0381317188203 0.519 7.19161225655e-39
-0.236088483897 -0.0382051903402 0.52 7.09941662669e-39
-0.233678994822 -0.0381317188203 0.519 7.19125632674e-39
-0.231277041287 -0.0380582473004 0.518 7.09906069688e-39
-0.229325336298 -0.0380582473004 0.518 7.09906069688e-39
-0.227373631308 -0.0380582473004 0.518 7.19125632674e-39
-0.225421926318 -0.0380582473004 0.518 7.00686506702e-39
-0.222607401941 -0.0379113042607 0.516 6.91466943715e-39
-0.221518516338 -0.0380582473004 0.518 7.00686506702e-39
-0.219566811349 -0.0380582473004 0.518 7.00686506702e-39
-0.216774893593 -0.0379113042607 0.516 7.09906349948e-39
-0.213998046918 -0.0377643612209 0.514 7.00686786961e-39
-0.212886554695 -0.0379113042607 0.516 7.00686786961e-39
-0.21175999139 -0.0380582473004 0.518 7.09906349948e-39
-0.211023392306 -0.0382786618601 0.521 6.91467223975e-39
-0.207054046347 -0.0379113042607 0.516 6.82247660989e-39
-0.204314877375 -0.0377643612209 0.514 6.82247660989e-39
-0.203953171431 -0.0380582473004 0.518 6.82247660989e-39
-0.202001466441 -0.0380582473004 0.518 6.91502536696e-39
-0.199663565 -0.0379847757806 0.517 6.8228297371e-39
-0.197715627781 -0.0379847757806 0.517 6.8228297371e-39
-0.195767690561 -0.0379847757806 0.517 6.82247380729e-39
-0.193444860202 -0.0379113042607 0.516 6.63808254756e-39
-0.191500690753 -0.0379113042607 0.516 6.5458897203e-39
-0.189556521303 -0.0379113042607 0.516 6.5458897203e-39
-0.186521582367 -0.037690889701 0.513 6.63808535016e-39
-0.185308360346 -0.0378378327408 0.515 6.45298082951e-39
-0.183011904378 -0.0377643612209 0.514 6.63629308942e-39
-0.181075270469 -0.0377643612209 0.514 6.72848871929e-39
-0.179835674057 -0.0379113042607 0.516 6.54517645938e-39
-0.179270508519 -0.0382051903402 0.52 6.26894970349e-39
-0.17424241912 -0.0375439466612 0.511 6.54445058677e-39
-0.172317088522 -0.0375439466612 0.511 7.09366569779e-39
-0.167057281252 -0.0368092314624 0.501 7.82870980076e-39
-0.168136747429 -0.0374704751414 0.51 1.23318650925e-38
-0.148290017635 -0.0334295415477 0.455 1.27906880448e-38
-0.141743516824 -0.0323274687494 0.44 1.31576769022e-38
-0.136583555466 -0.0315192820307 0.429 1.26073869952e-38
-0.133394137949 -0.0311519244312 0.424 1.09539907333e-38
-0.130242398135 -0.0307845668318 0.419 9.21091697481e-39
-0.1286637024 -0.0307845668318 0.419 8.11141055555e-39
-0.127085006665 -0.0307845668318 0.419 7.83734740449e-39
-0.127603075074 -0.031298867471 0.426 7.83877532763e-39
-0.126885314841 -0.0315192820307 0.429 8.02316658736e-39
-0.123224926043 -0.0310049813915 0.422 7.19340311599e-39
-0.121923161422 -0.0310784529114 0.423 4.15166339402e-39
-0.117484728066 -0.0303437377125 0.413 1.05135191857e-38
-0.112560252349 -0.0294620794739 0.401 9.96034260392e-39
-0.108556996458 -0.0288008357949 0.392 1.08833750998e-38
-0.10708003052 -0.0288008357949 0.392 1.08833750998e-38
-0.103986691144 -0.0283600066756 0.386 9.04126877622e-39
-0.102001076222 -0.0282130636358 0.384 1.06082189359e-38
-0.0997686723485 -0.0279926490762 0.381 1.15298151008e-38
-0.0980750596209 -0.0279191775563 0.38 4.33713365356e-39
-0.0951173599742 -0.027478348437 0.374 1.07915466101e-38
-0.0917037601273 -0.0268905762779 0.366 1.1898957754e-38
-0.0895843893613 -0.0266701617183 0.363 9.22636348778e-39
-0.0882166887604 -0.0266701617183 0.363 5.16977118808e-39
-0.0863704813377 -0.0265232186785 0.361 9.77846106974e-39
-0.0850103162772 -0.0265232186785 0.361 1.33740906344e-38
-0.0838818690872 -0.0265966901984 0.362 1.33733717683e-38
-0.0829738364568 -0.0267436332381 0.364 1.10684810217e-38
-0.0809298210959 -0.0265232186785 0.361 1.30967848787e-38
-0.0789084123565 -0.0263028041188 0.358 5.07648534801e-39
-0.077126257028 -0.0261558610791 0.356 5.07720841802e-39
-0.0751462937614 -0.0259354465194 0.353 1.37443164913e-38
-0.0740253821118 -0.0260089180393 0.354 1.43878796266e-38
-0.0733076218791 -0.026229332599 0.357 7.19698483486e-39
-0.0713578007745 -0.0260089180393 0.354 1.32808244125e-38
-0.0696283942295 -0.0258619749995 0.352 4.97998492926e-39
-0.0677200185976 -0.0256415604399 0.349 7.83517258928e-39
-0.0652634323943 -0.0252007313206 0.343 1.13364485244e-38
-0.0645306010806 -0.0254211458802 0.346 1.17059485087e-38
-0.0630442157167 -0.0253476743603 0.345 1.39204386888e-38
-0.0619233040672 -0.0254211458802 0.346 1.04245325293e-38
-0.0602692529272 -0.0252742028404 0.344 1.40208865653e-38
-0.0584588393218 -0.0250537882808 0.341 6.55520415119e-39
-0.0576770269949 -0.0252742028404 0.344 6.46481479505e-39
-0.0563809140287 -0.0252742028404 0.344 8.95625760359e-39
-0.0550848010625 -0.0252742028404 0.344 6.28114940792e-39
-0.0531632382348 -0.0249803167609 0.34 6.92183988139e-39
-0.052339980435 -0.0252007313206 0.343 7.01007964569e-39
-0.051196462164 -0.0252742028404 0.344 1.5949790717e-38
-0.0496102308885 -0.0251272598007 0.342 1.62263804092e-38
-0.0484629448472 -0.0252007313206 0.343 1.5212591417e-38
-0.0479957413362 -0.0256415604399 0.349 8.2064480187e-39
-0.0457444986115 -0.0251272598007 0.342 6.36325428755e-39
-0.0448458854067 -0.0253476743603 0.345 6.64163904306e-39
-0.0437984452771 -0.0254946174001 0.347 1.41102025268e-38
-0.042368576467 -0.0254211458802 0.346 1.56786044317e-38
-0.0409462431975 -0.0253476743603 0.345 9.23033056373e-39
-0.0394165284758 -0.0252007313206 0.343 5.91020048104e-39
-0.037901884835 -0.0250537882808 0.341 6.83034910466e-39
-0.0367244566318 -0.0251272598007 0.342 7.10441926221e-39
-0.0358503339336 -0.0254211458802 0.346 9.0387380312e-39
-0.0341473017804 -0.0251272598007 0.342 6.36578923647e-39
-0.0327626462133 -0.0250537882808 0.341 6.92004201546e-39
-0.0324932506404 -0.0258619749995 0.352 1.26376045953e-38
-0.0299273990998 -0.0248333737211 0.338 1.23556171014e-38
-0.0299255152147 -0.0259354465194 0.353 1.23559730313e-38
-0.0279474358332 -0.0253476743603 0.345 1.44771913842e-38
-0.0291192123811 -0.0276987629967 0.377 1.4845252235e-38
-0.0351928580249 -0.0351928580249 0.479 1.48448907e-38
-0.0356186160632 -0.0375439466612 0.511 1.50282029599e-38
-0.0344845172178 -0.0384256048999 0.523 1.50267610238e-38
-0.0327626462133 -0.0387194909794 0.527 1.50260421576e-38
-0.0308938321691 -0.0388664340192 0.529 1.46594176378e-38
-0.0290099470438 -0.0390133770589 0.531 1.51200356534e-38
-0.0271109908376 -0.0391603200987 0.533 1.53955407406e-38
-0.0252911578066 -0.0394542061783 0.537 1.54873762368e-38
-0.0231378771084 -0.0392337916186 0.534 1.5487020307e-38
-0.0211654493823 -0.0393072631385 0.535 1.56714143693e-38
-0.0191138984809 -0.0392337916186 0.534 1.56717759043e-38
-0.0171019091671 -0.0392337916186 0.534 1.5579583077e-38
-0.0151464364071 -0.0393807346584 0.536 1.50289246286e-38
-0.0131514020594 -0.0394542061783 0.537 1.53969868806e-38
-0.0111073866985 -0.0393807346584 0.536 1.55806592742e-38
-0.00912177177649 -0.0395276776981 0.538 1.55813781404e-38
-0.00710789857759 -0.039601149218 0.539 1.53987805427e-38
-0.00507707041257 -0.039601149218 0.539 1.53058632441e-38
-0.00305189390292 -0.0396746207379 0.54 1.66855550874e-38
-0.00101353019739 -0.0395276776981 0.538 1.84347511189e-38
0.00101541408251 -0.039601149218 0.539 1.55601218439e-38
0.00304059059216 -0.0395276776981 0.538 1.822624071e-38
0.00506765098694 -0.0395276776981 0.538 1.8679663058e-38
0.00714746016523 -0.0398215637777 0.542 1.8403440506e-38
0.00920654660713 -0.0398950352976 0.543 1.65688969902e-38
0.0112317231168 -0.0398215637777 0.542 1.1695141695e-38
0.0132983450992 -0.0398950352976 0.543 6.17457785711e-39
0.0153442443452 -0.0398950352976 0.543 5.53462166404e-39
0.0173901435912 -0.0398950352976 0.543 5.5317405944e-39
0.019507630472 -0.0400419783373 0.545 5.43954496453e-39
0.0216401884338 -0.0401889213771 0.547 5.43954216194e-39
0.0237878174766 -0.0403358644169 0.549 5.34734653207e-39
0.0259505176004 -0.0404828074566 0.551 5.43953935934e-39
0.0278230994149 -0.0401889213771 0.547 5.43953935934e-39
0.0296655390674 -0.0398950352976 0.543 5.43989528915e-39
0.0317698387523 -0.0399685068175 0.544 5.43989528915e-39
0.0339438421869 -0.0401154498572 0.546 5.25586976832e-39
0.0358691727849 -0.0399685068175 0.544 5.34806539818e-39
0.0379188398012 -0.0399685068175 0.544 5.44026102805e-39
0.0401889213771 -0.0401889213771 0.547 5.44026102805e-39
0.0426360881548 -0.0405562789765 0.552 5.16367413846e-39
0.0443108620312 -0.0401889213771 0.547 5.16367413846e-39
0.0463718323582 -0.0401889213771 0.547 5.25586976832e-39
0.0482557174835 -0.0400419783373 0.545 5.44026102805e-39
0.0504937730123 -0.0401889213771 0.547 5.25694176165e-39
0.0526508214807 -0.040262392897 0.548 5.07255050192e-39
0.0548154054896 -0.0403358644169 0.549 4.98035627336e-39
0.0568839113571 -0.0403358644169 0.549 4.98035907595e-39
0.0591671801289 -0.0404828074566 0.551 5.25586696572e-39
0.0613543707594 -0.0405562789765 0.552 5.34806539818e-39
0.0636640139229 -0.0407032220163 0.554 5.34770946837e-39
0.0652766195902 -0.0404093359368 0.55 5.43990509824e-39
0.0671039881617 -0.040262392897 0.548 5.44025822545e-39
0.0690425059555 -0.0401889213771 0.547 5.44025822545e-39
0.0713634524299 -0.0403358644169 0.549 5.34806259559e-39
0.0734319582974 -0.0403358644169 0.549 5.34806259559e-39
0.0755004641649 -0.0403358644169 0.549 5.43953935934e-39
0.0775689700325 -0.0403358644169 0.549 5.43953935934e-39
0.0797825350546 -0.0404093359368 0.55 5.43953935934e-39
0.0815571548426 -0.040262392897 0.548 5.43953935934e-39
0.0839270823302 -0.0404093359368 0.55 5.53101892569e-39
0.0856866310372 -0.040262392897 0.548 5.53101892569e-39
0.0883918900771 -0.0405562789765 0.552 5.43882329582e-39
0.0901439032435 -0.0404093359368 0.55 5.43882329582e-39
0.0925515084336 -0.0405562789765 0.552 5.80760581528e-39
0.0942884505191 -0.0404093359368 0.55 5.71541018541e-39
0.0963607241569 -0.0404093359368 0.55 5.71541018541e-39
0.0980750596209 -0.040262392897 0.548 5.62321455555e-39
0.100139797718 -0.040262392897 0.548 5.43954496453e-39
0.101831526561 -0.0401154498572 0.546 5.34734933467e-39
0.105410908299 -0.0407032220163 0.554 5.25515370481e-39
0.106916132514 -0.0404828074566 0.551 5.34734933467e-39
0.108596558045 -0.0403358644169 0.549 5.34734933467e-39
0.110866639621 -0.0404093359368 0.55 5.34734933467e-39
0.112117539345 -0.0401154498572 0.546 5.34734933467e-39
0.114592964399 -0.040262392897 0.548 5.34734933467e-39
0.116444823477 -0.0401889213771 0.547 5.43917922563e-39
0.119589027751 -0.0405562789765 0.552 5.34662766596e-39
0.120346349572 -0.0401154498572 0.546 5.34663046856e-39
0.122403552128 -0.0401154498572 0.546 5.34663327115e-39
0.122409203784 -0.0394542061783 0.537 5.52994553106e-39
0.119102985389 -0.0377643612209 0.514 5.34555427134e-39
0.120804133657 -0.037690889701 0.513 5.34555146874e-39
0.121540732741 -0.0373235321016 0.508 5.4377470986e-39
0.126614035383 -0.0382786618601 0.521 5.53102172828e-39
0.128823832635 -0.03835213338 0.522 5.34663046856e-39
0.130790608706 -0.03835213338 0.522 5.34663046856e-39
0.132248735793 -0.0382051903402 0.52 5.43882609842e-39
0.133175607275 -0.0379113042607 0.516 5.25515370481e-39
0.134334196627 -0.037690889701 0.513 5.25515370481e-39
0.134938923752 -0.0373235321016 0.508 5.34734933467e-39
0.135505973175 -0.0369561745022 0.503 5.34734933467e-39
0.136581671581 -0.0367357599425 0.5 5.25551383851e-39
0.137080901139 -0.0363684023431 0.495 5.43990509824e-39
0.138103850762 -0.0361479877834 0.492 5.5321007281e-39
0.137966327148 -0.0356336871442 0.485 5.62429635796e-39
0.138064289175 -0.0351928580249 0.479 5.34770946837e-39
0.138993044541 -0.0349724434653 0.476 5.43990509824e-39
0.138124573499 -0.0343111997863 0.467 5.5321007281e-39
0.139584584471 -0.0342377282664 0.466 5.62429635796e-39
0.140430448892 -0.0340173137068 0.463 5.62393342166e-39
0.14002541359 -0.0335030130676 0.456 5.5317377918e-39
0.140500152642 -0.033209126988 0.452 5.5317377918e-39
0.139686314268 -0.0326213548289 0.444 5.5317377918e-39
0.141677580845 -0.0326948263488 0.445 5.43954496453e-39
0.141421372468 -0.0322539972295 0.439 5.43954496453e-39
0.141771775101 -0.03196011115 0.435 5.34734933467e-39
0.140443636088 -0.031298867471 0.426 5.25515370481e-39
0.139714572544 -0.0307845668318 0.419 5.25550402942e-39
0.141630483717 -0.0308580383517 0.42 5.0711127697e-39
0.141849014391 -0.0305641522722 0.416 4.7941699503e-39
0.143416406816 -0.0305641522722 0.416 4.60977869057e-39
0.14115009301 -0.0297559655534 0.405 4.70197432043e-39
0.140210034332 -0.0292416649142 0.398 4.60978149317e-39
0.141709606892 -0.0292416649142 0.398 4.33319460358e-39
0.142489535334 -0.0290947218745 0.396 4.05660771399e-39
0.143981572353 -0.0290947218745 0.396 4.42252457808e-39
0.143636821375 -0.028727364275 0.391 4.33032894822e-39
0.141769891216 -0.0280661205961 0.382 4.14594049109e-39
0.143209179452 -0.0280661205961 0.382 4.05374766382e-39
0.143891145867 -0.0279191775563 0.38 4.14594329368e-39
0.14341075516 -0.0275518199569 0.375 4.42252738068e-39
0.144051276103 -0.0274048769171 0.373 4.42252457808e-39
0.143506833302 -0.0270375193177 0.368 4.05374205863e-39
0.142530980807 -0.0265966901984 0.362 3.04138519346e-39
0.143497413876 -0.0265232186785 0.361 3.22577645319e-39
0.143653776341 -0.0263028041188 0.358 4.70126386211e-39
0.145002638091 -0.0263028041188 0.358 5.43882890102e-39
0.145533893696 -0.0261558610791 0.356 5.16224201143e-39
0.143987224009 -0.0256415604399 0.349 4.70126105951e-39
0.142387805537 -0.0251272598007 0.342 4.51686979979e-39
0.149977978707 -0.026229332599 0.357 4.60906542965e-39
0.135215854865 -0.0234374148433 0.319 4.60978429576e-39
0.12829257703 -0.0220414559655 0.3 4.88637118535e-39
0.125108811168 -0.0213067407667 0.29 4.97856681522e-39
0.123590399757 -0.0208659116473 0.284 4.88637118535e-39
0.119393103698 -0.0199842534087 0.272 5.07076244508e-39
0.115105381153 -0.0191025951701 0.26 4.97856681522e-39
0.115192039869 -0.0189556521303 0.258 4.97856681522e-39
0.117064621683 -0.0191025951701 0.26 4.88637118535e-39
0.118044241949 -0.0191025951701 0.26 4.51867327091e-39
0.119481646299 -0.01917606669 0.261 4.70342186175e-39
0.12092658619 -0.0192495382099 0.262 4.88780751628e-39
0.121913741996 -0.0192495382099 0.262 5.16366853326e-39
0.121493635613 -0.0190291236502 0.259 5.16366853326e-39
0.122469488108 -0.0190291236502 0.259 5.25550402942e-39
0.122968717666 -0.0189556521303 0.258 5.25514809961e-39
0.125381974511 -0.01917606669 0.261 5.25515090221e-39
0.125397045592 -0.0190291236502 0.259 5.34770946837e-39
0.12588497184 -0.0189556521303 0.258 5.34770946837e-39
0.129807220671 -0.0193964812496 0.264 5.43954496453e-39
0.128324603077 -0.0190291236502 0.259 5.62393622426e-39
0.130298914688 -0.01917606669 0.261 5.89980424774e-39
0.131282302724 -0.01917606669 0.261 6.17639113733e-39
0.132265690759 -0.01917606669 0.261 6.4518990271e-39
0.132228013057 -0.0190291236502 0.259 6.82068154655e-39
0.138346871943 -0.0197638388491 0.269 6.73099984613e-39
0.136251991684 -0.0193230097298 0.263 6.91539110586e-39
0.140373932338 -0.0197638388491 0.269 7.09978236559e-39
0.482142720107 -0.0659774248568 0.898 7.65295614477e-39
0.508775204123 -0.0691367002118 0.941 7.65295614477e-39
0.520487317947 -0.0702387730101 0.956 7.92882136565e-39
0.52573393802 -0.0704591875697 0.959 8.02101699551e-39
0.537074926474 -0.0714877888481 0.973 8.02101699551e-39
0.540740966928 -0.0714877888481 0.973 8.02101699551e-39
0.544966521264 -0.071561260368 0.974 8.2976038851e-39
0.576237130458 -0.0751613648424 1.023 8.2976038851e-39
0.561378928475 -0.0727368046862 0.99 8.38979951497e-39
0.548555322428 -0.0706061306095 0.961 8.48199514483e-39
0.556772829344 -0.0711939027686 0.969 8.3915973809e-39
0.534397925711 -0.0678876843738 0.924 8.29940175103e-39
0.57182695538 -0.0717082034078 0.976 8.29940175103e-39
0.570873709507 -0.0706796021294 0.962 8.57598864062e-39
0.570317963395 -0.0701653014902 0.955 8.57598864062e-39
-0.309345240878 -0.0361065423107 0.518 7.55967871249e-39
-0.306800112074 -0.036036838561 0.517 7.37564758647e-39
-0.306621142987 -0.0362459498099 0.52 7.37564758647e-39
-0.305247790731 -0.0363156535596 0.521 7.2834547592e-39
-0.301538420919 -0.0361065423107 0.518 7.19125912934e-39
-0.300743421396 -0.0362459498099 0.52 7.09978236559e-39
-0.296485841013 -0.0359671348114 0.516 7.19197799545e-39
-0.29568330595 -0.0361065423107 0.518 7.46784882153e-39
-0.29373160096 -0.0361065423107 0.518 7.37565319166e-39
-0.29177989597 -0.0361065423107 0.518 7.37565319166e-39
-0.288709163216 -0.0359671348114 0.516 7.2834575618e-39
-0.287320739879 -0.036036838561 0.517 7.37565319166e-39
-0.287580716026 -0.0363156535596 0.521 7.37565319166e-39
-0.285069497154 -0.0362459498099 0.52 7.2834575618e-39
-0.283110256624 -0.0362459498099 0.52 7.37565319166e-39
-0.280610341062 -0.0361762460603 0.519 7.46784601893e-39
-0.278117961042 -0.0361065423107 0.518 7.37565038907e-39
-0.276166256052 -0.0361065423107 0.518 7.19125912934e-39
-0.273155807622 -0.0359671348114 0.516 7.00686786961e-39
-0.270686034223 -0.0358974310618 0.515 7.09977956299e-39
-0.271876649622 -0.0363156535596 0.521 7.19197519285e-39
-0.268877504502 -0.0361762460603 0.519 7.28417082272e-39
-0.26846493366 -0.0363853573092 0.522 7.19197519285e-39
-0.26598762472 -0.0363156535596 0.521 7.10085856281e-39
-0.26402461642 -0.0363156535596 0.521 7.19305419267e-39
-0.261558610791 -0.0362459498099 0.52 7.28417082272e-39
-0.259100140702 -0.0361762460603 0.519 7.28417082272e-39
-0.256153744366 -0.036036838561 0.517 7.19125912934e-39
-0.255189195182 -0.0361762460603 0.519 7.2834547592e-39
-0.250794091185 -0.0358277273121 0.514 7.46712715282e-39
-0.249341615753 -0.0358974310618 0.515 7.46712715282e-39
-0.248361995488 -0.036036838561 0.517 7.28380788642e-39
-0.244507566522 -0.0357580235625 0.513 7.19161225655e-39
-0.242574700383 -0.0357580235625 0.513 7.19161225655e-39
-0.240641834245 -0.0357580235625 0.513 7.19161225655e-39
-0.239639607358 -0.0358974310618 0.515 7.19161225655e-39
-0.236776101968 -0.0357580235625 0.513 7.19161225655e-39
-0.236216588086 -0.0359671348114 0.516 7.28380788642e-39
-0.234726434952 -0.036036838561 0.517 7.37600351628e-39
-0.233228746277 -0.0361065423107 0.518 7.19125632674e-39
-0.231277041287 -0.0361065423107 0.518 7.09906069688e-39
-0.228882623293 -0.036036838561 0.517 7.09906069688e-39
-0.226934686074 -0.036036838561 0.517 7.19125632674e-39
-0.225857103782 -0.0361762460603 0.519 7.19125632674e-39
-0.223038811635 -0.036036838561 0.517 7.00686506702e-39
-0.220663232492 -0.0359671348114 0.516 7.19125632674e-39
-0.219142937196 -0.036036838561 0.517 7.09906069688e-39
-0.217194999976 -0.036036838561 0.517 7.00686786961e-39
-0.213998046918 -0.0358277273121 0.514 7.00686786961e-39
-0.213299125537 -0.036036838561 0.517 6.91467223975e-39
-0.212168794462 -0.0361762460603 0.519 7.00686786961e-39
-0.211428427608 -0.0363853573092 0.522 6.91467223975e-39
-0.207455313878 -0.036036838561 0.517 6.82247660989e-39
-0.20590487642 -0.0361065423107 0.518 6.82247660989e-39
-0.204346903422 -0.0361762460603 0.519 6.82247660989e-39
-0.202391430662 -0.0361762460603 0.519 6.8228297371e-39
-0.199663565 -0.036036838561 0.517 6.63843847737e-39
-0.199245342503 -0.0363156535596 0.521 6.73027817743e-39
-0.196903673292 -0.0362459498099 0.52 6.73027817743e-39
-0.193819753342 -0.036036838561 0.517 6.5458869177e-39
-0.191129565383 -0.0358974310618 0.515 6.5458869177e-39
-0.188821806105 -0.0358277273121 0.514 6.45369409043e-39
-0.186885172196 -0.0358277273121 0.514 6.36149846057e-39
-0.185308360346 -0.0358974310618 0.515 6.54517365678e-39
-0.183011904378 -0.0358277273121 0.514 6.72848871929e-39
-0.181075270469 -0.0358277273121 0.514 6.72848871929e-39
-0.179835674057 -0.0359671348114 0.516 6.63737208924e-39
-0.178236255586 -0.036036838561 0.517 6.36150126317e-39
-0.17424241912 -0.0356186160632 0.511 6.63664621664e-39
-0.170631011335 -0.0352700973151 0.506 7.18586132765e-39
-0.168724519588 -0.0352700973151 0.506 7.82870980076e-39
-0.168136747429 -0.0355489123136 0.51 1.22403953352e-38
-0.147638193381 -0.0315757985844 0.453 1.26988553512e-38
-0.140777083755 -0.0304605385903 0.437 1.28825319487e-38
-0.135946802294 -0.0297635010939 0.427 1.23322448444e-38
-0.132450311501 -0.0293452785961 0.421 1.05877291498e-38
-0.129931557089 -0.0291361673472 0.418 9.12016328106e-39
-0.128970775675 -0.0292755748465 0.42 8.11177349185e-39
-0.129511450706 -0.0297635010939 0.427 7.65367921478e-39
-0.127902612809 -0.0297635010939 0.427 7.74729856388e-39
-0.126885314841 -0.0299029085932 0.429 8.2082767132e-39
-0.123516928237 -0.0294846860954 0.423 6.64094820292e-39
-0.122787864694 -0.0296937973443 0.426 3.87507650443e-39
-0.116915794759 -0.0286482410998 0.411 9.59228315447e-39
-0.112840951233 -0.0280209073531 0.402 1.07911822725e-38
-0.108833927571 -0.0273935736064 0.393 1.12521576192e-38
-0.106533703833 -0.0271844623575 0.39 1.05145925803e-38
-0.103717295571 -0.0268359436093 0.385 4.06126563008e-39
-0.100672937209 -0.0264177211115 0.379 1.13454238411e-38
-0.098197512154 -0.0261389061129 0.375 1.22666612736e-38
-0.0965265060479 -0.0260692023633 0.374 4.61443940926e-39
-0.0933370885309 -0.0255812761159 0.367 8.85579851668e-39
-0.0919543168489 -0.0255812761159 0.367 1.19000367538e-38
-0.090571545167 -0.0255812761159 0.367 9.78025613307e-39
-0.0901608582097 -0.0258600911144 0.371 4.70951330617e-39
-0.0878060018031 -0.0255812761159 0.367 6.36794443351e-39
-0.0859522588398 -0.0254418686166 0.365 1.2176626446e-38
-0.0852721763096 -0.0256509798655 0.368 1.33751696342e-38
-0.0834297366571 -0.0255115723662 0.366 6.55269022174e-39
-0.0813781857557 -0.0253024611173 0.363 1.31911385082e-38
-0.0791288269162 -0.0250236461188 0.359 4.80241519046e-39
-0.0764763166598 -0.024605423621 0.353 5.17156204751e-39
-0.0753591727805 -0.0246751273706 0.354 9.04449736789e-39
-0.0744436046097 -0.0248145348699 0.356 9.41040302159e-39
-0.0733076218791 -0.0248842386195 0.357 5.99881158944e-39
-0.0711562250661 -0.024605423621 0.353 9.77883661773e-39
-0.069034970415 -0.0243266086224 0.349 4.98142966798e-39
-0.0667498177581 -0.0239780898743 0.344 5.2540634946e-39
-0.0650731599966 -0.023838682375 0.342 1.16130452231e-38
-0.063784582571 -0.023838682375 0.342 1.3919007963e-38
-0.0626787420024 -0.0239083861246 0.343 1.26297082785e-38
-0.0610284586327 -0.0237689786254 0.341 1.19000339512e-38
-0.0597436489773 -0.0237689786254 0.341 9.9646473928e-39
-0.0584588393218 -0.0237689786254 0.341 5.81728738637e-39
-0.057844692771 -0.0240477936239 0.345 5.35919310929e-39
-0.0565448120346 -0.0240477936239 0.345 7.75736128815e-39
-0.0552449312982 -0.0240477936239 0.345 6.37334503779e-39
-0.0533196007001 -0.0237689786254 0.341 6.4619407319e-39
-0.052339980435 -0.0239083861246 0.343 1.2358502375e-38
-0.0513452890889 -0.0240477936239 0.345 1.59483515835e-38
-0.0496102308885 -0.023838682375 0.342 1.57643232601e-38
-0.0483216534628 -0.023838682375 0.342 1.60409129523e-38
-0.0474456468796 -0.0240477936239 0.345 1.65948098014e-38
-0.0457444986115 -0.023838682375 0.342 1.48445333689e-38
-0.0447158973331 -0.0239780898743 0.344 1.49381667309e-38
-0.0439246655805 -0.0242569048728 0.348 1.54016630136e-38
-0.0422461239339 -0.0240477936239 0.345 1.08847960164e-38
-0.0410649279604 -0.0241174973735 0.346 6.09567914838e-39
-0.039646362461 -0.0240477936239 0.345 6.09459174077e-39
-0.0383464817246 -0.0240477936239 0.345 7.56863721357e-39
-0.0368318380839 -0.0239083861246 0.343 1.47573782096e-38
-0.0359539476155 -0.0241872011232 0.347 1.56782625149e-38
-0.0343469936037 -0.0239780898743 0.344 1.09762867931e-38
-0.0330508806375 -0.0239780898743 0.344 5.62893885978e-39
-0.0320316987847 -0.0241872011232 0.347 1.27287184228e-38
-0.0299273990998 -0.0235598673765 0.338 1.13421840391e-38
-0.0294168662309 -0.0241872011232 0.347 1.21719447078e-38
-0.0274613934709 -0.0236295711261 0.339 1.30017053766e-38
-0.0355602156244 -0.0337366148231 0.484 1.46601421091e-38
-0.0356883198129 -0.0356883198129 0.512 1.45672262119e-38
-0.0344845172178 -0.0364550610588 0.523 1.51189594562e-38
-0.0328869826316 -0.0368732835567 0.529 1.48416537005e-38
-0.0307186308524 -0.0366641723078 0.526 1.47516132677e-38
-0.0289006817066 -0.0368732835567 0.529 1.51200356534e-38
-0.0273144504311 -0.0374309135537 0.537 1.53955407406e-38
-0.0250556721659 -0.0370823948056 0.532 1.55795718666e-38
-0.0230078890348 -0.0370126910559 0.531 1.56717674965e-38
-0.021086326207 -0.0371520985552 0.533 1.57636071966e-38
-0.0190423108461 -0.0370823948056 0.532 1.56721332354e-38
-0.01706988312 -0.0371520985552 0.533 1.56717759043e-38
-0.0151464364071 -0.0373612098041 0.536 1.53969854793e-38
-0.0130779305395 -0.0372218023048 0.534 1.55806592742e-38
-0.0111073866985 -0.0373612098041 0.536 1.57639715342e-38
-0.00912177177649 -0.0375006173034 0.538 1.54884622431e-38
-0.00708152418584 -0.0374309135537 0.537 1.53058660467e-38
-0.00506765098694 -0.0375006173034 0.538 1.53044241106e-38
-0.00305189390292 -0.0376400248026 0.54 1.6592281859e-38
-0.00101918185276 -0.0377097285523 0.541 1.81574481658e-38
0.00101918185276 -0.0377097285523 0.541 1.61125753557e-38
0.00305189390292 -0.0376400248026 0.54 1.85024646633e-38
0.00508648983819 -0.0376400248026 0.54 1.85874674281e-38
0.0071606473611 -0.0378491360515 0.543 1.80346579865e-38
0.00917263667488 -0.0377097285523 0.541 1.64774202265e-38
0.0111695549076 -0.037570321053 0.539 1.06817114352e-38
0.0132493640859 -0.0377097285523 0.541 5.98983066758e-39
0.0152594695146 -0.0376400248026 0.54 5.44134843566e-39
0.017326091497 -0.0377097285523 0.541 5.43954496453e-39
0.0194360428373 -0.0378491360515 0.543 5.43954496453e-39
0.0214423804957 -0.0377794323019 0.542 5.43954216194e-39
0.0236145000451 -0.0379885435508 0.545 5.43954216194e-39
0.0257150319598 -0.0380582473004 0.546 5.5317349892e-39
0.0278739643133 -0.0381976547997 0.548 5.43953935934e-39
0.0298294370733 -0.0380582473004 0.546 5.43989528915e-39
0.0317698387523 -0.0379188398012 0.544 5.34769965929e-39
0.034006010396 -0.0381279510501 0.547 5.34806539818e-39
0.0357373008261 -0.0377794323019 0.542 5.44026102805e-39
0.0376400248026 -0.0376400248026 0.54 5.44026102805e-39
0.0399685068175 -0.0379188398012 0.544 5.44026102805e-39
0.042172652414 -0.0380582473004 0.546 5.25586976832e-39
0.0444728761519 -0.0382673585493 0.549 5.25586976832e-39
0.046880481342 -0.0385461735479 0.553 5.34806539818e-39
0.0484328026852 -0.0381279510501 0.547 5.53245665791e-39
0.0505860833834 -0.0381976547997 0.548 5.25694596554e-39
0.0523625870565 -0.0379885435508 0.545 5.16475033568e-39
0.0546157136663 -0.0381279510501 0.547 4.98035907595e-39
0.0566766839934 -0.0381279510501 0.547 5.07255470582e-39
0.0587376543204 -0.0381279510501 0.547 5.25586696572e-39
0.0607986246474 -0.0381279510501 0.547 5.25586696572e-39
0.0634341799377 -0.0384764697982 0.552 5.25586696572e-39
0.0652766195902 -0.038337062299 0.55 5.34806259559e-39
0.0675937982942 -0.0384764697982 0.552 5.44025822545e-39
0.0690425059555 -0.0381279510501 0.547 5.44025822545e-39
0.0713634524299 -0.0382673585493 0.549 5.34806259559e-39
0.0734319582974 -0.0382673585493 0.549 5.34806259559e-39
0.0753629405508 -0.0381976547997 0.548 5.43953935934e-39
0.0775689700325 -0.0382673585493 0.549 5.43953935934e-39
0.0799275942093 -0.0384067660486 0.551 5.43953935934e-39
0.0818548086924 -0.038337062299 0.55 5.43953935934e-39
0.0840796770253 -0.0384067660486 0.551 5.43882329582e-39
0.0858429935026 -0.0382673585493 0.549 5.43882329582e-39
0.0883918900771 -0.0384764697982 0.552 5.53101892569e-39
0.0904716992553 -0.0384764697982 0.552 5.53101892569e-39
0.0925515084336 -0.0384764697982 0.552 5.53101892569e-39
0.0944598840655 -0.0384067660486 0.551 5.53101892569e-39
0.0963607241569 -0.038337062299 0.55 5.43882329582e-39
0.0982540287078 -0.0382673585493 0.549 5.34662766596e-39
0.100322534575 -0.0382673585493 0.549 5.43954496453e-39
0.102204535815 -0.0381976547997 0.548 5.34734933467e-39
0.105410908299 -0.0386158772975 0.554 5.25515370481e-39
0.10633401201 -0.0381976547997 0.548 5.34734933467e-39
0.108398750107 -0.0381976547997 0.548 5.34734933467e-39
0.111269791038 -0.0384764697982 0.552 5.34734933467e-39
0.113965630652 -0.0386855810472 0.555 5.34734933467e-39
0.115220298146 -0.0384067660486 0.551 5.34734933467e-39
0.117296339554 -0.0384067660486 0.551 5.25586696572e-39
0.12023896812 -0.0386855810472 0.555 5.16367413846e-39
0.121007593251 -0.0382673585493 0.549 5.25515370481e-39
0.122403552128 -0.0380582473004 0.546 5.254797775e-39
0.122637153884 -0.0375006173034 0.538 5.34699340486e-39
0.120029856871 -0.0361065423107 0.518 5.43882890102e-39
0.120804133657 -0.0357580235625 0.513 5.34663046856e-39
0.121779986152 -0.035479208564 0.509 5.43882609842e-39
0.126857056565 -0.0363853573092 0.522 5.16223920883e-39
0.129317410538 -0.0365247648085 0.524 5.34663046856e-39
0.130540051984 -0.0363156535596 0.521 5.43882609842e-39
0.131740086809 -0.0361065423107 0.518 5.25443483869e-39
0.133175607275 -0.0359671348114 0.516 5.25515370481e-39
0.135643496789 -0.0361065423107 0.518 5.25515370481e-39
0.135470179357 -0.0355489123136 0.51 5.34734933467e-39
0.135505973175 -0.0350609860662 0.503 5.34734933467e-39
0.136581671581 -0.0348518748173 0.5 5.34734933467e-39
0.137357832253 -0.0345730598187 0.496 5.43954496453e-39
0.137823151879 -0.0342245410705 0.491 5.5317405944e-39
0.138535260456 -0.033945726072 0.487 5.5317405944e-39
0.137776054751 -0.0333183923253 0.478 5.5317405944e-39
0.138409040153 -0.0330395773268 0.474 5.5317405944e-39
0.139011883393 -0.0327607623282 0.47 5.62393622426e-39
0.139584584471 -0.0324819473297 0.466 5.62393622426e-39
0.141037059902 -0.03241224358 0.465 5.62393342166e-39
0.14002541359 -0.0317849098333 0.456 5.5317377918e-39
0.140500152642 -0.0315060948348 0.452 5.5317377918e-39
0.139686314268 -0.0309484648377 0.444 5.5317377918e-39
0.141995957431 -0.031087872337 0.446 5.43954496453e-39
0.141743516824 -0.0306696498392 0.44 5.34734933467e-39
0.142423599355 -0.0304605385903 0.437 5.34734933467e-39
0.142092035573 -0.0300423160925 0.431 5.25515370481e-39
0.140714915546 -0.0294149823458 0.422 5.16295246975e-39
0.140618837405 -0.0290664635976 0.417 4.97856121002e-39
0.141508031184 -0.0289270560983 0.415 4.70197432043e-39
0.143071655838 -0.0289270560983 0.415 4.51758306071e-39
0.140801574262 -0.0281603148523 0.404 4.5175858633e-39
0.140210034332 -0.0277420923545 0.398 4.42539023344e-39
0.142421715469 -0.0278814998538 0.4 4.33319460358e-39
0.142489535334 -0.0276026848553 0.396 4.24099897371e-39
0.143981572353 -0.0276026848553 0.396 4.51579360257e-39
0.142167390978 -0.0269753511086 0.387 4.51579500387e-39
0.141398765846 -0.0265571286107 0.381 4.423599374e-39
0.142459393172 -0.0264874248611 0.38 4.1466565546e-39
0.143133824047 -0.0263480173618 0.378 4.05446092474e-39
0.144175612521 -0.0262783136122 0.377 4.23920811428e-39
0.144437472553 -0.0260692023633 0.374 4.23920811428e-39
0.143116869081 -0.0255812761159 0.367 3.87042419352e-39
0.142137248816 -0.0251630536181 0.361 2.9491895636e-39
0.143497413876 -0.0251630536181 0.361 3.31797208305e-39
0.14325250881 -0.0248842386195 0.357 4.700906531e-39
0.143787532185 -0.0247448311203 0.355 5.34627594005e-39
0.146760302913 -0.0250236461188 0.359 5.07004638156e-39
0.143162082324 -0.0241872011232 0.347 4.60906823225e-39
0.141555128312 -0.0236992748757 0.34 4.42467697252e-39
0.149557872324 -0.0248145348699 0.356 4.51687260238e-39
0.136487477325 -0.0224446073823 0.322 4.60978429576e-39
0.128720218953 -0.02098082864 0.301 4.70197992563e-39
0.126403040249 -0.0204231986429 0.293 4.88637118535e-39
0.123155222293 -0.0197261611466 0.283 4.79417555549e-39
0.119832048932 -0.0190291236502 0.273 4.88637118535e-39
0.115105381153 -0.018122974905 0.26 4.97856681522e-39
0.116085001418 -0.018122974905 0.26 5.16295807494e-39
0.116614373139 -0.0180532711553 0.259 5.25515370481e-39
0.117590225633 -0.0180532711553 0.259 5.16367413846e-39
0.118108294043 -0.0179835674057 0.258 5.16367413846e-39
0.119080378767 -0.0179835674057 0.258 5.071475706e-39
0.12144842237 -0.0181926786546 0.261 4.88708444627e-39
0.121024548217 -0.0179835674057 0.258 5.25514809961e-39
0.123415198441 -0.0181926786546 0.261 5.25515090221e-39
0.123445340603 -0.0180532711553 0.259 5.25515370481e-39
0.123460411684 -0.0179138636561 0.257 5.254797775e-39
0.124428728638 -0.0179138636561 0.257 5.34734933467e-39
0.125397045592 -0.0179138636561 0.257 5.34734933467e-39
0.1278404446 -0.018122974905 0.26 5.43954496453e-39
0.128820064865 -0.018122974905 0.26 5.62393622426e-39
0.131796603363 -0.0184017899035 0.264 5.71541298801e-39
0.131785300052 -0.0182623824042 0.262 6.17639113733e-39
0.13175892566 -0.018122974905 0.26 6.45297802692e-39
0.132228013057 -0.0180532711553 0.259 6.72956491651e-39
0.133203865552 -0.0180532711553 0.259 6.823195476e-39
0.135215854865 -0.0181926786546 0.261 6.91539110586e-39
0.139852096159 -0.018680604902 0.268 7.09978236559e-39
0.488585607235 -0.0634304121674 0.91 7.5607605149e-39
0.514181954432 -0.0662882659024 0.951 7.65295614477e-39
0.524842860356 -0.0671944146477 0.964 7.92882416825e-39
0.542728465735 -0.0690067121382 0.99 8.02101979811e-39
0.542594709891 -0.0685187858907 0.983 8.02101979811e-39
0.546298428048 -0.0685187858907 0.983 8.02101979811e-39
0.543287979617 -0.0676823408951 0.971 8.2976066877e-39
0.566098060714 -0.0700522683827 1.005 8.2976066877e-39
0.560811879053 -0.0689370083885 0.989 8.2976066877e-39
0.559400849094 -0.0683096746418 0.98 8.48199794743e-39
0.579756227872 -0.0703310833812 1.009 8.5749096408e-39
0.568520736985 -0.0685187858907 0.983 8.5749096408e-39
0.565239009097 -0.0676823408951 0.971 8.48271401094e-39
0.54956320097 -0.0653821171572 0.938 8.5749096408e-39
0.571467133321 -0.067124710898 0.963 8.66710527067e-39
0.576887070826 -0.0673338221469 0.966 8.66710527067e-39
-0.310539624047 -0.0342867092797 0.52 7.28345195661e-39
-0.307986959703 -0.0342207733003 0.519 7.28345195661e-39
-0.304852174854 -0.0340889013415 0.517 7.37564758647e-39
-0.303490125909 -0.0341548373209 0.518 7.46784601893e-39
-0.301538420919 -0.0341548373209 0.518 7.2834547592e-39
-0.299586715929 -0.0341548373209 0.518 7.19125912934e-39
-0.297060425976 -0.0340889013415 0.517 7.19125912934e-39
-0.296254123143 -0.0342207733003 0.519 7.37636925518e-39
-0.294865699805 -0.0342867092797 0.52 7.37636925518e-39
-0.292906459275 -0.0342867092797 0.52 7.37636925518e-39
-0.291506732627 -0.0343526452591 0.521 7.19197799545e-39
-0.287320739879 -0.0340889013415 0.517 7.19197799545e-39
-0.288684672709 -0.0344845172178 0.523 7.28417362531e-39
-0.283973076011 -0.0341548373209 0.518 7.28417362531e-39
-0.280388042618 -0.0339570293828 0.515 7.28417362531e-39
-0.279528991001 -0.0340889013415 0.517 7.37565038907e-39
-0.27650723926 -0.0339570293828 0.515 7.2834547592e-39
-0.27403369809 -0.0338910934034 0.514 7.19125632674e-39
-0.272626435902 -0.0339570293828 0.515 7.09906069688e-39
-0.270686034223 -0.0339570293828 0.515 7.00758393313e-39
-0.270832977262 -0.0342207733003 0.519 7.09977676039e-39
-0.268359436093 -0.0341548373209 0.518 7.19197239026e-39
-0.266407731103 -0.0341548373209 0.518 7.09977676039e-39
-0.265477091851 -0.0342867092797 0.52 7.09977676039e-39
-0.263517851321 -0.0342867092797 0.52 7.28416802012e-39
-0.259546621477 -0.0340229653621 0.516 7.19197519285e-39
-0.258101681586 -0.0340889013415 0.517 7.19197519285e-39
-0.25516282079 -0.0339570293828 0.515 7.2834547592e-39
-0.253714113129 -0.0340229653621 0.516 7.2834547592e-39
-0.250794091185 -0.0338910934034 0.514 7.37565319166e-39
-0.249825774231 -0.0340229653621 0.516 7.46784882153e-39
-0.248361995488 -0.0340889013415 0.517 7.28345195661e-39
-0.245460812395 -0.0339570293828 0.515 7.19125632674e-39
-0.244466121049 -0.0340889013415 0.517 7.09906069688e-39
-0.241580009037 -0.0339570293828 0.515 7.19125632674e-39
-0.241035566236 -0.0341548373209 0.518 7.09906069688e-39
-0.237237653824 -0.0338910934034 0.514 7.09906069688e-39
-0.235758804 -0.0339570293828 0.515 7.09906069688e-39
-0.234272418636 -0.0340229653621 0.516 7.00686506702e-39
-0.233228746277 -0.0341548373209 0.518 7.19125632674e-39
-0.230384079738 -0.0340229653621 0.516 7.09906069688e-39
-0.227997197284 -0.0339570293828 0.515 7.09906069688e-39
-0.226056795605 -0.0339570293828 0.515 7.19125632674e-39
-0.22455157139 -0.0340229653621 0.516 7.09906069688e-39
-0.224333040716 -0.0342867092797 0.52 6.91466943715e-39
-0.221090874415 -0.0340889013415 0.517 7.00686506702e-39
-0.219566811349 -0.0341548373209 0.518 7.00686506702e-39
-0.215514574444 -0.033825157424 0.513 6.91467223975e-39
-0.213165369693 -0.0337592214446 0.512 6.82247660989e-39
-0.211236271325 -0.0337592214446 0.512 6.82247660989e-39
-0.210124779101 -0.0338910934034 0.514 6.91467223975e-39
-0.208998215796 -0.0340229653621 0.516 6.91467223975e-39
-0.206652778815 -0.0339570293828 0.515 6.82247660989e-39
-0.20590487642 -0.0341548373209 0.518 6.82247660989e-39
-0.205134367404 -0.0343526452591 0.521 6.82247660989e-39
-0.20161150222 -0.0340889013415 0.517 6.8231926734e-39
-0.19927736855 -0.0340229653621 0.516 6.73099704354e-39
-0.197715627781 -0.0340889013415 0.517 6.73099704354e-39
-0.195389029651 -0.0340229653621 0.516 6.73099704354e-39
-0.192320180782 -0.033825157424 0.513 6.54660578381e-39
-0.190758440013 -0.0338910934034 0.514 6.63880141367e-39
-0.189556521303 -0.0340229653621 0.516 6.54660578381e-39
-0.188339531512 -0.0341548373209 0.518 6.27001889422e-39
-0.186028004464 -0.0340889013415 0.517 6.45297802692e-39
-0.182299795801 -0.0337592214446 0.512 6.54409465696e-39
-0.181427556988 -0.0339570293828 0.515 6.54409465696e-39
-0.179138636561 -0.0338910934034 0.514 6.36078239705e-39
-0.176857251674 -0.033825157424 0.513 6.5458897203e-39
-0.173901435912 -0.0336273494858 0.51 6.7288390439e-39
-0.172317088522 -0.0336932854652 0.511 7.37060851719e-39
-0.169057967255 -0.0334295415477 0.507 8.01309965919e-39
-0.168136747429 -0.0336273494858 0.51 1.22403953352e-38
-0.146334544875 -0.0296052547434 0.449 1.26077401224e-38
-0.140132795042 -0.028682151032 0.435 1.26073869952e-38
-0.134991672535 -0.0279568552588 0.424 1.18734246947e-38
-0.132450311501 -0.0277590473207 0.421 1.04966153223e-38
-0.131174921272 -0.0278249833 0.422 9.02976551713e-39
-0.130813215328 -0.0280887272176 0.426 7.92810530213e-39
-0.130118061716 -0.0282865351557 0.429 7.74587764724e-39
-0.128801226014 -0.0283524711351 0.43 8.02496165069e-39
-0.126885314841 -0.0282865351557 0.429 8.7625266896e-39
-0.124100932626 -0.0280227912382 0.425 6.08885062096e-39
-0.121058458149 -0.0276931113413 0.42 3.87687437035e-39
-0.114640061527 -0.0265721996917 0.403 1.08837408387e-38
-0.111998854582 -0.0263084557742 0.399 1.06993495789e-38
-0.108556996458 -0.0258469039185 0.392 1.15298263112e-38
-0.105714213804 -0.0255172240216 0.387 5.90589288956e-39
-0.103178504425 -0.0252534801041 0.383 5.07506162877e-39
-0.101735448419 -0.0252534801041 0.383 1.22670242099e-38
-0.0989830922513 -0.0249238002071 0.378 1.22670242099e-38
-0.0962684137858 -0.0245941203102 0.373 4.98358486502e-39
-0.0935914130228 -0.0242644404133 0.368 6.55198957251e-39
-0.0922048735706 -0.0242644404133 0.368 1.22688220759e-38
-0.0898311783128 -0.0240006964958 0.364 1.00561269591e-38
-0.0894317946662 -0.0242644404133 0.368 5.53783764401e-39
-0.088045255214 -0.0242644404133 0.368 5.07865035414e-39
-0.0854812875585 -0.0239347605164 0.363 1.24535776732e-38
-0.0852721763096 -0.0242644404133 0.368 1.13472259109e-38
-0.0829738364568 -0.0240006964958 0.364 4.89388494772e-39
-0.080705638766 -0.0237369525782 0.36 1.42056435639e-38
-0.0789084123565 -0.0236050806195 0.358 6.55448808767e-39
-0.0764763166598 -0.0232754007226 0.353 5.7250917565e-39
-0.0762106888571 -0.0236050806195 0.358 5.63326186554e-39
-0.0744436046097 -0.0234732086607 0.356 4.15417592216e-39
-0.0731022784005 -0.0234732086607 0.356 8.57921162709e-39
-0.0709546493577 -0.0232094647432 0.352 3.87724010925e-39
