VERSION .7
FIELDS x y z rgb
SIZE 4 4 4 4
TYPE F F F F
COUNT 1 1 1 1
WIDTH 861
HEIGHT 1
VIEWPOINT 0 0 0 1 0 0 0
POINTS 861
DATA ascii
0.121388138046 0.0124619001036 0.245 6.36149846057e-39
0.122810471316 0.012512765002 0.246 6.36149846057e-39
0.125246334782 0.0126653596971 0.249 6.45369409043e-39
0.126691274674 0.0127162245955 0.25 6.5458897203e-39
0.130185881581 0.0129705490874 0.255 6.5458897203e-39
0.129089460438 0.0127670894939 0.251 6.63808815276e-39
0.13107130759 0.0128688192906 0.253 6.73028378262e-39
0.130980881104 0.0127670894939 0.251 6.823195476e-39
0.131926591437 0.0127670894939 0.251 7.00758673572e-39
0.138695390692 0.0133266033761 0.262 7.28417362531e-39
0.47203190864 0.0440998668971 0.867 7.74622516925e-39
0.497226988305 0.0461344628324 0.907 7.83842079912e-39
0.508924031048 0.0468974363081 0.922 8.20612712135e-39
0.515176645778 0.0471517608001 0.927 8.20612712135e-39
0.524264507623 0.0476604097839 0.937 8.5749096408e-39
0.535680851482 0.0483725183612 0.951 8.5749096408e-39
0.531325309072 0.0476604097839 0.937 8.75858483702e-39
0.543988784884 0.048474248158 0.953 8.85078046688e-39
0.529767336074 0.0468974363081 0.922 8.94297609674e-39
0.551170154982 0.048474248158 0.953 8.94297609674e-39
0.567567491112 0.0495932759224 0.975 8.94297609674e-39
0.570655178832 0.049542411024 0.974 8.94297609674e-39
0.574324987056 0.049542411024 0.974 8.94297609674e-39
0.57265398095 0.0490846269386 0.965 9.12736735647e-39
0.577484262411 0.0491863567353 0.967 9.21956298633e-39
-0.298595792353 0.0273163343162 0.5 8.48199514483e-39
-0.296711907228 0.0273163343162 0.5 8.38979951497e-39
-0.294828022103 0.0273163343162 0.5 8.38979951497e-39
-0.29177236043 0.027207068979 0.498 8.66638640456e-39
-0.291060251852 0.0273163343162 0.5 8.57419077469e-39
-0.28975471946 0.0273709669849 0.501 8.48199514483e-39
-0.286143311675 0.027207068979 0.498 8.48199514483e-39
-0.284837779283 0.0272617016476 0.499 8.39051838108e-39
-0.28125651366 0.0270978036417 0.496 8.39051838108e-39
-0.284457234488 0.0275894976594 0.505 8.39051838108e-39
-0.280875968865 0.0274255996535 0.502 8.39051838108e-39
-0.277873055975 0.0273163343162 0.5 8.39051838108e-39
-0.277093127534 0.0274255996535 0.502 8.39051838108e-39
-0.275749917439 0.0274802323221 0.503 8.48271401094e-39
-0.271676957798 0.0272617016476 0.499 8.48271401094e-39
-0.268174815351 0.0270978036417 0.496 8.48199514483e-39
-0.265769094046 0.0270431709731 0.495 8.38979951497e-39
-0.263370908281 0.0269885383044 0.494 8.2976066877e-39
-0.262568373218 0.0270978036417 0.496 8.20541105784e-39
-0.260173955224 0.0270431709731 0.495 8.2976066877e-39
-0.25830890895 0.0270431709731 0.495 8.2976066877e-39
-0.256961931085 0.0270978036417 0.496 8.38979951497e-39
-0.253550215123 0.0269339056358 0.493 8.38979951497e-39
-0.253734835865 0.0271524363103 0.497 8.38980231756e-39
-0.251862254051 0.0271524363103 0.497 8.2976066877e-39
-0.250492669565 0.027207068979 0.498 8.20541105784e-39
-0.24861631998 0.027207068979 0.498 8.2976066877e-39
-0.246739970395 0.027207068979 0.498 8.20541105784e-39
-0.244863620811 0.027207068979 0.498 8.02101979811e-39
-0.241035566236 0.0269885383044 0.494 8.02101979811e-39
-0.23965844621 0.0270431709731 0.495 8.20541105784e-39
-0.237793399936 0.0270431709731 0.495 8.11321542797e-39
-0.237834845408 0.0272617016476 0.499 8.11321542797e-39
-0.235481872887 0.027207068979 0.498 8.11321542797e-39
-0.231729173717 0.0269885383044 0.494 8.11321542797e-39
-0.230798534465 0.0270978036417 0.496 8.02101979811e-39
-0.228929720421 0.0270978036417 0.496 8.02101979811e-39
-0.227976474548 0.027207068979 0.498 8.02101979811e-39
-0.225646108648 0.0271524363103 0.497 8.02101979811e-39
-0.223323278288 0.0270978036417 0.496 8.20540825524e-39
-0.221454464244 0.0270978036417 0.496 8.20540825524e-39
-0.219142937196 0.0270431709731 0.495 8.20540825524e-39
-0.218594726624 0.027207068979 0.498 8.20540825524e-39
-0.214977667184 0.0269885383044 0.494 7.92882136565e-39
-0.212684978986 0.0269339056358 0.493 8.02101699551e-39
-0.211255110176 0.0269885383044 0.494 8.02101699551e-39
-0.212784824898 0.0274255996535 0.502 8.11321262538e-39
-0.208792872317 0.0271524363103 0.497 8.02101979811e-39
-0.20650395189 0.0270978036417 0.496 8.02101979811e-39
-0.204222567003 0.0270431709731 0.495 8.02101979811e-39
-0.202357520729 0.0270431709731 0.495 8.02101979811e-39
-0.202112615663 0.0272617016476 0.499 7.92882416825e-39
-0.201035033372 0.0273709669849 0.501 8.02101979811e-39
-0.20033987976 0.0275348649908 0.504 8.11321542797e-39
-0.197653459572 0.0274255996535 0.502 8.02101979811e-39
-0.194592146243 0.0272617016476 0.499 8.11321542797e-39
-0.193098225339 0.0273163343162 0.5 8.02101979811e-39
-0.191214340214 0.0273163343162 0.5 8.02101979811e-39
-0.188573133268 0.027207068979 0.498 8.02101979811e-39
-0.187071676823 0.0272617016476 0.499 7.92882416825e-39
-0.184820434098 0.027207068979 0.498 7.92882416825e-39
-0.182944084514 0.027207068979 0.498 7.92882416825e-39
-0.181794914587 0.0273163343162 0.5 7.83662853838e-39
-0.178471741226 0.0270978036417 0.496 7.83662853838e-39
-0.176602927182 0.0270978036417 0.496 7.92882416825e-39
-0.175086399656 0.0271524363103 0.497 8.02101979811e-39
-0.173910855338 0.0272617016476 0.499 8.11321542797e-39
-0.171685987005 0.027207068979 0.498 8.02101979811e-39
-0.170491603836 0.0273163343162 0.5 8.02101979811e-39
-0.168270503273 0.0272617016476 0.499 8.02101979811e-39
-0.166723833585 0.0273163343162 0.5 8.02101979811e-39
-0.163521228872 0.0270978036417 0.496 8.11321262538e-39
-0.162956063335 0.0273163343162 0.5 8.20540825524e-39
-0.161394322566 0.0273709669849 0.501 8.11356855519e-39
-0.159188293084 0.0273163343162 0.5 8.02137292532e-39
-0.158562843223 0.0275348649908 0.504 8.02137292532e-39
-0.156042204925 0.0274255996535 0.502 8.02101699551e-39
-0.154150784259 0.0274255996535 0.502 8.02101979811e-39
-0.152865974604 0.0275348649908 0.504 8.02102260071e-39
-0.150068405193 0.0273709669849 0.501 7.92882416825e-39
-0.147589212368 0.0272617016476 0.499 7.92882416825e-39
-0.146001097207 0.0273163343162 0.5 7.92882136565e-39
-0.144117212082 0.0273163343162 0.5 7.92882136565e-39
-0.143086726919 0.0274802323221 0.503 7.92954023176e-39
-0.140910839599 0.0274255996535 0.502 7.92953742916e-39
-0.139019418933 0.0274255996535 0.502 7.92953742916e-39
-0.137401161611 0.0274802323221 0.503 7.92953742916e-39
-0.134697786456 0.0273163343162 0.5 7.83662853838e-39
-0.132548273528 0.0272617016476 0.499 7.83662853838e-39
-0.132239316367 0.0275894976594 0.505 7.83662853838e-39
-0.130336592391 0.0275894976594 0.505 7.83662853838e-39
-0.128179543922 0.0275348649908 0.504 8.02101979811e-39
-0.126280587716 0.0275348649908 0.504 8.02101979811e-39
-0.124628420461 0.0275894976594 0.505 8.02101979811e-39
-0.122239654123 0.0274802323221 0.503 8.02101979811e-39
-0.120344465687 0.0274802323221 0.503 8.02101699551e-39
-0.118449277251 0.0274802323221 0.503 8.02101699551e-39
-0.117017524555 0.0275894976594 0.505 8.02101699551e-39
-0.115342750679 0.027644130328 0.506 8.02101699551e-39
-0.113212076602 0.0275894976594 0.505 8.02173586162e-39
-0.111088938066 0.0275348649908 0.504 8.02173586162e-39
-0.10918998186 0.0275348649908 0.504 8.11393149149e-39
-0.107078146634 0.0274802323221 0.503 8.11393149149e-39
-0.106019403194 0.0276987629967 0.507 8.38979951497e-39
-0.103493113241 0.0275348649908 0.504 8.38979951497e-39
-0.101795732743 0.0275894976594 0.505 8.38979951497e-39
-0.0996952008286 0.0275348649908 0.504 8.38979951497e-39
-0.0985724052939 0.0277533956653 0.508 8.48199514483e-39
-0.096468105609 0.0276987629967 0.507 8.48199514483e-39
-0.0947443507194 0.0277533956653 0.508 8.48199514483e-39
-0.0928303234322 0.0277533956653 0.508 8.48199514483e-39
-0.090737327058 0.0276987629967 0.507 8.66638640456e-39
-0.088827067541 0.0276987629967 0.507 8.66638640456e-39
-0.0870882415704 0.0277533956653 0.508 8.57419077469e-39
-0.085006548507 0.0276987629967 0.507 8.57419077469e-39
-0.0829323909841 0.027644130328 0.506 8.66638640456e-39
-0.0813461597086 0.0277533956653 0.508 8.75858203442e-39
-0.0797448573521 0.0278626610026 0.51 8.75858203442e-39
-0.0778232945244 0.0278626610026 0.51 8.75858203442e-39
-0.0761993855464 0.0279719263398 0.512 8.75893796423e-39
-0.0742702871781 0.0279719263398 0.512 8.75893796423e-39
-0.0723411888099 0.0279719263398 0.512 8.75858203442e-39
-0.0695869487567 0.027644130328 0.506 8.75858203442e-39
-0.0678142128539 0.0276987629967 0.507 8.75858203442e-39
-0.0656439771896 0.0275894976594 0.505 8.75858203442e-39
-0.0646247953368 0.0279719263398 0.512 8.85078046688e-39
-0.0629406020348 0.0280811916771 0.514 8.94297609674e-39
-0.0608852833632 0.0280265590084 0.513 9.03445566309e-39
-0.0589524172247 0.0280265590084 0.513 9.03445566309e-39
-0.0569084018638 0.0279719263398 0.512 9.03445566309e-39
-0.0549793034955 0.0279719263398 0.512 9.03445566309e-39
-0.0529465914453 0.0279172936712 0.511 8.94297609674e-39
-0.0516203363172 0.028245089683 0.517 8.94297609674e-39
-0.0478469144113 0.027207068979 0.498 9.03517172661e-39
-0.0432012536924 0.02556808892 0.468 9.03517172661e-39
-0.0409952242107 0.0252949255768 0.463 9.03516892401e-39
-0.0387420976009 0.024967129565 0.457 9.03516892401e-39
-0.0379113042607 0.02556808892 0.468 9.03516892401e-39
-0.0344487234004 0.0243661702101 0.446 9.03516892401e-39
-0.0304906807523 0.0226725574825 0.415 8.94297329415e-39
-0.0272541661071 0.0213613734353 0.391 9.03516892401e-39
-0.0241985044339 0.0200501893881 0.367 9.03516892401e-39
-0.0215102003602 0.0189029033468 0.346 8.85077766428e-39
-0.0196809479036 0.0184112093291 0.337 8.85078326948e-39
-0.0183019439919 0.0183019439919 0.335 8.85078326948e-39
-0.0168871462628 0.018138045986 0.332 8.85078326948e-39
-0.0156833436678 0.0181926786546 0.333 8.85078326948e-39
-0.0146453229637 0.0184658419978 0.338 8.94297889934e-39
-0.0132926934438 0.0183565766605 0.336 8.94297889934e-39
-0.0119909288223 0.0183019439919 0.335 8.94297889934e-39
-0.0107607518355 0.0183565766605 0.336 8.94297889934e-39
-0.00955129758505 0.0184658419978 0.338 9.58690637226e-39
-0.00820431972049 0.0183019439919 0.335 8.01706673514e-39
-0.00698356215933 0.0184112093291 0.337 5.15576941382e-39
-0.00576468848329 0.018575107335 0.34 4.78663096456e-39
-0.0044308978146 0.0183565766605 0.336 3.13034662647e-39
-0.00320260471294 0.018575107335 0.34 4.2406458465e-39
-0.00192156282776 0.018575107335 0.34 9.03661366273e-39
-0.000640520942587 0.018575107335 0.34 1.27251521182e-38
0.000638637057462 0.0185204746664 0.339 1.23567255285e-38
0.00194982110464 0.0188482706782 0.345 1.19879430091e-38
0.00325912126669 0.0189029033468 0.346 1.12521744348e-38
0.00452320818574 0.0187390053409 0.343 1.13450861282e-38
0.00581555338167 0.0187390053409 0.343 1.21748439944e-38
0.00717006678673 0.0189029033468 0.346 1.30971548215e-38
0.00842473428015 0.0187936380096 0.344 1.32815432786e-38
0.00986213863072 0.0190668013527 0.349 1.37418025618e-38
0.0111130383539 0.0189575360155 0.347 1.42034995773e-38
0.012527836083 0.0191214340214 0.35 1.42949791436e-38
0.0138861172583 0.01917606669 0.351 1.29113258295e-38
0.0149919578268 0.0189029033468 0.346 2.19464989575e-38
0.0165310919741 0.01917606669 0.351 2.23134864136e-38
0.0177518495353 0.0190668013527 0.349 2.24053289162e-38
0.0194492300332 0.0194492300332 0.356 2.24964469476e-38
0.0208489566812 0.0195038627018 0.357 2.24957308841e-38
0.0221940506607 0.0195038627018 0.357 2.25879293165e-38
0.0232094647432 0.0192306993586 0.352 2.25879293165e-38
0.0245357198713 0.0192306993586 0.352 2.25879293165e-38
0.0257885034796 0.01917606669 0.351 2.25879293165e-38
0.0271882301277 0.0192306993586 0.352 2.25879293165e-38
0.0286764993767 0.0193399646959 0.354 2.25879293165e-38
0.0300102900453 0.0193399646959 0.354 2.25879293165e-38
0.0318753363193 0.0196677607077 0.36 2.25879293165e-38
0.0330471128673 0.0195584953704 0.358 2.25879293165e-38
0.0346842090411 0.0197223933763 0.361 2.25879293165e-38
0.0357448363666 0.0195584953704 0.358 2.25879293165e-38
0.0373009254801 0.0196677607077 0.36 2.25879293165e-38
0.0386573227703 0.0196677607077 0.36 2.25879293165e-38
0.0397914216157 0.0195584953704 0.358 2.25879293165e-38
0.0414850343433 0.0197223933763 0.361 2.25879293165e-38
0.0428451994037 0.0197223933763 0.361 2.25879293165e-38
0.0445727220636 0.0198862913822 0.364 2.26794088829e-38
0.0455655295246 0.0197223933763 0.361 2.26794088829e-38
0.0466657184377 0.0196131280391 0.359 2.26794060803e-38
0.0484196154894 0.0197770260449 0.362 2.25879265139e-38
0.0499210719342 0.0198316587136 0.363 2.24960868139e-38
0.0514300639195 0.0198862913822 0.364 2.24968042787e-38
0.0535268280639 0.0201594547254 0.369 2.24968042787e-38
0.0543218275868 0.0199409240508 0.365 2.23134892162e-38
0.0558496584234 0.0199955567195 0.366 2.16731490673e-38
0.0578541121966 0.020214087394 0.37 2.15805933037e-38
0.0595684476606 0.0203233527313 0.372 2.12110919182e-38
0.0604783641761 0.0201594547254 0.369 2.17621076977e-38
0.0613656740701 0.0199955567195 0.366 2.33244013426e-38
0.0636018457138 0.0202687200626 0.371 2.27669115642e-38
0.0648244871601 0.020214087394 0.37 2.22087057222e-38
0.0663975312397 0.0202687200626 0.371 2.00860482357e-38
0.0674299002883 0.0201594547254 0.369 1.84254563061e-38
0.0690067121382 0.020214087394 0.37 1.69528387565e-38
0.0700202423356 0.0201048220567 0.368 1.60355515843e-38
0.0719889022914 0.0202687200626 0.371 2.28630588557e-38
0.0739801688688 0.0204326180685 0.374 2.22216453122e-38
0.0749861635257 0.0203233527313 0.372 2.19472178236e-38
0.0770038044949 0.0204872507372 0.375 2.16717169403e-38
0.0777893845921 0.0203233527313 0.372 2.1579524113e-38
0.0796167531636 0.0204326180685 0.374 2.17628265638e-38
0.0805926056585 0.0203233527313 0.372 2.17628265638e-38
0.082435045311 0.0204326180685 0.374 2.18550221937e-38
0.0851892853641 0.0207604140803 0.38 2.18550207924e-38
0.0863930879592 0.0207057814117 0.379 2.20394120521e-38
0.0873576371433 0.0205965160744 0.377 2.18557396585e-38
0.089249057809 0.0207057814117 0.379 2.17635412261e-38
0.0909162961449 0.0207604140803 0.38 2.13036420766e-38
0.0923480488401 0.0207604140803 0.38 2.09337833599e-38
0.0935330125839 0.0207057814117 0.379 2.04728052106e-38
0.0952115542305 0.0207604140803 0.38 2.04728052106e-38
0.0974062804014 0.0209243120862 0.383 2.03806095807e-38
0.10039788998 0.021252108098 0.389 2.03806095807e-38
0.102910992737 0.0214706387726 0.393 2.03806095807e-38
0.108641771288 0.0223447614707 0.409 2.02884139508e-38
0.1193422388 0.0242022722042 0.443 2.02884139508e-38
0.124835647825 0.024967129565 0.457 2.0103303825e-38
0.127665243283 0.0251856602396 0.461 2.02876950847e-38
0.128560088718 0.0250217622337 0.458 2.06564776042e-38
0.130001260839 0.024967129565 0.457 2.09330644938e-38
0.130281959722 0.0246939662219 0.452 2.09330644938e-38
0.12964897432 0.0242569048728 0.444 2.05642819743e-38
0.130434554417 0.0240930068669 0.441 2.05642819743e-38
0.132096141098 0.0240930068669 0.441 2.02876950847e-38
0.131634589242 0.0237105781865 0.434 1.92789353527e-38
0.131734435154 0.0234374148433 0.429 2.00107396536e-38
0.131485762317 0.0231096188315 0.423 2.3502297584e-38
0.132450311501 0.0230003534943 0.421 2.07173542134e-38
0.132763036432 0.0227818228197 0.417 1.82100809361e-38
0.133045619201 0.0225632921452 0.413 2.11488196157e-38
0.133298059808 0.0223447614707 0.409 2.29880518761e-38
0.132201638665 0.0219077001216 0.401 2.24359542942e-38
0.133712514535 0.0219077001216 0.401 2.19767852212e-38
0.133537313219 0.0216345367785 0.396 2.17923939614e-38
0.13468836703 0.0215799041098 0.395 2.15161700081e-38
0.133763379434 0.0211974754294 0.388 2.10562708587e-38
0.134179718046 0.0210335774235 0.385 2.07804028352e-38
0.133164303964 0.0206511487431 0.378 2.05963717092e-38
0.134588521119 0.0206511487431 0.378 2.0596727639e-38
0.134933272097 0.0204872507372 0.375 2.03208610168e-38
0.135982596111 0.0204326180685 0.374 2.0503813143e-38
0.135922311787 0.020214087394 0.37 2.0503813143e-38
0.13768751215 0.0202687200626 0.371 2.05041760793e-38
0.136461102933 0.0198862913822 0.364 2.05041760793e-38
0.136696588574 0.0197223933763 0.361 2.01364725597e-38
0.137674324954 0.0196677607077 0.36 2.01364725597e-38
0.13671354354 0.0193399646959 0.354 1.99524442362e-38
0.13843729843 0.0193945973645 0.355 1.98602486064e-38
0.139774856868 0.0193945973645 0.355 1.98602486064e-38
0.1391249165 0.0191214340214 0.35 1.97680529765e-38
0.140042368556 0.0190668013527 0.349 1.97676928428e-38
0.139737179166 0.0188482706782 0.345 1.96751412831e-38
0.140219453758 0.0187390053409 0.343 1.94914688895e-38
0.141924369796 0.0187936380096 0.344 1.93081566296e-38
0.139057096636 0.0182473113232 0.334 1.91241255036e-38
0.137374787219 0.0178648826428 0.327 1.894045311e-38
0.141997841316 0.0183019439919 0.335 1.89408090398e-38
0.142832402427 0.0182473113232 0.334 1.88486134099e-38
0.129854317799 0.0164444332584 0.301 1.88486134099e-38
0.126201464541 0.0158434739034 0.29 1.90330046696e-38
0.12378255604 0.0154064125544 0.282 1.87575023851e-38
0.121303363215 0.0149693512053 0.274 1.75640038713e-38
0.117424443742 0.0143683918503 0.263 1.61882706962e-38
0.112562136234 0.0136581671581 0.25 1.54561062615e-38
0.114866127742 0.013822065164 0.253 1.29808750749e-38
0.114446021359 0.0136581671581 0.25 1.28040396165e-38
0.114926412066 0.0136035344895 0.249 1.16134123633e-38
0.114933947607 0.0134942691522 0.247 8.02138273441e-39
0.115395499462 0.0134396364836 0.246 6.54589252289e-39
0.116795226111 0.0134942691522 0.247 6.17639113733e-39
0.118202488299 0.0135489018208 0.248 6.08491157098e-39
0.119617286028 0.0136035344895 0.249 5.99451100445e-39
0.119587143866 0.0134942691522 0.247 6.17710720084e-39
0.121005709366 0.0135489018208 0.248 6.17710720084e-39
0.12144842237 0.0134942691522 0.247 6.08491157098e-39
0.12287452341 0.0135489018208 0.248 6.08491157098e-39
0.123808930432 0.0135489018208 0.248 6.17710720084e-39
0.126755326768 0.0137674324954 0.252 6.17710720084e-39
0.126691274674 0.0136581671581 0.25 6.36149846057e-39
0.129164815843 0.013822065164 0.253 6.45369409043e-39
0.129603761077 0.0137674324954 0.252 6.54589252289e-39
0.128999033952 0.0136035344895 0.249 6.63808815276e-39
0.129937208744 0.0136035344895 0.249 6.73099984613e-39
0.134554611186 0.0139859631699 0.256 6.91539110586e-39
0.139224762412 0.0143683918503 0.263 7.19197799545e-39
0.466587480628 0.046820197018 0.857 7.83842079912e-39
0.485166355733 0.0483499117397 0.885 7.83842079912e-39
0.513891836123 0.0508630144968 0.931 8.11393149149e-39
0.509619184659 0.050098157136 0.917 8.20612712135e-39
0.522585965976 0.0510269125027 0.934 8.48271401094e-39
0.528921471652 0.0513000758459 0.939 8.5749096408e-39
0.539831050413 0.0520103005381 0.952 8.75858483702e-39
0.541705516112 0.0518464025322 0.949 8.75858483702e-39
0.528043581184 0.0502074224732 0.919 8.75858483702e-39
0.536132983912 0.0506444838223 0.927 8.94297609674e-39
0.558835683556 0.0524473618872 0.96 9.03517172661e-39
0.572998731928 0.0534307499225 0.978 8.94297609674e-39
0.57904223541 0.0536492805971 0.982 9.03517172661e-39
0.592830390641 0.0545780359638 0.999 8.94297609674e-39
0.584053369843 0.0534307499225 0.978 8.94297609674e-39
-0.298595792353 0.0292002194415 0.5 8.38979951497e-39
-0.300272450115 0.0295506220748 0.506 8.57419077469e-39
-0.301903894633 0.0299010247081 0.512 8.66638640456e-39
-0.296459466621 0.0295506220748 0.506 8.66638640456e-39
-0.293388733867 0.029433821197 0.504 8.57419077469e-39
-0.290911424927 0.0293754207581 0.503 8.48199514483e-39
-0.286143311675 0.0290834185637 0.498 8.38979951497e-39
-0.283125327705 0.028966617686 0.496 8.39051838108e-39
-0.279555365392 0.0287914163693 0.493 8.39051838108e-39
-0.280514262921 0.0290834185637 0.498 8.39051838108e-39
-0.279197427218 0.0291418190026 0.499 8.39051838108e-39
-0.278984548199 0.0293170203192 0.502 8.39051838108e-39
-0.276541149192 0.0292586198804 0.501 8.39051838108e-39
-0.274105285725 0.0292002194415 0.5 8.39051838108e-39
-0.271132514997 0.0290834185637 0.498 8.48271401094e-39
-0.268174815351 0.028966617686 0.496 8.38979951497e-39
-0.266306001306 0.028966617686 0.496 8.38979951497e-39
-0.264970326753 0.0290250181248 0.497 8.2976066877e-39
-0.263097744938 0.0290250181248 0.497 8.2976066877e-39
-0.259648351274 0.0288498168082 0.494 8.38980231756e-39
-0.25726523659 0.0287914163693 0.493 8.38980231756e-39
-0.255925794266 0.0288498168082 0.494 8.38979951497e-39
-0.254578816402 0.0289082172471 0.495 8.38979951497e-39
-0.253734835865 0.0290250181248 0.497 8.2976066877e-39
-0.251862254051 0.0290250181248 0.497 8.38980231756e-39
-0.249989672236 0.0290250181248 0.497 8.38980231756e-39
-0.248117090422 0.0290250181248 0.497 8.2976066877e-39
-0.245253585032 0.0289082172471 0.495 8.11321542797e-39
-0.244371926793 0.0290250181248 0.497 7.92882416825e-39
-0.242499344978 0.0290250181248 0.497 8.11321542797e-39
-0.23965844621 0.0289082172471 0.495 8.20541105784e-39
-0.238273790643 0.028966617686 0.496 8.02101979811e-39
-0.237358222472 0.0290834185637 0.498 8.02101979811e-39
-0.23500901772 0.0290250181248 0.497 8.02101979811e-39
-0.231729173717 0.0288498168082 0.494 8.02101979811e-39
-0.23033321484 0.0289082172471 0.495 8.02101979811e-39
-0.227545064854 0.0287914163693 0.493 8.02101979811e-39
-0.227518690462 0.0290250181248 0.497 8.02101979811e-39
-0.226100124963 0.0290834185637 0.498 8.02101979811e-39
-0.223773526833 0.0290250181248 0.497 8.20540825524e-39
-0.221454464244 0.028966617686 0.496 8.02101699551e-39
-0.2195856502 0.028966617686 0.496 8.02101699551e-39
-0.217716836156 0.028966617686 0.496 8.11321262538e-39
-0.216283199575 0.0290250181248 0.497 8.02101699551e-39
-0.213547798374 0.0289082172471 0.495 8.02101699551e-39
-0.21296567787 0.0290834185637 0.498 8.02101699551e-39
-0.212360950745 0.0292586198804 0.501 8.02101699551e-39
-0.207952659551 0.0289082172471 0.495 8.02101979811e-39
-0.206087613277 0.0289082172471 0.495 8.02101979811e-39
-0.203397425319 0.0287914163693 0.493 8.02101979811e-39
-0.202357520729 0.0289082172471 0.495 8.02101979811e-39
-0.201302545059 0.0290250181248 0.497 7.92882416825e-39
-0.199831230777 0.0290834185637 0.498 8.02101979811e-39
-0.198749880715 0.0292002194415 0.5 8.11321542797e-39
-0.196078531607 0.0290834185637 0.498 8.02101979811e-39
-0.193812217801 0.0290250181248 0.497 8.11321542797e-39
-0.191553439536 0.028966617686 0.496 8.02101979811e-39
-0.191596768894 0.0292586198804 0.501 8.02101979811e-39
-0.188573133268 0.0290834185637 0.498 8.02101979811e-39
-0.187071676823 0.0291418190026 0.499 7.92882416825e-39
-0.184078183359 0.028966617686 0.496 7.92882416825e-39
-0.182209369315 0.028966617686 0.496 7.92882416825e-39
-0.180340555271 0.028966617686 0.496 7.74443290852e-39
-0.175952986814 0.0285578146138 0.489 7.92882416825e-39
-0.176246872893 0.0289082172471 0.495 7.92882416825e-39
-0.175086399656 0.0290250181248 0.497 8.02101979811e-39
-0.17356233659 0.0290834185637 0.498 8.02101979811e-39
-0.171341236027 0.0290250181248 0.497 8.02101979811e-39
-0.16980963742 0.0290834185637 0.498 8.02101979811e-39
-0.168270503273 0.0291418190026 0.499 8.02101979811e-39
-0.166056938251 0.0290834185637 0.498 8.02101979811e-39
-0.163521228872 0.028966617686 0.496 8.02101699551e-39
-0.162304239081 0.0290834185637 0.498 8.11321262538e-39
-0.161394322566 0.0292586198804 0.501 8.02137292532e-39
-0.159825046257 0.0293170203192 0.502 7.92917729546e-39
-0.158248234407 0.0293754207581 0.503 8.02137292532e-39
-0.156042204925 0.0293170203192 0.502 8.02101699551e-39
-0.153229564433 0.0291418190026 0.499 8.02101979811e-39
-0.153472585614 0.0295506220748 0.506 8.02102260071e-39
-0.150068405193 0.0292586198804 0.501 7.92882136565e-39
-0.148476522262 0.0293170203192 0.502 7.92882136565e-39
-0.146293099402 0.0292586198804 0.501 7.92882136565e-39
-0.144117212082 0.0292002194415 0.5 7.92917729546e-39
-0.142517793611 0.0292586198804 0.501 7.92953742916e-39
-0.140910839599 0.0293170203192 0.502 7.92953742916e-39
-0.139296350047 0.0293754207581 0.503 7.92953742916e-39
-0.137401161611 0.0293754207581 0.503 7.92989476027e-39
-0.134697786456 0.0292002194415 0.5 7.83662853838e-39
-0.132282645725 0.0290834185637 0.498 7.83662853838e-39
-0.130930016205 0.0292002194415 0.5 7.83662853838e-39
-0.12904613108 0.0292002194415 0.5 7.83662853838e-39
-0.127416570447 0.0292586198804 0.501 8.02101979811e-39
-0.125528917551 0.0292586198804 0.501 8.02101979811e-39
-0.124134842559 0.0293754207581 0.503 8.02101979811e-39
-0.121996632941 0.0293170203192 0.502 8.02101979811e-39
-0.120583719097 0.029433821197 0.504 8.02137292532e-39
-0.119155734173 0.0295506220748 0.506 8.02137292532e-39
-0.116785806685 0.029433821197 0.504 8.02137292532e-39
-0.114886850479 0.029433821197 0.504 8.02137292532e-39
-0.113436258932 0.0295506220748 0.506 7.92953742916e-39
-0.111309352626 0.0294922216359 0.505 8.02173305903e-39
-0.10918998186 0.029433821197 0.504 8.11392868889e-39
-0.107291025654 0.029433821197 0.504 8.02173305903e-39
-0.106019403194 0.0296090225137 0.507 8.2976038851e-39
-0.104109143677 0.0296090225137 0.507 8.38979951497e-39
-0.101594157035 0.029433821197 0.504 8.38979951497e-39
-0.0998930087668 0.0294922216359 0.505 8.48199514483e-39
-0.0985724052939 0.0296674229525 0.508 8.48199514483e-39
-0.096468105609 0.0296090225137 0.507 8.48199514483e-39
-0.0943713414646 0.0295506220748 0.506 8.48199514483e-39
-0.0928303234322 0.0296674229525 0.508 8.48199514483e-39
-0.090737327058 0.0296090225137 0.507 8.48199514483e-39
-0.0884766649077 0.0294922216359 0.505 8.48199514483e-39
-0.0864025073848 0.029433821197 0.504 8.48199514483e-39
-0.0845035511785 0.029433821197 0.504 8.38979951497e-39
-0.0824406969664 0.0293754207581 0.503 8.57419077469e-39
-0.080705638766 0.029433821197 0.504 8.57419077469e-39
-0.0792757699559 0.0296090225137 0.507 8.66638640456e-39
-0.0772129157438 0.0295506220748 0.506 8.75858203442e-39
-0.0757529047717 0.0297258233914 0.509 8.75893796423e-39
-0.0741252280235 0.0298426242692 0.511 8.75893796423e-39
-0.0721998974255 0.0298426242692 0.511 8.75858203442e-39
-0.0699995195992 0.0297258233914 0.509 8.75858203442e-39
-0.0684829920733 0.0299010247081 0.512 8.75858203442e-39
-0.0662939175578 0.0297842238303 0.51 8.75858203442e-39
-0.06437235473 0.0297842238303 0.51 8.85078046688e-39
-0.0629406020348 0.0300178255858 0.514 8.85078046688e-39
-0.0606479138374 0.0298426242692 0.511 8.94297609674e-39
-0.058837500232 0.0299010247081 0.512 8.94297609674e-39
-0.056686103419 0.0297842238303 0.51 8.94297609674e-39
-0.0542276333305 0.0294922216359 0.505 8.85149653039e-39
-0.0525321367178 0.0296090225137 0.507 8.85149653039e-39
-0.0517201822288 0.0302514273414 0.518 8.85149653039e-39
-0.0458292734421 0.0278570093472 0.477 8.76037709775e-39
-0.0428320122078 0.0270978036417 0.464 8.76037709775e-39
-0.0418806502196 0.0276234075916 0.473 8.94297329415e-39
-0.0402680445524 0.0277402084694 0.475 8.94297329415e-39
-0.038397346623 0.0276818080305 0.474 8.94297329415e-39
-0.0339852876596 0.0256961931085 0.44 8.85077766428e-39
-0.0301233231529 0.023944179942 0.41 8.85077766428e-39
-0.0268359436093 0.0224841689699 0.385 8.94297329415e-39
-0.0236710165989 0.020965757559 0.359 9.03516892401e-39
-0.0211371911054 0.0198561492202 0.34 8.85077766428e-39
-0.019447346148 0.019447346148 0.333 8.75858483702e-39
-0.0178648826428 0.0190969435147 0.327 8.75858483702e-39
-0.0167345515677 0.0192137443925 0.329 8.75858483702e-39
-0.0155420522834 0.0192721448314 0.33 8.85078046688e-39
-0.0144286761743 0.019447346148 0.333 8.94297609674e-39
-0.0132135702686 0.0195057465869 0.334 8.94297609674e-39
-0.0119909288223 0.0195641470258 0.335 8.94297609674e-39
-0.0106646736941 0.019447346148 0.333 8.94297609674e-39
-0.0093534896469 0.0193305452703 0.331 9.95281202597e-39
-0.00815533870724 0.019447346148 0.333 8.56592451505e-39
-0.00694211668657 0.0195641470258 0.335 7.27195150011e-39
-0.0057138235849 0.0196809479036 0.337 9.02402860122e-39
-0.00440452342285 0.0195057465869 0.334 9.85774233296e-39
-0.00318376586168 0.0197393483424 0.338 1.29059490473e-38
-0.00190460786163 0.0196809479036 0.337 1.20801372376e-38
-0.000632985402086 0.0196225474647 0.336 1.16209541517e-38
0.000632985402086 0.0196225474647 0.336 1.22638110326e-38
0.00193286613851 0.019972950098 0.342 1.20794183715e-38
0.00323086298982 0.0200313505369 0.343 1.16191590883e-38
0.00448364659811 0.0198561492202 0.34 1.18039062779e-38
0.00574773351716 0.0197977487813 0.339 1.21726859947e-38
0.00710789857759 0.0200313505369 0.343 1.3554898774e-38
0.00835126276026 0.0199145496591 0.341 1.35552561051e-38
0.00966433069257 0.019972950098 0.342 1.35541771053e-38
0.0109529081182 0.019972950098 0.342 1.46644777266e-38
0.0123488669961 0.0201481514146 0.345 1.43871747735e-38
0.0136487477325 0.0201481514146 0.345 1.44786529385e-38
0.014905299111 0.0200897509757 0.344 2.11167410913e-38
0.0162956063335 0.0202065518535 0.346 2.20365463968e-38
0.0175483899418 0.0201481514146 0.345 2.23131346877e-38
0.01917606669 0.0204985540479 0.351 2.24964497502e-38
0.0205569544868 0.0205569544868 0.352 2.25879265139e-38
0.0218210414059 0.0204985540479 0.351 2.25879293165e-38
0.0232094647432 0.0205569544868 0.352 2.25879293165e-38
0.0244660161217 0.0204985540479 0.351 2.25879293165e-38
0.0257885034796 0.0204985540479 0.351 2.25879293165e-38
0.0271882301277 0.0205569544868 0.352 2.25879293165e-38
0.028757506437 0.0207321558035 0.355 2.25879293165e-38
0.0299255152147 0.0206153549257 0.353 2.25879293165e-38
0.031344080714 0.0206737553646 0.354 2.25879293165e-38
0.0325855610116 0.0206153549257 0.353 2.25879293165e-38
0.0342038183342 0.0207905562423 0.356 2.25879293165e-38
0.0355451445433 0.0207905562423 0.356 2.25879293165e-38
0.0370936981163 0.0209073571201 0.358 2.25879293165e-38
0.0386573227703 0.0210241579979 0.36 2.25879293165e-38
0.0399025708381 0.020965757559 0.359 2.25879293165e-38
0.041255200358 0.020965757559 0.359 2.25879293165e-38
0.0427265146408 0.0210241579979 0.36 2.25879293165e-38
0.0443278169973 0.0211409588756 0.362 2.25879293165e-38
0.0453130889178 0.020965757559 0.359 2.25879293165e-38
0.0467957065114 0.0210241579979 0.36 2.25879265139e-38
0.0484196154894 0.0211409588756 0.362 2.25879265139e-38
0.0496460247059 0.0210825584368 0.361 2.24042513177e-38
0.0512887725351 0.0211993593145 0.363 2.24042513177e-38
0.0530916506 0.0213745606312 0.366 2.24046086488e-38
0.0543218275868 0.0213161601923 0.365 2.2312413019e-38
0.0552392796428 0.0211409588756 0.362 2.33229481961e-38
0.0570722998697 0.0213161601923 0.365 2.25835880939e-38
0.058927926718 0.0214913615089 0.368 1.92620342919e-38
0.0599866701584 0.0213745606312 0.366 1.37277895772e-38
0.0613656740701 0.0213745606312 0.366 9.66975113747e-39
0.0636018457138 0.0216665628256 0.371 9.48500815183e-39
0.0648244871601 0.0216081623867 0.37 9.20914993744e-39
0.0665765003266 0.0217249632645 0.372 8.84072895299e-39
0.0676126371455 0.0216081623867 0.37 8.92790092786e-39
0.0686337028834 0.0214913615089 0.368 9.02296221309e-39
0.0696396975402 0.0213745606312 0.366 8.84359040446e-39
0.0716008219556 0.0215497619478 0.369 2.33236852791e-38
0.0731889371162 0.0216081623867 0.37 2.24049589734e-38
0.0747845878173 0.0216665628256 0.371 2.22220068472e-38
0.0763877740589 0.0217249632645 0.372 2.22220124524e-38
0.0775802733432 0.0216665628256 0.371 2.2129462294e-38
0.0804682692402 0.0220753658978 0.378 2.1946867499e-38
0.0801593120797 0.0216081623867 0.37 2.1946867499e-38
0.08309628899 0.0220169654589 0.377 2.20383414601e-38
0.0849651030342 0.0221337663366 0.379 2.22220124524e-38
0.086165137859 0.0220753658978 0.378 2.20386973899e-38
0.0871259192729 0.02195856502 0.376 2.18550221937e-38
0.0890135721684 0.0220753658978 0.378 2.18553823274e-38
0.0901985359122 0.0220169654589 0.377 2.14876774065e-38
0.0916189852966 0.0220169654589 0.377 2.12103702495e-38
0.0932862236325 0.0220753658978 0.378 2.06571964703e-38
0.0947104407872 0.0220753658978 0.378 2.05650008404e-38
0.0966433069257 0.0221921667755 0.38 2.03806095807e-38
0.0996236131938 0.0225425694088 0.386 2.03806095807e-38
0.101077972511 0.0225425694088 0.386 2.03806095807e-38
0.108907399091 0.023944179942 0.41 2.03806095807e-38
0.120419821092 0.0261049961807 0.447 2.01040226911e-38
0.125381974511 0.0268058014473 0.459 2.00111095964e-38
0.12738831217 0.0268642018862 0.46 2.01033052263e-38
0.128560088718 0.0267474010084 0.458 2.03798921159e-38
0.130285727493 0.0267474010084 0.458 2.06564790055e-38
0.12941725645 0.0262217970585 0.449 2.07486746353e-38
0.129064969931 0.0258129939863 0.442 2.07486746353e-38
0.130434554417 0.0257545935474 0.441 2.05642833756e-38
0.131197527893 0.0255793922307 0.438 2.04720877458e-38
0.131027978232 0.0252289895974 0.432 2.27647283412e-38
0.131120288603 0.024936987403 0.427 2.28428927695e-38
0.130864080226 0.0245865847697 0.421 1.90427198719e-38
0.132135702686 0.0245281843308 0.42 2.04116175131e-38
0.13212628326 0.0242361821364 0.415 2.32646415683e-38
0.132079186132 0.023944179942 0.41 2.23434055371e-38
0.132646235554 0.0237689786254 0.407 2.22522903083e-38
0.132201638665 0.0234185759921 0.401 2.22533721108e-38
0.132378723867 0.0231849742365 0.397 2.20671829851e-38
0.132188451469 0.0228929720421 0.392 2.18835105915e-38
0.1333244342 0.0228345716032 0.391 2.14232555122e-38
0.132384375522 0.0224257685311 0.384 2.12395831186e-38
0.133831199298 0.0224257685311 0.384 2.07804028352e-38
0.132812017445 0.0220169654589 0.377 2.05963717092e-38
0.133876412541 0.02195856502 0.376 2.03208610168e-38
0.134213627979 0.0217833637033 0.373 2.0229384253e-38
0.134528236795 0.0216081623867 0.37 2.05960087728e-38
0.135554954188 0.0215497619478 0.369 2.05960087728e-38
0.13731638678 0.0216081623867 0.37 2.04119804494e-38
0.136086209793 0.0211993593145 0.363 2.04119804494e-38
0.137832571304 0.0212577597534 0.364 2.01364725597e-38
0.138056753634 0.0210825584368 0.361 2.01364725597e-38
0.137099739991 0.0207321558035 0.355 1.99524442362e-38
0.139607191092 0.0209073571201 0.358 1.98602486064e-38
0.139774856868 0.0207321558035 0.355 1.9584737914e-38
0.139522416262 0.0204985540479 0.351 1.94925450867e-38
0.139239833493 0.0202649522924 0.347 1.95836645194e-38
0.140142214468 0.0202065518535 0.346 1.94914702908e-38
0.14062825683 0.0200897509757 0.344 1.94914702908e-38
0.141099228111 0.019972950098 0.342 1.93081566296e-38
0.13655906496 0.0191553439536 0.328 1.91244814334e-38
0.13611446807 0.0189217421981 0.324 1.9033001867e-38
0.139454596397 0.0192137443925 0.329 1.88482588814e-38
0.14069419281 0.0192137443925 0.329 1.894045311e-38
0.129422908105 0.0175201316649 0.3 1.91241255036e-38
0.125766287077 0.0168777268372 0.289 1.92159609997e-38
0.124221501274 0.0165273242039 0.283 1.89397384477e-38
0.122188789224 0.0161185211317 0.276 1.82061376822e-38
0.118317405292 0.015476116304 0.265 1.71988254915e-38
0.114813378959 0.0148921119152 0.255 1.64663023245e-38
0.115320144057 0.0148337114763 0.254 1.56495078704e-38
0.116734941787 0.0148921119152 0.255 1.39971850031e-38
0.115849515778 0.0146585101596 0.251 1.09644458211e-38
0.115864586859 0.0145417092819 0.249 5.62321735815e-39
0.115395499462 0.0143665079652 0.246 6.17675407363e-39
0.116322370944 0.0143665079652 0.246 6.26858676719e-39
0.119155734173 0.0146001097207 0.25 6.17710439825e-39
0.119136895321 0.014483308843 0.248 5.90231257199e-39
0.118134668435 0.0142497070874 0.244 5.99271594112e-39
0.120517783118 0.0144249084041 0.247 5.99271594112e-39
0.12144842237 0.0144249084041 0.247 6.08491157098e-39
0.122379061622 0.0144249084041 0.247 6.17710720084e-39
0.123309700874 0.0144249084041 0.247 6.17710720084e-39
0.124743337454 0.014483308843 0.248 6.26930283071e-39
0.124664214279 0.0143665079652 0.246 6.26930283071e-39
0.126612151498 0.014483308843 0.248 6.36149846057e-39
0.12806085916 0.0145417092819 0.249 6.36150126317e-39
0.126926760314 0.0143081075263 0.245 6.54589252289e-39
0.130980881104 0.0146585101596 0.251 6.63880421627e-39
0.131926591437 0.0146585101596 0.251 6.91539110586e-39
0.13551916037 0.014950512354 0.256 7.09978236559e-39
0.461143052616 0.0494651717339 0.847 7.83842079912e-39
0.481877092304 0.0513339857781 0.879 7.83842079912e-39
0.506164139339 0.0535532024557 0.917 8.11393149149e-39
0.516288138002 0.0542540077223 0.929 8.29832275121e-39
0.527062077034 0.0550132134278 0.942 8.5749096408e-39
0.538497259744 0.0558308195721 0.956 8.66710527067e-39
0.538129902145 0.0554220164999 0.949 8.75858483702e-39
0.539993064533 0.0552468151833 0.946 8.85078046688e-39
0.530341921037 0.053903605089 0.923 8.85078046688e-39
0.545386627647 0.0550716138666 0.943 8.85078046688e-39
0.557671442549 0.0559476204499 0.958 8.94297609674e-39
0.571241067106 0.0569404279109 0.975 9.03517172661e-39
0.561942210128 0.0556556182555 0.953 9.12736735647e-39
0.56197235229 0.0553052156222 0.947 9.03517172661e-39
0.571512346564 0.055889220011 0.957 9.03517172661e-39
-0.297401409184 0.0309597681485 0.498 8.48199514483e-39
-0.29433821197 0.0308354317302 0.496 8.38979951497e-39
-0.293648710014 0.0309597681485 0.498 8.29795981491e-39
-0.292944136977 0.0310841045667 0.5 8.75893796423e-39
-0.289896010845 0.0309597681485 0.498 8.5745453032e-39
-0.288598013993 0.0310219363576 0.499 8.39015404348e-39
-0.284994141749 0.0308354317302 0.496 8.48234967334e-39
-0.284266962091 0.0309597681485 0.498 8.57419357729e-39
-0.28125651366 0.0308354317302 0.496 8.38980231756e-39
-0.281077544573 0.0310219363576 0.499 8.38980231756e-39
-0.280875968865 0.031208440985 0.502 8.48199794743e-39
-0.279540294311 0.0312706091941 0.503 8.38980231756e-39
-0.276541149192 0.0311462727759 0.501 8.38980231756e-39
-0.279039180868 0.0316436184489 0.509 8.38980231756e-39
-0.272765843401 0.0311462727759 0.501 8.2976066877e-39
-0.268174815351 0.0308354317302 0.496 8.20612431875e-39
-0.265769094046 0.0307732635211 0.495 8.20612431875e-39
-0.264970326753 0.0308975999393 0.497 8.11393149149e-39
-0.262568373218 0.0308354317302 0.496 8.20540825524e-39
-0.260173955224 0.0307732635211 0.495 8.38980231756e-39
-0.25726523659 0.0306489271028 0.493 8.57347471118e-39
-0.255925794266 0.0307110953119 0.494 8.38908625405e-39
-0.254064515762 0.0307110953119 0.494 8.20469499432e-39
-0.254245368734 0.0309597681485 0.498 8.20541105784e-39
-0.25236901915 0.0309597681485 0.498 8.38980231756e-39
-0.250995666893 0.0310219363576 0.499 8.38980231756e-39
-0.246619401747 0.0307110953119 0.494 8.2976066877e-39
-0.244758123244 0.0307110953119 0.494 8.20541105784e-39
-0.244371926793 0.0308975999393 0.497 8.20541105784e-39
-0.242011418731 0.0308354317302 0.496 8.20541105784e-39
-0.240142604687 0.0308354317302 0.496 8.20541105784e-39
-0.237793399936 0.0307732635211 0.495 8.11321542797e-39
-0.236404976598 0.0308354317302 0.496 8.11321542797e-39
-0.23500901772 0.0308975999393 0.497 8.02101979811e-39
-0.232198261114 0.0307732635211 0.495 8.02101979811e-39
-0.231729173717 0.0309597681485 0.498 8.11321542797e-39
-0.229391272277 0.0308975999393 0.497 8.11321542797e-39
-0.228434258633 0.0310219363576 0.499 8.11321542797e-39
-0.225646108648 0.0308975999393 0.497 8.11321542797e-39
-0.223323278288 0.0308354317302 0.496 8.11321542797e-39
-0.220561502695 0.0307110953119 0.494 8.11321542797e-39
-0.218700224191 0.0307110953119 0.494 8.11321542797e-39
-0.216838945687 0.0307110953119 0.494 8.11321542797e-39
-0.216283199575 0.0308975999393 0.497 7.92882416825e-39
-0.21311638868 0.0307110953119 0.494 7.92882416825e-39
-0.2116827521 0.0307732635211 0.495 7.92882416825e-39
-0.212784824898 0.031208440985 0.502 7.92882416825e-39
-0.210053191466 0.0310841045667 0.5 8.02101979811e-39
-0.207336629116 0.0309597681485 0.498 8.02101979811e-39
-0.204222567003 0.0307732635211 0.495 7.92882136565e-39
-0.203992733018 0.0310219363576 0.499 7.92882136565e-39
-0.201707580361 0.0309597681485 0.498 8.02137292532e-39
-0.199429963245 0.0308975999393 0.497 8.02137292532e-39
-0.197954881192 0.0309597681485 0.498 7.92917589416e-39
-0.195684799616 0.0308975999393 0.497 7.92917589416e-39
-0.192252360918 0.0306489271028 0.493 8.02101979811e-39
-0.190781046635 0.0307110953119 0.494 7.92882416825e-39
-0.189302196811 0.0307732635211 0.495 7.92882416825e-39
-0.187437150537 0.0307732635211 0.495 7.92882416825e-39
-0.186696783683 0.0309597681485 0.498 7.92882416825e-39
-0.184078183359 0.0308354317302 0.496 7.92882416825e-39
-0.182944084514 0.0309597681485 0.498 8.02101979811e-39
-0.180340555271 0.0308354317302 0.496 8.02101979811e-39
-0.178471741226 0.0308354317302 0.496 7.92882136565e-39
-0.177315035759 0.0309597681485 0.498 7.92882136565e-39
-0.174381826619 0.0307732635211 0.495 7.92882136565e-39
-0.172516780345 0.0307732635211 0.495 7.83662573579e-39
-0.170996485049 0.0308354317302 0.496 7.92882136565e-39
-0.169468654213 0.0308975999393 0.497 7.92882136565e-39
-0.168607718711 0.0310841045667 0.5 7.92882136565e-39
-0.166723833585 0.0310841045667 0.5 7.92882136565e-39
-0.164180588666 0.0309597681485 0.498 7.92953742916e-39
-0.162630151208 0.0310219363576 0.499 7.8373417993e-39
-0.161072178209 0.0310841045667 0.5 7.92917729546e-39
-0.158551539912 0.0309597681485 0.498 8.02137292532e-39
-0.156675190327 0.0309597681485 0.498 8.02101699551e-39
-0.155420522834 0.0310841045667 0.5 7.92882136565e-39
-0.153229564433 0.0310219363576 0.499 7.92846123194e-39
-0.151956058088 0.0311462727759 0.501 7.92846123194e-39
-0.150667480663 0.0312706091941 0.503 7.83591247487e-39
-0.148476522262 0.031208440985 0.502 7.92810810473e-39
-0.146293099402 0.0311462727759 0.501 8.02030373459e-39
-0.144117212082 0.0310841045667 0.5 8.02101979811e-39
-0.142802260265 0.031208440985 0.502 7.74443290852e-39
-0.140630140715 0.0311462727759 0.501 7.74514897203e-39
-0.13957328116 0.0313327774033 0.504 7.74514897203e-39
-0.137401161611 0.0312706091941 0.503 7.8373446019e-39
-0.135505973175 0.0312706091941 0.503 7.65402953939e-39
-0.132813901331 0.0310841045667 0.5 7.74622516925e-39
-0.130930016205 0.0310841045667 0.5 7.92954023176e-39
-0.129304223342 0.0311462727759 0.501 7.8373446019e-39
-0.127670894939 0.031208440985 0.502 7.8373446019e-39
-0.125779474273 0.031208440985 0.502 7.8373446019e-39
-0.123888053607 0.031208440985 0.502 7.92882416825e-39
-0.121996632941 0.031208440985 0.502 7.92882416825e-39
-0.120583719097 0.0313327774033 0.504 7.83662573579e-39
-0.118684762891 0.0313327774033 0.504 7.92882136565e-39
-0.116322370944 0.031208440985 0.502 8.02101699551e-39
-0.114430950278 0.031208440985 0.502 8.11321262538e-39
-0.112987894272 0.0313327774033 0.504 8.02101699551e-39
-0.111088938066 0.0313327774033 0.504 8.02101699551e-39
-0.10897333507 0.0312706091941 0.503 8.11321262538e-39
-0.107716783692 0.0314571138215 0.506 8.11321262538e-39
-0.105810291945 0.0314571138215 0.506 8.2976066877e-39
-0.103903800198 0.0314571138215 0.506 8.2976066877e-39
-0.101594157035 0.0313327774033 0.504 8.2976066877e-39
-0.0996952008286 0.0313327774033 0.504 8.38980231756e-39
-0.0981843249581 0.0314571138215 0.506 8.48199794743e-39
-0.096468105609 0.0315192820307 0.507 8.48199794743e-39
-0.0943713414646 0.0314571138215 0.506 8.48199794743e-39
-0.0930130602893 0.0316436184489 0.509 8.38980231756e-39
-0.090737327058 0.0315192820307 0.507 8.57419077469e-39
-0.088827067541 0.0315192820307 0.507 8.48199514483e-39
-0.0867453744776 0.0314571138215 0.506 8.38979951497e-39
-0.0846712169547 0.0313949456124 0.505 8.38979951497e-39
-0.0821129009546 0.0311462727759 0.501 8.38979951497e-39
-0.0808657690017 0.0313949456124 0.505 8.48199514483e-39
-0.0792757699559 0.0315192820307 0.507 8.57419077469e-39
-0.0775181051341 0.0315814502398 0.508 8.66638640456e-39
-0.0759017316966 0.0317057866581 0.51 8.66638920715e-39
-0.0739801688688 0.0317057866581 0.51 8.66638920715e-39
-0.0716347318879 0.0315192820307 0.507 8.66638920715e-39
-0.0697244723709 0.0315192820307 0.507 8.75858483702e-39
-0.0680817245417 0.0316436184489 0.509 8.85078046688e-39
-0.0662939175578 0.0317057866581 0.51 8.85078046688e-39
-0.0648772359436 0.0319544594946 0.514 8.75858483702e-39
-0.0628181495017 0.0318922912855 0.513 8.75858483702e-39
-0.0608852833632 0.0318922912855 0.513 8.75858483702e-39
-0.0589524172247 0.0318922912855 0.513 8.75858483702e-39
-0.056686103419 0.0317057866581 0.51 8.75858483702e-39
-0.0541202518784 0.0313327774033 0.504 8.75858483702e-39
-0.0527393640816 0.0316436184489 0.509 8.85078046688e-39
-0.0491241885262 0.0305867588937 0.492 8.85078046688e-39
-0.0448684920282 0.0290325536653 0.467 8.85078046688e-39
-0.0444935988883 0.0299650768023 0.482 8.85078046688e-39
-0.043120246632 0.030275917848 0.487 9.03517172661e-39
-0.04128534252 0.030275917848 0.487 8.94297609674e-39
-0.0386403678041 0.0296542357567 0.477 8.75858483702e-39
-0.0340625269498 0.0274161802279 0.441 8.66638920715e-39
-0.0298294370733 0.0252402929082 0.406 8.85078046688e-39
-0.0264874248611 0.0236239194707 0.38 8.85078046688e-39
-0.0235391446401 0.0221940506607 0.357 8.85078046688e-39
-0.0213236957328 0.0213236957328 0.343 8.85078046688e-39
-0.0196809479036 0.020950686478 0.337 8.75858483702e-39
-0.0179195153114 0.0203911725958 0.328 8.75858483702e-39
-0.0167345515677 0.0204533408049 0.329 8.85078046688e-39
-0.0154949551552 0.0204533408049 0.329 8.85078046688e-39
-0.0142553587428 0.0204533408049 0.329 8.85078046688e-39
-0.013055323918 0.020515509014 0.33 8.75858483702e-39
-0.0119551350049 0.0207641818506 0.334 8.75858483702e-39
-0.0106646736941 0.0207020136414 0.333 8.94297609674e-39
-0.00941000620066 0.0207020136414 0.333 1.2346661403e-38
-0.00815533870724 0.0207020136414 0.333 1.15125847349e-38
-0.00700428489571 0.0210128546871 0.338 1.06788682006e-38
-0.0057138235849 0.020950686478 0.337 1.04959118705e-38
-0.00440452342285 0.0207641818506 0.334 9.39675437455e-39
-0.00316492701043 0.0208885182688 0.336 1.17084792537e-38
-0.00189330455088 0.0208263500597 0.335 1.19879416078e-38
-0.000632985402086 0.0208885182688 0.336 1.15280424583e-38
0.000632985402086 0.0208885182688 0.336 1.17099155847e-38
0.00194416944927 0.0213858639419 0.344 1.18028314819e-38
0.00323086298982 0.0213236957328 0.343 1.22641655611e-38
0.00447045940223 0.0210750228962 0.339 1.21719699312e-38
0.00581555338167 0.0213236957328 0.343 1.27240675132e-38
0.00712862131397 0.0213858639419 0.344 1.29992180718e-38
0.00832677225364 0.0211371911054 0.34 6.72812298039e-39
0.00960781413881 0.0211371911054 0.34 4.69838699636e-39
0.0109208820711 0.0211993593145 0.341 1.58623020487e-38
0.0123130731787 0.0213858639419 0.344 1.40176733879e-38
0.0136487477325 0.0214480321511 0.345 1.53073346075e-38
0.0148619697532 0.0213236957328 0.343 2.11156648941e-38
0.0163427034616 0.0215723685693 0.347 2.24968042787e-38
0.0175992548402 0.0215102003602 0.346 2.24964497502e-38
0.0191214340214 0.0217588731967 0.35 2.25879293165e-38
0.0205569544868 0.021883209615 0.352 2.26794088829e-38
0.0216345367785 0.0216345367785 0.348 2.26794060803e-38
0.0231435287638 0.0218210414059 0.351 2.26797592075e-38
0.0243963123721 0.0217588731967 0.35 2.26797578062e-38
0.0257885034796 0.0218210414059 0.351 2.26797592075e-38
0.0271882301277 0.021883209615 0.352 2.27716045127e-38
0.0285144852559 0.021883209615 0.352 2.26794116855e-38
0.0298407403841 0.021883209615 0.352 2.27716045127e-38
0.0312555381131 0.0219453778241 0.353 2.26797620101e-38
0.0325855610116 0.0219453778241 0.353 2.20383442627e-38
0.0341077401928 0.0220697142424 0.355 2.2038345664e-38
0.0355451445433 0.0221318824515 0.356 2.22213047967e-38
0.0371973117982 0.0223183870789 0.359 2.24960994255e-38
0.0386573227703 0.0223805552881 0.36 2.25875775906e-38
0.0400137200605 0.0223805552881 0.36 2.2771967449e-38
0.0410253663727 0.0221940506607 0.357 2.25875761893e-38
0.0423704603522 0.0221940506607 0.357 2.24035408594e-38
0.0439604593979 0.0223183870789 0.359 2.31382388416e-38
0.0451868686144 0.0222562188698 0.358 2.27712499842e-38
0.0466657184377 0.0223183870789 0.359 2.23120584904e-38
0.0480183479577 0.0223183870789 0.359 2.22212935863e-38
0.0493709774776 0.0223183870789 0.359 2.23120430762e-38
0.0507236069975 0.0223183870789 0.359 2.26790235258e-38
0.0530916506 0.0227535645429 0.366 2.27672604875e-38
0.054024173737 0.0225670599155 0.363 2.01843437178e-38
0.0550866849476 0.0224427234972 0.361 1.18820945283e-38
0.0569159374043 0.0226292281246 0.364 9.57864571782e-39
0.0586076662467 0.0227535645429 0.366 8.56737766156e-39
0.0601505681643 0.022815732752 0.367 4.97534663135e-39
0.0610303425178 0.0226292281246 0.364 5.80834149697e-39
0.0629161115282 0.022815732752 0.367 4.15205435629e-39
0.0648244871601 0.0230022373794 0.37 1.18982795255e-38
