VERSION .7
FIELDS x y z rgb
SIZE 4 4 4 4
TYPE F F F F
COUNT 1 1 1 1
WIDTH 876
HEIGHT 1
VIEWPOINT 0 0 0 1 0 0 0
POINTS 876
DATA ascii
0.121126278014 0.0715424215168 0.376 1.69204323282e-38
0.111461947321 0.0650731599966 0.342 1.69204295256e-38
0.107475646396 0.0620288016342 0.326 1.68282338957e-38
0.107036701162 0.061077439646 0.321 1.69204323282e-38
0.109257801724 0.0616482568389 0.324 1.68278793672e-38
0.117298223439 0.0654537047919 0.344 1.69193547297e-38
0.220263848845 0.120252155315 0.632 1.71037445881e-38
0.23462282127 0.126721416836 0.666 1.71959374154e-38
0.242829024875 0.129765775198 0.682 1.72877701089e-38
0.246837932422 0.130526864789 0.686 1.71955716765e-38
0.249786212643 0.130717137186 0.687 1.71040977153e-38
0.254211458802 0.131668499174 0.692 1.70119020855e-38
0.257561006555 0.13204904397 0.694 1.68282338957e-38
0.260550732249 0.132239316367 0.695 1.68282366983e-38
0.262412010752 0.131858771572 0.693 1.67356837374e-38
0.264258218175 0.131478226777 0.691 1.67360410685e-38
0.26763414032 0.131858771572 0.693 1.69193533284e-38
0.269465276661 0.131478226777 0.691 1.69193505258e-38
0.272068805904 0.131478226777 0.691 1.64598185165e-38
0.274274835386 0.131287954379 0.69 1.64598185165e-38
0.278479666986 0.13204904397 0.694 1.64598185165e-38
0.281904570143 0.132429588765 0.696 1.62761475242e-38
0.284526938238 0.132429588765 0.696 1.61839518943e-38
0.286324164647 0.13204904397 0.694 1.60002795007e-38
0.289355335814 0.132239316367 0.695 1.59080838708e-38
0.291553829755 0.13204904397 0.694 1.57236926111e-38
0.292897039849 0.131478226777 0.691 1.54485476576e-38
0.296783494863 0.13204904397 0.694 1.53570708939e-38
0.298535508029 0.131668499174 0.692 1.5264875264e-38
0.302883514898 0.132429588765 0.696 1.51726796341e-38
0.306822718695 0.133000405958 0.699 1.51726796341e-38
0.310341816109 0.133380950753 0.701 1.49893673742e-38
0.31342950383 0.133571223151 0.702 1.48971717444e-38
0.31652472709 0.133761495549 0.703 1.48971717444e-38
0.319627485892 0.133951767946 0.704 1.55400202175e-38
0.321364427977 0.133571223151 0.702 1.55400202175e-38
0.321701643415 0.132619861163 0.697 1.55396642877e-38
0.324327779279 0.132619861163 0.697 1.54474714604e-38
0.326484827748 0.132429588765 0.696 1.5631143854e-38
0.327215775176 0.131668499174 0.692 1.57233394839e-38
0.326963334569 0.130526864789 0.686 1.59080866734e-38
0.329067634254 0.130336592391 0.685 1.60924751305e-38
0.330680239921 0.129956047596 0.683 1.65512952802e-38
0.33178984826 0.129385230403 0.68 1.64598185165e-38
0.333860238013 0.129194958005 0.679 1.61843078241e-38
0.335923092225 0.129004685607 0.678 1.60924751305e-38
0.339476099571 0.129385230403 0.68 1.58166071071e-38
0.340026194028 0.128624140812 0.676 1.53563548304e-38
0.33750555573 0.126721416836 0.666 1.51723265069e-38
0.33848329211 0.126150599643 0.663 1.50801322784e-38
0.340981323786 0.126150599643 0.663 1.46213107274e-38
0.340889013415 0.125199237654 0.658 1.47131462235e-38
0.338671680623 0.123486786075 0.649 1.47124245548e-38
0.339540151666 0.122915968883 0.646 1.5171960768e-38
0.340386016087 0.12234515169 0.643 1.54489035874e-38
0.339609855415 0.121203517304 0.637 1.56332920446e-38
0.340399203283 0.120632700111 0.634 1.57254862731e-38
0.340084594467 0.119681338122 0.629 1.56332906433e-38
0.34027675075 0.118920248532 0.625 1.48057019871e-38
0.34043876487 0.118159158941 0.621 1.46223897272e-38
0.341674593512 0.117778614146 0.619 1.45301954986e-38
0.344006843298 0.117778614146 0.619 1.43461643726e-38
0.345220065318 0.117398069351 0.617 1.40706592854e-38
0.346418216258 0.117017524555 0.615 1.39781077258e-38
0.34419899958 0.115495345374 0.607 1.37944353322e-38
0.347056853315 0.115685617772 0.608 1.37944353322e-38
0.347049317775 0.114924528181 0.604 1.43454511117e-38
0.347011640072 0.114163438591 0.6 1.5177707493e-38
0.3457795792 0.113021804205 0.594 1.77584480462e-38
0.348603523003 0.113212076602 0.595 1.83321368349e-38
0.352024658391 0.113592621398 0.597 2.20372540525e-38
0.35427401723 0.113592621398 0.597 2.23124102164e-38
0.354134609731 0.112831531807 0.593 2.35044611888e-38
-0.358912142409 0.116618140909 0.601 1.42514492081e-38
-0.347152931457 0.113513498222 0.585 1.42518023353e-38
-0.319003919915 0.104975730835 0.541 1.41596067055e-38
-0.203742176297 0.0679140587655 0.35 1.44361935951e-38
-0.178132641904 0.0597643717137 0.308 1.43439979652e-38
-0.170077149108 0.0574358896988 0.296 1.43436420354e-38
-0.168391071921 0.0572418495309 0.295 1.46191541291e-38
-0.170681876233 0.0584060905383 0.301 1.46191541291e-38
-0.175743875565 0.0605405323853 0.312 1.47113497589e-38
-0.181842011715 0.063063054568 0.325 1.48950221525e-38
-0.186730693615 0.0651974964149 0.336 1.49875751135e-38
-0.190432527887 0.066943857926 0.345 1.49875723109e-38
-0.194066542293 0.0686902194371 0.354 1.51708817682e-38
-0.195454965631 0.0696604202766 0.359 1.5171237698e-38
-0.195183686173 0.0700485006124 0.361 1.52634305253e-38
-0.194360428373 0.0702425407803 0.362 1.53556261552e-38
-0.194062774523 0.0706306211161 0.364 1.53556261552e-38
-0.193220677872 0.070824661284 0.365 1.53556289578e-38
-0.19342225358 0.0714067817877 0.368 1.53556289578e-38
-0.194644895027 0.0723769826272 0.373 1.53552730279e-38
-0.19582985877 0.0733471834668 0.378 1.53552730279e-38
-0.198520046729 0.07489950481 0.386 1.53552730279e-38
-0.198086753151 0.0752875851458 0.388 1.54471029189e-38
-0.197638388491 0.0756756654816 0.39 1.54471029189e-38
-0.198683944735 0.0766458663211 0.395 1.54471029189e-38
-0.200690282394 0.0780041474964 0.402 1.55392985488e-38
-0.200662024117 0.0785862680001 0.405 1.58155253047e-38
-0.200611159218 0.0791683885038 0.408 1.58155253047e-38
-0.200049761451 0.0795564688396 0.41 1.58155253047e-38
-0.198989134126 0.0797505090075 0.411 1.58155253047e-38
-0.198881752673 0.0803326295112 0.414 1.65502078726e-38
-0.1987517646 0.0809147500149 0.417 1.66424035025e-38
-0.198126314738 0.0813028303507 0.419 1.68260758961e-38
-0.196547619003 0.0813028303507 0.419 1.6918271526e-38
-0.195434242894 0.0814968705186 0.42 1.70104671558e-38
-0.198467297946 0.0834372721976 0.43 1.70104671558e-38
-0.199136077165 0.0844074730371 0.435 1.72859750456e-38
-0.199767178682 0.0853776738766 0.44 1.73781706755e-38
-0.201711348132 0.0869299952199 0.448 1.77469363793e-38
-0.200916348609 0.0873180755557 0.45 1.78391320092e-38
-0.202762556031 0.0888703968989 0.458 1.82071942612e-38
-0.203231643428 0.0898405977384 0.463 1.82993898911e-38
-0.204968585513 0.0913929190816 0.471 1.86674535444e-38
-0.202762556031 0.0911988789137 0.47 1.86674535444e-38
-0.202274629784 0.0917809994174 0.473 1.88511259381e-38
-0.203883467681 0.0933333207606 0.481 1.89433215679e-38
-0.204591808488 0.094497561768 0.487 1.95854539775e-38
-0.201507888538 0.0939154412643 0.484 1.96776496074e-38
-0.200922000264 0.094497561768 0.487 1.98620408671e-38
-0.200313505369 0.0950796822717 0.49 2.00460691905e-38
-0.200897509757 0.0962439232791 0.496 2.02293814504e-38
-0.200232498308 0.0968260437828 0.499 2.03219344114e-38
-0.199544880237 0.0974081642865 0.502 2.06899980647e-38
-0.198440923554 0.0977962446223 0.504 2.07821936946e-38
-0.200441609557 0.0997366463014 0.514 2.11498972142e-38
-0.200822154352 0.100900887309 0.52 2.12420928441e-38
-0.201157485905 0.102065128316 0.526 2.15183196e-38
-0.201826265124 0.103423409491 0.533 2.17027080571e-38
-0.20169250928 0.104393610331 0.538 2.17027080571e-38
-0.201892201104 0.105557851338 0.544 2.17027080571e-38
-0.201679322084 0.106528052178 0.549 2.18863804507e-38
-0.201428765363 0.107498253017 0.554 2.19789320104e-38
-0.199341420644 0.107498253017 0.554 2.25295848537e-38
-0.199034347369 0.108468453857 0.559 2.25295848537e-38
-0.198689596391 0.109438654696 0.564 2.26217790822e-38
-0.19830716771 0.110408855536 0.569 2.26217790822e-38
-0.197542310349 0.111185016208 0.573 2.27139747121e-38
-0.197088294034 0.112155217047 0.578 2.27139747121e-38
-0.195922169142 0.112737337551 0.581 2.27139761134e-38
-0.193733094626 0.112737337551 0.581 2.27139761134e-38
-0.195500178874 0.115065819566 0.593 2.24388311599e-38
-0.197502748762 0.117588341748 0.606 2.24388311599e-38
-0.196508057416 0.11836450242 0.61 2.22544399002e-38
-0.195164847321 0.118946622924 0.613 2.21622442703e-38
-0.192855204158 0.118946622924 0.613 2.20700486405e-38
-0.192099766222 0.119916823763 0.618 2.20700486405e-38
-0.193456163513 0.122245305778 0.63 2.20700486405e-38
-0.19138577376 0.122439345946 0.631 2.20700486405e-38
-0.189008310732 0.122439345946 0.631 2.18867363805e-38
-0.187222387633 0.122827426282 0.633 2.18867363805e-38
-0.186881404425 0.124185707457 0.64 2.18867363805e-38
-0.184470031465 0.124185707457 0.64 2.18867363805e-38
-0.183480991774 0.125155908296 0.645 2.18867363805e-38
-0.182734973265 0.126320149304 0.651 2.18867363805e-38
-0.181389879285 0.127096309975 0.655 2.18867363805e-38
-0.18056096983 0.128260550983 0.661 2.18867363805e-38
-0.179686847132 0.12942479199 0.667 2.17027052545e-38
-0.177970627783 0.130006912494 0.67 2.17027052545e-38
-0.17701738191 0.131171153501 0.676 2.17949008844e-38
-0.175760830531 0.132141354341 0.681 2.17949008844e-38
-0.173194978991 0.132141354341 0.681 2.17949008844e-38
-0.170879684172 0.132335394509 0.682 2.17949008844e-38
-0.168063275909 0.132141354341 0.681 2.18870965143e-38
-0.166226487912 0.132723474845 0.684 2.18870965143e-38
-0.163649333061 0.132723474845 0.684 2.19789320104e-38
-0.161543149491 0.13311155518 0.686 2.19789320104e-38
-0.159885330581 0.133887715852 0.69 2.17027080571e-38
-0.157285569108 0.133887715852 0.69 2.16105124273e-38
-0.153340713655 0.132723474845 0.684 2.15186797337e-38
-0.150763558804 0.132723474845 0.684 2.14264841038e-38
-0.146453229637 0.131171153501 0.676 2.11509776154e-38
-0.14348045891 0.130783073166 0.674 2.08743907258e-38
-0.144704984241 0.134275796188 0.692 2.05052578817e-38
-0.1433297481 0.135440037195 0.698 1.99535260386e-38
-0.140498268757 0.135245997027 0.697 1.92188378655e-38
-0.136487477325 0.133887715852 0.69 1.87600177158e-38
-0.133305595348 0.133305595348 0.687 1.85770669909e-38
-0.133380950753 0.136022157699 0.701 1.84859503608e-38
-0.130739743808 0.136022157699 0.701 1.86692626208e-38
-0.125722957719 0.133499635516 0.688 1.86689066909e-38
-0.121341040918 0.131559233837 0.678 1.83923198014e-38
-0.118436090055 0.131171153501 0.676 1.81168147142e-38
-0.116060510912 0.131365193669 0.677 1.80246218869e-38
-0.114012727781 0.131947314173 0.68 1.79327877921e-38
-0.11227013404 0.132917515013 0.685 1.81178979179e-38
-0.110329732361 0.133693675684 0.689 1.79342269256e-38
-0.108828275916 0.135051956859 0.696 1.79349443904e-38
-0.106816286602 0.135828117531 0.7 1.81193356501e-38
-0.105071808976 0.136992358538 0.706 1.81211279109e-38
-0.102846940643 0.137574479042 0.709 1.83977148004e-38
-0.100599465689 0.138156599546 0.712 1.85821060602e-38
-0.0975042424279 0.137574479042 0.709 1.89505284459e-38
-0.0949666491642 0.13776851921 0.71 1.91349197056e-38
-0.09242152036 0.137962559378 0.711 1.94104275954e-38
-0.0899950763187 0.138350639714 0.713 1.98714057447e-38
-0.0871862035969 0.138156599546 0.712 2.01479926343e-38
-0.0842661816527 0.13776851921 0.71 1.98760818777e-38
-0.0817059817675 0.137962559378 0.711 2.02455832633e-38
-0.0791382463418 0.138156599546 0.712 2.08916715384e-38
-0.076133449567 0.137574479042 0.709 2.13540916239e-38
-0.0736693278232 0.137962559378 0.711 2.12644113248e-38
-0.0710902890867 0.138156599546 0.712 2.20956069231e-38
-0.0684076366683 0.138156599546 0.712 2.22817946475e-38
-0.0658172946211 0.138350639714 0.713 2.30193568838e-38
-0.0633965022351 0.138932760217 0.716 2.33874247411e-38
-0.0609531032277 0.139514880721 0.719 2.34796189696e-38
-0.0580820622968 0.139126800385 0.717 2.34806951668e-38
-0.0553805710272 0.139126800385 0.717 2.34817727654e-38
-0.0526056082377 0.138932760217 0.716 2.34821300965e-38
-0.0501169959872 0.139514880721 0.719 2.34821272939e-38
-0.0473420331977 0.139320840553 0.718 2.3482484625e-38
-0.0446367741578 0.139320840553 0.718 2.34821258926e-38
-0.0419899155569 0.139514880721 0.719 2.34810440902e-38
-0.0392262560781 0.139320840553 0.718 2.34814070265e-38
-0.0364701321398 0.139126800385 0.717 2.34824902302e-38
-0.0337686408702 0.139126800385 0.717 2.34832118989e-38
-0.0310671496006 0.139126800385 0.717 2.34824958354e-38
-0.028365658331 0.139126800385 0.717 2.34835762365e-38
-0.0257715485135 0.139708920889 0.72 2.34796133644e-38
-0.0229626757918 0.139126800385 0.717 2.34832118989e-38
-0.0203177010759 0.139514880721 0.719 2.34857398413e-38
-0.0176331647724 0.139708920889 0.72 2.34846608415e-38
-0.0148789247193 0.139320840553 0.718 2.34839419754e-38
-0.0122075756117 0.139708920889 0.72 2.34832189054e-38
-0.0095475298148 0.140485081561 0.724 2.3482137103e-38
-0.00680082530218 0.140097001225 0.722 2.34817741667e-38
-0.00408049518131 0.140097001225 0.722 2.34792532307e-38
-0.00136204894556 0.140291041393 0.723 2.347601483e-38
0.00135451340506 0.139514880721 0.719 2.34742197666e-38
0.00404093359368 0.13873872005 0.715 2.3472423302e-38
0.00670663104591 0.138156599546 0.712 2.34731477733e-38
0.00942884505191 0.13873872005 0.715 2.34763875754e-38
0.0121906206455 0.139514880721 0.719 2.18197431036e-38
0.0148582019829 0.139126800385 0.717 2.29246487258e-38
0.0175107122393 0.13873872005 0.715 2.31947560113e-38
0.0202329262453 0.138932760217 0.716 2.29120524539e-38
0.023026727886 0.139514880721 0.719 2.34634213607e-38
0.0256641670614 0.139126800385 0.717 2.3463061227e-38
0.0284052199186 0.139320840553 0.718 2.34623409596e-38
0.0311538083164 0.139514880721 0.719 2.32779496998e-38
0.034051223639 0.140291041393 0.723 2.33701453297e-38
0.0366735917334 0.139902961057 0.721 2.30013628102e-38
0.0395540520899 0.140485081561 0.724 2.30935584401e-38
0.0426907208234 0.141843362736 0.731 2.29091671804e-38
0.0460044747588 0.143589724247 0.74 2.2908085378e-38
0.0492541765998 0.144948005422 0.747 2.29995607404e-38
0.0521384047266 0.14514204559 0.748 2.29073651105e-38
0.0551036399138 0.145530125926 0.75 2.29066462444e-38
0.0580067068918 0.145724166094 0.751 2.29988418743e-38
0.0610793235311 0.146306286598 0.754 2.29073651105e-38
0.0636658978081 0.145724166094 0.751 2.29073651105e-38
0.0663184080644 0.145336085758 0.749 2.28158897481e-38
0.0690481576109 0.14514204559 0.748 2.30917563703e-38
0.0718664497583 0.14514204559 0.748 2.30910375042e-38
0.074584895994 0.144948005422 0.747 2.30899585043e-38
0.0770885793255 0.144365884919 0.744 2.30895983706e-38
0.0795696560355 0.143783764415 0.741 2.31810751344e-38
0.0819169769015 0.143007603743 0.737 2.30888795045e-38
0.0843490725983 0.14242548324 0.734 2.30888795045e-38
0.0867585616735 0.141843362736 0.731 2.29974027408e-38
0.0892678966603 0.1414552824 0.729 2.31817883953e-38
0.0915097199594 0.140679121729 0.725 2.32747028913e-38
0.0939813772437 0.140291041393 0.723 2.34594542847e-38
0.0960366959154 0.139320840553 0.718 2.34608920169e-38
0.0984669077269 0.138932760217 0.716 2.34612521506e-38
0.100740757073 0.138350639714 0.713 2.34623339531e-38
0.102991999798 0.13776851921 0.71 2.34637744879e-38
0.104625328201 0.136410238035 0.703 2.34634115516e-38
0.106358502517 0.135245997027 0.697 2.34641346216e-38
0.108046463589 0.13408175602 0.691 2.34644919527e-38
0.109849341654 0.13311155518 0.686 2.34641332203e-38
0.111614542016 0.132141354341 0.681 2.34637716853e-38
0.113342064676 0.131171153501 0.676 2.34626926855e-38
0.114689042541 0.129812872326 0.669 2.34623311505e-38
0.116508875572 0.129036711654 0.665 2.34619724181e-38
0.118835473701 0.128842671487 0.664 2.34619710168e-38
0.120606325719 0.128066510815 0.66 2.34612535519e-38
0.122347035575 0.127290350143 0.656 2.34608948195e-38
0.124628420461 0.127096309975 0.655 2.29059231744e-38
0.124379747625 0.124379747625 0.641 2.05102787341e-38
0.126201464541 0.123797627121 0.638 2.00503879924e-38
0.126791120585 0.12205126561 0.629 1.98674386688e-38
0.128750361115 0.121663185274 0.627 1.99600000375e-38
0.129021640573 0.119722783595 0.617 1.98688848088e-38
0.130281959722 0.118752582756 0.612 1.96852054087e-38
0.132154541537 0.11836450242 0.61 1.95930097788e-38
0.133130394032 0.117200261412 0.604 1.94086213217e-38
0.134061033284 0.116036020405 0.598 1.92242328646e-38
0.136542109994 0.116230060573 0.599 1.8855093014e-38
0.137176979281 0.114871779398 0.592 1.87629001867e-38
0.138936527988 0.114483699062 0.59 1.86707073595e-38
0.139484738559 0.113125417887 0.583 1.85781557998e-38
0.140709263891 0.112349257215 0.579 1.85785117296e-38
0.142150436011 0.111767136711 0.576 1.83022877763e-38
0.142566774624 0.110408855536 0.569 1.79345842567e-38
0.142421715469 0.108662494025 0.56 1.79345842567e-38
0.141176467402 0.106139971842 0.547 1.78423886268e-38
0.142975577696 0.105945931674 0.546 1.7657640036e-38
0.143173385634 0.104587650499 0.539 1.76569197686e-38
0.140355093487 0.101094927477 0.521 1.75640052726e-38
0.141771775101 0.100706847141 0.519 1.71048235879e-38
0.143173385634 0.100318766805 0.517 1.71048235879e-38
0.142875731785 0.0987664454618 0.509 1.71051851229e-38
0.144224593534 0.098378365126 0.507 1.70129894931e-38
0.144405446506 0.0972141241186 0.501 1.68285982333e-38
0.144541086235 0.0960498831112 0.495 1.69207938632e-38
0.141673813075 0.0929452404248 0.479 1.69200777997e-38
0.14138181088 0.0915869592495 0.472 1.673568654e-38
0.141946976418 0.0908107985779 0.468 1.66434881075e-38
0.142174926518 0.0898405977384 0.463 1.66434881075e-38
0.140810993687 0.0879001960594 0.453 1.67360410685e-38
0.139057096636 0.0857657542124 0.442 1.68282366983e-38
0.131489530088 0.0801385893433 0.413 1.70126279581e-38
0.119515556231 0.0719889022914 0.371 1.70126279581e-38
0.110484210941 0.0657796169186 0.339 1.70126251555e-38
0.107805326293 0.0634511349038 0.327 1.69204295256e-38
0.107370148829 0.0624809340643 0.322 1.69204323282e-38
0.109257801724 0.0628690144001 0.324 1.68278793672e-38
0.120708055516 0.0686902194371 0.354 1.69193547297e-38
0.22130940509 0.123215506617 0.635 1.70115489582e-38
0.235327394307 0.129618832158 0.668 1.71037417855e-38
0.242472970587 0.132141354341 0.681 1.71955744791e-38
0.247197754481 0.133305595348 0.687 1.71955716765e-38
0.250513392301 0.133693675684 0.689 1.71040977153e-38
0.254946174001 0.134663876524 0.694 1.70119020855e-38
0.257932131925 0.134857916692 0.695 1.68282338957e-38
0.260925625389 0.135051956859 0.696 1.68282366983e-38
0.262412010752 0.134469836356 0.693 1.67356837374e-38
0.265023075536 0.134469836356 0.693 1.67360410685e-38
0.268792729672 0.135051956859 0.696 1.69193533284e-38
0.270245205103 0.134469836356 0.693 1.69193505258e-38
0.272856269887 0.134469836356 0.693 1.64594625867e-38
0.275069834909 0.134275796188 0.692 1.64594625867e-38
0.278078399454 0.134469836356 0.693 1.62761503268e-38
0.281499534842 0.134857916692 0.695 1.62761503268e-38
0.282482922877 0.13408175602 0.691 1.62761503268e-38
0.285911593805 0.134469836356 0.693 1.61839546969e-38
0.288938997201 0.134663876524 0.694 1.58158910436e-38
0.289033191457 0.133499635516 0.688 1.57236954137e-38
0.29162541739 0.133499635516 0.688 1.53563520278e-38
0.295928211016 0.134275796188 0.692 1.53563520278e-38
0.299398327417 0.134663876524 0.694 1.53563520278e-38
0.304624224754 0.135828117531 0.7 1.5264875264e-38
0.308578499632 0.136410238035 0.703 1.50804840043e-38
0.311669955123 0.136604278203 0.704 1.50804840043e-38
0.315215426928 0.136992358538 0.706 1.51726796341e-38
0.316974975635 0.136604278203 0.704 1.49893673742e-38
0.318719453261 0.136216197867 0.702 1.55400174149e-38
0.321822212063 0.136410238035 0.703 1.55400202175e-38
0.322624747126 0.135634077363 0.699 1.55396642877e-38
0.323397140027 0.134857916692 0.695 1.54474714604e-38
0.324608478163 0.134275796188 0.692 1.5631143854e-38
0.327215775176 0.134275796188 0.692 1.57233394839e-38
0.328393203379 0.133693675684 0.689 1.59080866734e-38
0.328587243547 0.132723474845 0.684 1.60924779331e-38
0.330680239921 0.132529434677 0.683 1.67349620686e-38
0.330813995765 0.131559233837 0.678 1.65516498087e-38
0.333368543995 0.131559233837 0.678 1.64598143126e-38
0.334932168649 0.131171153501 0.676 1.61843078241e-38
0.33697995178 0.130977113333 0.675 1.59080866734e-38
0.338014204714 0.13039499283 0.672 1.5356357633e-38
0.336492025533 0.128842671487 0.664 1.51723307108e-38
0.33848329211 0.128648631319 0.663 1.49875835213e-38
0.339438421869 0.128066510815 0.66 1.43454511117e-38
0.338298671368 0.12670822964 0.653 1.45291193014e-38
0.338671680623 0.125932068968 0.649 1.46205932626e-38
0.337963339816 0.124767827961 0.643 1.4989014247e-38
0.341444759527 0.125155908296 0.645 1.55414621536e-38
0.340676134396 0.123991667289 0.639 1.56336549809e-38
0.340936110543 0.123215506617 0.635 1.56340109107e-38
0.341165944529 0.122439345946 0.631 1.52663059897e-38
0.339732307948 0.121081064771 0.624 1.46223911285e-38
0.341535186013 0.120887024603 0.623 1.45301954986e-38
0.343330528538 0.120692984435 0.622 1.43461671752e-38
0.345118335521 0.120498944267 0.621 1.42539743479e-38
0.346898606965 0.120304904099 0.62 1.39781077258e-38
0.34698149791 0.119528743427 0.616 1.37944381348e-38
0.345333098426 0.118170462252 0.609 1.37022425049e-38
0.348769304894 0.118558542588 0.611 1.37022439062e-38
0.348198487701 0.117588341748 0.606 1.41624989855e-38
0.347589992806 0.116618140909 0.601 1.53628176189e-38
0.346943820208 0.115647940069 0.596 1.80350321332e-38
0.348017634729 0.115259859733 0.594 1.85150833559e-38
0.349666034214 0.115065819566 0.593 2.25886201567e-38
0.352493745787 0.115259859733 0.594 2.29545342182e-38
0.351745843392 0.114289658894 0.589 2.35030136475e-38
-0.358912142409 0.118882570829 0.601 1.41603339794e-38
-0.349526626715 0.116508875572 0.589 1.43443609015e-38
-0.321952200136 0.108003134231 0.546 1.43443580989e-38
-0.208399140326 0.0708152418584 0.358 1.43443609015e-38
-0.180446052838 0.0617160767034 0.312 1.4528037499e-38
-0.170077149108 0.058551149693 0.296 1.4528037499e-38
-0.167820254728 0.0581555338167 0.294 1.44354887419e-38
-0.168980727965 0.0589467655693 0.298 1.45276843718e-38
-0.175180593913 0.0615182687653 0.311 1.48035481914e-38
-0.181842011715 0.0642875798994 0.325 1.48957410186e-38
-0.185619201392 0.0660678513428 0.334 1.49875751135e-38
-0.189880549545 0.0680459307243 0.344 1.49875723109e-38
-0.19297012115 0.0696283942295 0.352 1.52630802007e-38
-0.194366080028 0.0706174339203 0.357 1.52630773981e-38
-0.194102336111 0.0710130497966 0.359 1.52627172644e-38
-0.193823521112 0.0714086656729 0.361 1.53549128942e-38
-0.194062774523 0.0720020894873 0.364 1.53552730279e-38
-0.193750049592 0.0723977053636 0.366 1.54474686578e-38
-0.19342225358 0.0727933212399 0.368 1.53552730279e-38
-0.194123058847 0.0735845529925 0.372 1.55396642877e-38
-0.194275653542 0.074177976807 0.375 1.53563520278e-38
-0.196462844173 0.0755626323741 0.382 1.52641563979e-38
-0.196555154544 0.0761560561885 0.385 1.52627144618e-38
-0.196118093195 0.0765516720648 0.387 1.5354907289e-38
-0.197677950078 0.0777385196937 0.393 1.56311340449e-38
-0.200191052835 0.0793209831989 0.401 1.58155239034e-38
-0.200662024117 0.0801122149516 0.405 1.59999123605e-38
-0.200611159218 0.080705638766 0.408 1.61835805502e-38
-0.199073908956 0.080705638766 0.408 1.61835805502e-38
-0.198020817171 0.0809034467042 0.409 1.61835805502e-38
-0.196960189846 0.0811012546423 0.41 1.62750601166e-38
-0.198275141663 0.0822881022712 0.416 1.63672557464e-38
-0.198599169905 0.0830793340238 0.42 1.65516442035e-38
-0.197485793796 0.083277141962 0.421 1.68275108257e-38
-0.196364882146 0.0834749499001 0.422 1.71033760466e-38
-0.196621090523 0.0842661816527 0.426 1.72874071726e-38
-0.198220508994 0.0856508372198 0.433 1.76543904249e-38
-0.199313162367 0.0868376848487 0.439 1.7930257047e-38
-0.199910353952 0.0878267245395 0.444 1.81135608991e-38
-0.200469867834 0.0888157642302 0.449 1.8205756529e-38
-0.202319843027 0.0903982277355 0.457 1.82979521589e-38
-0.204109533896 0.0919806912407 0.465 1.83901477887e-38
-0.203663053121 0.0925741150551 0.468 1.87582100408e-38
-0.201899736644 0.0925741150551 0.468 1.88504056706e-38
-0.202274629784 0.0935631547459 0.473 1.89426013005e-38
-0.203459593528 0.094947810313 0.48 1.90347969304e-38
-0.203751595722 0.0959368500037 0.485 1.93110194824e-38
-0.201507888538 0.0957390420656 0.484 1.9678723002e-38
-0.201334571106 0.0965302738182 0.488 1.99545910255e-38
-0.200722308441 0.0971236976326 0.491 2.00467866553e-38
-0.200897509757 0.0981127373234 0.496 2.05063228685e-38
-0.200232498308 0.0987061611378 0.499 2.05985184984e-38
-0.199544880237 0.0992995849523 0.502 2.0782190892e-38
-0.198440923554 0.0996952008286 0.504 2.11502531441e-38
-0.199661681115 0.101277664334 0.512 2.11502531441e-38
-0.200435957902 0.102662319901 0.519 2.12424487739e-38
-0.200775057224 0.10384916753 0.525 2.15183139948e-38
-0.201068943304 0.105036015159 0.531 2.16105096247e-38
-0.20169250928 0.106420670726 0.538 2.16105096247e-38
-0.200778824995 0.10701409454 0.541 2.17027052545e-38
-0.200577249286 0.108003134231 0.546 2.19789292078e-38
-0.201065175534 0.109387789798 0.553 2.21633204675e-38
-0.198981598585 0.109387789798 0.553 2.24384668223e-38
-0.197610130214 0.109783405674 0.555 2.24384668223e-38
-0.197632736835 0.110970253303 0.561 2.24384668223e-38
-0.197958648962 0.11235490887 0.568 2.24384668223e-38
-0.196852808393 0.112948332685 0.571 2.24384668223e-38
-0.196065344411 0.113739564437 0.575 2.25306624522e-38
-0.194910522829 0.114332988252 0.578 2.2622858082e-38
-0.194066542293 0.115124220004 0.582 2.25306624522e-38
-0.195500178874 0.117300107324 0.593 2.21625987988e-38
-0.195873188128 0.118882570829 0.601 2.21625987988e-38
-0.194253046921 0.119278186706 0.603 2.1886733578e-38
-0.193891340977 0.120465034335 0.609 2.1886733578e-38
-0.19191137771 0.120662842273 0.61 2.1886733578e-38
-0.191167243085 0.121651881963 0.615 2.17945379481e-38
-0.190692504034 0.122838729592 0.621 2.17027052545e-38
-0.191082468255 0.124619001036 0.63 2.16105096247e-38
-0.189008310732 0.124816808974 0.631 2.17941848209e-38
-0.186630847704 0.124816808974 0.631 2.17941848209e-38
-0.186005397842 0.126003656603 0.637 2.17941848209e-38
-0.184181797041 0.126399272479 0.639 2.17941848209e-38
-0.18319652512 0.12738831217 0.644 2.17941848209e-38
-0.181892876614 0.128179543922 0.648 2.18863804507e-38
-0.180836017059 0.129168583613 0.653 2.17941848209e-38
-0.180287806487 0.13055323918 0.66 2.1701989191e-38
-0.17860926484 0.131146662995 0.663 2.17030611843e-38
-0.177439372178 0.132135702686 0.668 2.17030611843e-38
-0.17596994178 0.132926934438 0.672 2.17952568142e-38
-0.174986553745 0.134113782067 0.678 2.1703421318e-38
-0.172686330007 0.134311590005 0.679 2.16112256882e-38
-0.170378570728 0.134509397943 0.68 2.14279134283e-38
-0.168310064861 0.13490501382 0.682 2.15201090581e-38
-0.166469509093 0.135498437634 0.685 2.15201090581e-38
-0.162931572828 0.134707205882 0.681 2.16123074906e-38
-0.16130766385 0.135498437634 0.685 2.15201118607e-38
-0.158958459099 0.135696245572 0.686 2.15197559309e-38
-0.156601718807 0.13589405351 0.687 2.15197559309e-38
-0.154237442975 0.136091861449 0.688 2.12431690413e-38
-0.149220656886 0.133915974129 0.677 2.10587805842e-38
-0.14536999569 0.1327291265 0.671 2.08743893245e-38
-0.142203184795 0.132135702686 0.668 2.06899980647e-38
-0.14115009301 0.133520358253 0.675 2.00471537955e-38
-0.139222878527 0.134113782067 0.678 1.98627653384e-38
-0.137877784547 0.135300629696 0.684 1.94025116604e-38
-0.136289669387 0.136289669387 0.689 1.87582282577e-38
-0.134469836356 0.137080901139 0.693 1.82061362809e-38
-0.133380950753 0.138663364645 0.701 1.78402306272e-38
-0.131858771572 0.139850212273 0.707 1.74736061074e-38
-0.129743168576 0.140443636088 0.71 1.74743221709e-38
-0.124920422656 0.13806994083 0.698 1.72906539812e-38
-0.120363304538 0.13589405351 0.687 1.71984583513e-38
-0.117431979283 0.135498437634 0.685 1.71062627214e-38
-0.114851056661 0.135498437634 0.685 1.71984597526e-38
-0.112925726063 0.136289669387 0.689 1.71066242564e-38
-0.110489862596 0.136487477325 0.69 1.69222357993e-38
-0.10867191345 0.137476517016 0.695 1.70144314292e-38
-0.106816286602 0.138465556706 0.7 1.73832139486e-38
-0.104625328201 0.139058980521 0.703 1.77523509966e-38
-0.102411763179 0.139652404335 0.706 1.80289378862e-38
-0.100034300151 0.140048020212 0.708 1.81211335161e-38
-0.0980543368845 0.141037059902 0.713 1.83977204056e-38
-0.0951004050081 0.140641444026 0.711 1.86750261613e-38
-0.0926814965073 0.141037059902 0.713 1.88594174211e-38
-0.090121296622 0.141234867841 0.714 1.93203955704e-38
-0.0871862035969 0.140839251964 0.712 1.96891780898e-38
-0.0842661816527 0.140443636088 0.71 1.98735637444e-38
-0.0818208987602 0.140839251964 0.712 2.02423462638e-38
-0.0791382463418 0.140839251964 0.712 2.06122077831e-38
-0.0763482124713 0.140641444026 0.711 2.08902338062e-38
-0.0740837825507 0.141432675779 0.715 2.16285177112e-38
-0.0711901349983 0.141037059902 0.713 2.16299568448e-38
-0.0686958710925 0.141432675779 0.715 2.20916538602e-38
-0.0660942257345 0.141630483717 0.716 2.26448276394e-38
-0.0632194170334 0.141234867841 0.714 2.2923208191e-38
-0.0606987787358 0.141630483717 0.716 2.32919921117e-38
-0.0581630693572 0.142026099593 0.718 2.34771036389e-38
-0.0552260924469 0.141432675779 0.715 2.34778239063e-38
-0.0526056082377 0.141630483717 0.716 2.34781812374e-38
-0.0499078847383 0.141630483717 0.716 2.34792588359e-38
-0.0473420331977 0.142026099593 0.718 2.34806951668e-38
-0.0446367741578 0.142026099593 0.718 2.34810524979e-38
-0.0418731146791 0.141828291655 0.717 2.34792490268e-38
-0.0392808887467 0.142223907531 0.719 2.34792490268e-38
-0.0365209970382 0.142026099593 0.718 2.34806895616e-38
-0.0337686408702 0.141828291655 0.717 2.34814098291e-38
-0.0311538083164 0.142223907531 0.719 2.34803294279e-38
-0.0284052199186 0.142026099593 0.718 2.34788888931e-38
-0.025628373244 0.141630483717 0.716 2.34770882246e-38
-0.0229626757918 0.141828291655 0.717 2.34792490268e-38
-0.020289442799 0.142026099593 0.718 2.34806937655e-38
-0.0175352027459 0.141630483717 0.716 2.34810510966e-38
-0.0148167565101 0.141432675779 0.715 2.34810496953e-38
-0.0121906206455 0.142223907531 0.719 2.34803294279e-38
-0.00952115542305 0.142817331346 0.722 2.34788902944e-38
-0.00675372817405 0.141828291655 0.717 2.34778112946e-38
-0.00408049518131 0.142817331346 0.722 2.34760134287e-38
-0.00136016506044 0.142817331346 0.722 2.34742155627e-38
0.00135262951993 0.142026099593 0.718 2.34706310413e-38
0.00402963028292 0.141037059902 0.713 2.3472784837e-38
0.00671605047154 0.141037059902 0.713 2.34756603015e-38
0.00948159383542 0.142223907531 0.719 2.34763805689e-38
0.0121736656794 0.142026099593 0.718 2.31947560113e-38
0.0148374792465 0.141630483717 0.716 2.33784312075e-38
0.0175107122393 0.141432675779 0.715 2.34727960474e-38
0.0203742176297 0.142619523408 0.721 2.22735339931e-38
0.0231228060274 0.142817331346 0.722 2.34641444307e-38
0.0258073423309 0.142619523408 0.721 2.34641416281e-38
0.0284843430939 0.142421715469 0.72 2.3463422762e-38
0.0312404670321 0.142619523408 0.721 2.3460540291e-38
0.0342396121515 0.143806371036 0.727 2.34608976221e-38
0.0369279162253 0.143608563098 0.726 2.34608962208e-38
0.0397725827644 0.144004178975 0.728 2.33697823934e-38
0.0430411234567 0.145784450418 0.737 2.291060211e-38
0.0465018204318 0.147960337738 0.748 2.34587354186e-38
0.0495179205174 0.148553761552 0.751 2.34587354186e-38
0.0523475159755 0.148553761552 0.751 2.34583752849e-38
0.0551036399138 0.148355953614 0.75 2.34583752849e-38
0.0579294676017 0.148355953614 0.75 2.33668985211e-38
0.0609173094103 0.14875156949 0.752 2.33668985211e-38
0.0636658978081 0.148553761552 0.751 2.32757818911e-38
0.0665840358671 0.14875156949 0.752 2.32757818911e-38
0.0688635368686 0.147564721861 0.746 2.34576578201e-38
0.0716742934755 0.147564721861 0.746 2.34576606227e-38
0.0742853582591 0.147169105985 0.744 2.3457300489e-38
0.076674124598 0.146377874232 0.74 2.34569403553e-38
0.0791401302269 0.145784450418 0.737 2.34562214892e-38
0.0818058276792 0.14558664248 0.736 2.34558585529e-38
0.084119238613 0.144795410727 0.732 2.3456215884e-38
0.0867585616735 0.144597602789 0.731 2.34562130814e-38
0.089022991594 0.143806371036 0.727 2.34572920812e-38
0.0912572793526 0.143015139284 0.723 2.34590927497e-38
0.0935914130228 0.142421715469 0.72 2.34605360871e-38
0.0960366959154 0.142026099593 0.718 2.34616150869e-38
0.0979168132704 0.140839251964 0.712 2.34601759534e-38
0.100458174304 0.140641444026 0.711 2.34626968894e-38
0.102266704025 0.139454596397 0.705 2.34644975579e-38
0.104327674352 0.138663364645 0.701 2.34645017618e-38
0.106511097212 0.13806994083 0.698 2.34655695512e-38
0.108046463589 0.136685285263 0.691 2.34652108188e-38
0.109849341654 0.135696245572 0.686 2.34648492838e-38
0.111942338028 0.135102821758 0.683 2.34641304177e-38
0.113677396228 0.134113782067 0.678 2.34630514179e-38
0.114689042541 0.132333510624 0.669 2.34630528192e-38
0.116508875572 0.131542278871 0.665 2.34626954881e-38
0.118656504614 0.131146662995 0.663 2.34616136856e-38
0.120789062576 0.130751047118 0.661 2.34626912842e-38
0.122160530947 0.12956419949 0.655 2.34601773547e-38
0.124438148064 0.129366391551 0.654 2.09694618201e-38
0.123797627121 0.126201464541 0.638 1.98659995353e-38
0.125410232788 0.125410232788 0.634 1.96844921478e-38
0.125984817752 0.123629961345 0.625 1.9869599471e-38
0.127107613286 0.122443113716 0.619 1.99617922983e-38
0.12776697308 0.120860650211 0.611 1.98692309295e-38
0.129643322665 0.120465034335 0.609 1.98685106621e-38
0.131721247958 0.120267226396 0.608 1.96837634726e-38
0.132248735793 0.118684762891 0.6 1.94071821882e-38
0.133612668624 0.117893531139 0.596 1.90391227387e-38
0.135630309593 0.1176957232 0.595 1.87628973841e-38
0.136481825669 0.116508875572 0.589 1.87629001867e-38
0.137759099784 0.115717643819 0.585 1.85792277931e-38
0.138766978326 0.114728604128 0.58 1.85792277931e-38
0.140709263891 0.11453079619 0.579 1.85781557998e-38
0.141163280206 0.113146140623 0.572 1.83944834062e-38
0.141313991016 0.111563677118 0.564 1.82100921465e-38
0.140132795042 0.108992173922 0.551 1.80267798866e-38
0.140144098353 0.107409710417 0.543 1.79345842567e-38
0.140880697437 0.106420670726 0.538 1.79335052569e-38
0.141579618818 0.105431631035 0.533 1.76569183673e-38
0.139816302341 0.102662319901 0.519 1.75640038713e-38
0.140679121729 0.101871088148 0.515 1.73814104775e-38
0.141788730067 0.101277664334 0.512 1.73814104775e-38
0.142314334017 0.100288624643 0.507 1.72899309112e-38
0.143371193573 0.0996952008286 0.504 1.71977352813e-38
0.142099571113 0.0975193135089 0.493 1.70129880918e-38
0.141329062097 0.0957390420656 0.484 1.69207938632e-38
0.139603423322 0.0933653468077 0.472 1.65527372163e-38
0.14078273541 0.0929697309314 0.47 1.64605415865e-38
0.140430448892 0.0915850753644 0.463 1.64601898606e-38
0.141867853243 0.0913872674262 0.462 1.66438594516e-38
0.13987847055 0.0890135721684 0.45 1.67360522789e-38
0.140000923083 0.0880245324776 0.445 1.68278849724e-38
0.132444659846 0.0822881022712 0.416 1.70122734295e-38
0.119193411875 0.0731889371162 0.37 1.71959416193e-38
0.110484210941 0.0670568910335 0.339 1.71037445881e-38
0.107805326293 0.0646831957757 0.327 1.71955772817e-38
0.107703596496 0.0638919640231 0.323 1.69193533284e-38
0.109595017162 0.0642875798994 0.325 1.70115489582e-38
0.121049038723 0.070221818044 0.355 1.70115489582e-38
0.222354961334 0.126201464541 0.638 1.71037417855e-38
0.235679680825 0.132333510624 0.669 1.71040977153e-38
0.243185079164 0.135102821758 0.683 1.71040977153e-38
0.246837932422 0.135696245572 0.686 1.71040977153e-38
0.250149802472 0.136091861449 0.688 1.72874071726e-38
0.253844101203 0.136685285263 0.691 1.71952115428e-38
0.257932131925 0.137476517016 0.695 1.71033760466e-38
0.260550732249 0.137476517016 0.695 1.71033788492e-38
0.263169332573 0.137476517016 0.695 1.70111832193e-38
0.265405504216 0.137278709077 0.694 1.69189903921e-38
0.268792729672 0.137674324954 0.696 1.68271548959e-38
0.271415097766 0.137674324954 0.696 1.68271548959e-38
0.272462537896 0.136883093201 0.692 1.69189903921e-38
0.275069834909 0.136883093201 0.692 1.67345991323e-38
0.277677131922 0.136883093201 0.692 1.65505708089e-38
0.281499534842 0.137476517016 0.695 1.64590968478e-38
0.283709332093 0.137278709077 0.694 1.62754272567e-38
0.286324164647 0.137278709077 0.694 1.59995634372e-38
0.288938997201 0.137278709077 0.694 1.58155351137e-38
0.291553829755 0.137278709077 0.694 1.5631143854e-38
0.293320914003 0.136883093201 0.692 1.50815714119e-38
0.295928211016 0.136883093201 0.692 1.4989375782e-38
0.29982973711 0.137476517016 0.695 1.48971801522e-38
0.304624224754 0.138465556706 0.7 1.48971801522e-38
0.308578499632 0.139058980521 0.703 1.48971801522e-38
0.312555381131 0.139652404335 0.706 1.48049845223e-38
0.314322465379 0.139256788459 0.704 1.48049845223e-38
0.31652472709 0.139058980521 0.703 1.48971801522e-38
0.318265436946 0.138663364645 0.701 1.55400202175e-38
0.320448859806 0.138465556706 0.7 1.55400202175e-38
0.322624747126 0.138267748768 0.699 1.55400202175e-38
0.322931820401 0.137278709077 0.694 1.55400202175e-38
0.32367030337 0.136487477325 0.69 1.57236926111e-38
0.327688630343 0.137080901139 0.693 1.5815888241e-38
0.327439957506 0.13589405351 0.687 1.60002795007e-38
0.327626462133 0.13490501382 0.682 1.61846707604e-38
0.331164398399 0.135300629696 0.684 1.6643842636e-38
0.330813995765 0.134113782067 0.678 1.64598143126e-38
0.33238515596 0.133718166191 0.676 1.61843078241e-38
0.333445783285 0.133124742376 0.673 1.60002795007e-38
0.335981492664 0.133124742376 0.673 1.55407460901e-38
0.338014204714 0.132926934438 0.672 1.53567177667e-38
0.335985260434 0.131146662995 0.663 1.50812112782e-38
0.338993824979 0.131344470933 0.664 1.48049873249e-38
0.339438421869 0.13055323918 0.66 1.48049901275e-38
0.338816739777 0.129366391551 0.654 1.44362048054e-38
0.340237189162 0.128970775675 0.652 1.4344006373e-38
0.339540151666 0.127783928046 0.646 1.48053418534e-38
0.339856644367 0.126992696294 0.642 1.54499895937e-38
0.340676134396 0.126399272479 0.639 1.55425411534e-38
0.340936110543 0.125608040727 0.635 1.5450342721e-38
0.34170661956 0.125014616912 0.632 1.52659486586e-38
0.340821193551 0.123827769283 0.626 1.49890254574e-38
0.341535186013 0.123234345469 0.623 1.47131574339e-38
0.341674593512 0.122443113716 0.619 1.4345814048e-38
0.344006843298 0.122443113716 0.619 1.40703061582e-38
0.347458120847 0.122838729592 0.621 1.34256556153e-38
0.346418216258 0.121651881963 0.615 1.33345389853e-38
0.34419899958 0.120069418458 0.607 1.37022425049e-38
0.347056853315 0.120267226396 0.608 1.37944381348e-38
0.348198487701 0.11987161052 0.606 1.4437643939e-38
0.345854934605 0.118289147015 0.598 1.52659486586e-38
0.347525940712 0.118091339077 0.597 1.7667339824e-38
0.347431746455 0.117300107324 0.593 1.8059877155e-38
0.352024658391 0.118091339077 0.597 2.2680113736e-38
0.351306898158 0.117102299386 0.592 2.30453033262e-38
0.351745843392 0.116508875572 0.589 2.35033793864e-38
-0.360106525578 0.121550152167 0.603 1.41603325781e-38
-0.351306898158 0.119332819374 0.592 1.43443609015e-38
-0.330207384755 0.112882396705 0.56 1.43443609015e-38
-0.213056104356 0.0737767092753 0.366 1.44365565314e-38
-0.183337816505 0.0638994995636 0.317 1.45280360977e-38
-0.171226319035 0.0600695611039 0.298 1.45280360977e-38
-0.167820254728 0.0592632582703 0.294 1.46202331289e-38
-0.169547777388 0.0602711368123 0.299 1.46202331289e-38
-0.174054030608 0.0622868938964 0.309 1.48957410186e-38
-0.180722983951 0.065108953814 0.323 1.48957410186e-38
-0.18506345528 0.067124710898 0.333 1.49875751135e-38
-0.189880549545 0.0693420436905 0.344 1.49875751135e-38
-0.19297012115 0.0709546493577 0.352 1.52630830033e-38
-0.194910522829 0.0721641036081 0.358 1.52630830033e-38
-0.195183686173 0.0727688307333 0.361 1.54471085241e-38
-0.193823521112 0.0727688307333 0.361 1.54471085241e-38
-0.193529635033 0.0731719821501 0.363 1.53552730279e-38
-0.193750049592 0.0737767092753 0.366 1.53552730279e-38
-0.19289664963 0.0739782849837 0.367 1.54474686578e-38
-0.193601222667 0.0747845878173 0.371 1.55396642877e-38
-0.193239516723 0.0751877392341 0.373 1.54485476576e-38
-0.195434242894 0.0765987691929 0.38 1.52641563979e-38
-0.196044621675 0.0774050720266 0.384 1.56307781151e-38
-0.195104562997 0.077606647735 0.385 1.56311340449e-38
-0.196671955421 0.0788161019854 0.391 1.56311340449e-38
-0.200191052835 0.0808318590694 0.401 1.56311326436e-38
-0.200166562329 0.0814365861946 0.404 1.6183227423e-38
-0.19815268913 0.0812350104862 0.403 1.61835833528e-38
-0.197122203966 0.0814365861946 0.404 1.61835833528e-38
-0.19656834174 0.0818397376114 0.406 1.61835805502e-38
-0.196479799139 0.0824444647366 0.409 1.63672557464e-38
-0.19732189579 0.0834523432786 0.414 1.64594513763e-38
-0.196707749239 0.0838554946954 0.416 1.65516442035e-38
-0.196078531607 0.0842586461122 0.418 1.69197064556e-38
-0.195434242894 0.084661797529 0.42 1.71033760466e-38
-0.197082642379 0.0860728274879 0.427 1.72874071726e-38
-0.199136077165 0.0876854331551 0.435 1.76543904249e-38
-0.199313162367 0.0884917359887 0.439 1.7930257047e-38
-0.200360602497 0.0897011902391 0.445 1.81142825679e-38
-0.201362829383 0.0909106444895 0.451 1.82064781977e-38
-0.204090695045 0.0929264015736 0.461 1.83901505913e-38
-0.205426369599 0.0943374315324 0.468 1.84823462212e-38
-0.204098230585 0.0945390072408 0.469 1.86667374809e-38
-0.202762556031 0.0947405829492 0.47 1.86667374809e-38
-0.200991704014 0.0947405829492 0.47 1.89422453707e-38
-0.201340222762 0.0957484614912 0.475 1.90344410006e-38
-0.201230957425 0.0965547643248 0.479 1.93106621513e-38
-0.201507888538 0.0975626428668 0.484 1.96787244033e-38
-0.201334571106 0.0983689457004 0.488 1.99545910255e-38
-0.200313505369 0.0987720971172 0.49 2.00467866553e-38
-0.200087439154 0.0995783999508 0.494 2.0598521301e-38
-0.199028695713 0.0999815513676 0.496 2.0598521301e-38
-0.199544880237 0.101191005618 0.502 2.0782190892e-38
-0.198440923554 0.101594157035 0.504 2.10580575142e-38
-0.198101824232 0.102400459868 0.508 2.12424487739e-38
-0.198891172099 0.103811489827 0.515 2.12424487739e-38
-0.200010199863 0.105424095495 0.523 2.15183139948e-38
-0.200311621483 0.106633549745 0.529 2.16105096247e-38
-0.200192936721 0.107641428287 0.534 2.17027052545e-38
-0.200407699625 0.108850882537 0.54 2.17949008844e-38
-0.199842534087 0.109657185371 0.544 2.19789292078e-38
-0.199610816217 0.110665063913 0.549 2.19789292078e-38
-0.196462844173 0.110060336788 0.546 2.24384668223e-38
-0.197254075925 0.111672942455 0.554 2.24384668223e-38
-0.198337309872 0.113487123831 0.563 2.24384668223e-38
-0.197958648962 0.114495002373 0.568 2.24384668223e-38
-0.197542310349 0.115502880915 0.573 2.24384668223e-38
-0.196065344411 0.115906032331 0.575 2.25306624522e-38
-0.194910522829 0.116510759457 0.578 2.2622858082e-38
-0.193733094626 0.117115486582 0.581 2.25306624522e-38
-0.195170498977 0.119332819374 0.592 2.24391856884e-38
-0.195547276002 0.120945425041 0.6 2.23469900586e-38
-0.194253046921 0.121550152167 0.603 2.19789292078e-38
-0.192936211218 0.122154879292 0.606 2.1886733578e-38
-0.19191137771 0.122961182126 0.61 2.17945379481e-38
-0.191167243085 0.123969060668 0.615 2.17945379481e-38
-0.190385430758 0.12497693921 0.62 2.17027052545e-38
-0.189869246234 0.12618639346 0.626 2.17027052545e-38
-0.187810159792 0.126387969168 0.627 2.17941848209e-38
-0.186630847704 0.127194272002 0.631 2.17941848209e-38
-0.186005397842 0.128403726252 0.637 2.17941848209e-38
-0.183605328193 0.128403726252 0.637 2.17941848209e-38
-0.182058658505 0.129008453378 0.64 2.17941848209e-38
-0.179085887777 0.128605301961 0.638 2.17941848209e-38
-0.180559085945 0.131427361878 0.652 2.17941848209e-38
-0.179468316458 0.13243524042 0.657 2.1701989191e-38
-0.178878660413 0.133846270379 0.664 2.17027052545e-38
-0.177173744375 0.134450997504 0.667 2.17027052545e-38
-0.176231801812 0.135660451755 0.673 2.16112284908e-38
-0.174212276958 0.136063603172 0.675 2.17034241206e-38
-0.172686330007 0.136869906005 0.679 2.15190328609e-38
-0.169626900563 0.136466754588 0.677 2.16112284908e-38
-0.167569698006 0.136869906005 0.679 2.14279162309e-38
-0.165254403188 0.137071481714 0.68 2.14279162309e-38
-0.162692319417 0.137071481714 0.68 2.15197559309e-38
-0.160836692569 0.137676208839 0.683 2.15197559309e-38
-0.158958459099 0.138280935964 0.686 2.14275603011e-38
-0.156601718807 0.138482511673 0.687 2.13353646712e-38
-0.153564895985 0.138079360256 0.685 2.11509762141e-38
-0.149881900565 0.137071481714 0.68 2.10587805842e-38
-0.146669876427 0.136466754588 0.677 2.07821936946e-38
-0.142628942833 0.13505572463 0.67 2.05978024349e-38
-0.140522759263 0.135458876046 0.672 2.00471565981e-38
-0.138606848091 0.136063603172 0.675 1.97705697085e-38
-0.135660451755 0.135660451755 0.673 1.92181204007e-38
-0.135300629696 0.137877784547 0.684 1.84819972979e-38
-0.135051956859 0.140296693048 0.696 1.81142965808e-38
-0.133190678356 0.141102995882 0.7 1.76558393675e-38
-0.131672266945 0.142312450132 0.706 1.74725271076e-38
-0.130291379148 0.143723480091 0.713 1.71973793515e-38
-0.127425989872 0.143521904383 0.712 1.68296772332e-38
-0.121940116388 0.140296693048 0.696 1.67374816033e-38
-0.118460580561 0.139288814506 0.691 1.65534504773e-38
-0.11535405399 0.138684087381 0.688 1.66456461071e-38
-0.112761828057 0.138684087381 0.688 1.67378445396e-38
-0.110009471889 0.138482511673 0.687 1.66456489097e-38
-0.10835918852 0.139691965923 0.693 1.66463677758e-38
-0.106358502517 0.140498268757 0.697 1.70151502953e-38
-0.104774155126 0.141909298715 0.704 1.72920917134e-38
-0.102701881489 0.142715601549 0.708 1.7568678603e-38
-0.10031688292 0.143118752966 0.71 1.76608742328e-38
-0.0976417660421 0.143118752966 0.71 1.78452654926e-38
-0.0949666491642 0.143118752966 0.71 1.82133291459e-38
-0.09242152036 0.143320328674 0.711 1.84899160355e-38
-0.0899950763187 0.143723480091 0.713 1.89508941848e-38
-0.0874311086632 0.143925055799 0.714 1.93196767043e-38
-0.0845035511785 0.143521904383 0.712 1.95962579887e-38
-0.0815910647749 0.143118752966 0.71 1.98735637444e-38
-0.078915947897 0.143118752966 0.71 2.02434252636e-38
-0.0763482124713 0.143320328674 0.711 2.06129266492e-38
-0.0740837825507 0.144126631508 0.715 2.08902338062e-38
-0.07128998091 0.143925055799 0.714 2.11675395619e-38
-0.0686958710925 0.144126631508 0.715 2.16292365773e-38
-0.06572498425 0.143521904383 0.712 2.19065437343e-38
-0.0628652466298 0.143118752966 0.71 2.21852830184e-38
-0.0602749045826 0.143320328674 0.711 2.25537082067e-38
-0.0576770269949 0.143521904383 0.712 2.3014686356e-38
-0.0550716138666 0.143723480091 0.713 2.31990776158e-38
-0.0525321367178 0.144126631508 0.715 2.33841863403e-38
-0.0498381809887 0.144126631508 0.715 2.34774581674e-38
-0.0471442252596 0.144126631508 0.715 2.34785357659e-38
-0.0443259331122 0.143723480091 0.713 2.3478893097e-38
-0.0416979133624 0.143925055799 0.714 2.34763721611e-38
-0.0394447867526 0.145537661467 0.722 2.34760120274e-38
-0.0365718619366 0.144932934341 0.719 2.34774525622e-38
-0.0338628351265 0.144932934341 0.719 2.3478893097e-38
-0.0311104789585 0.144731358633 0.718 2.34774525622e-38
-0.0284052199186 0.144731358633 0.718 2.34760120274e-38
-0.0256999608788 0.144731358633 0.718 2.34749316263e-38
-0.0230587539331 0.14513451005 0.72 2.34785329633e-38
-0.0203459593528 0.14513451005 0.72 2.34814112304e-38
-0.0175841837591 0.144731358633 0.718 2.34806909629e-38
-0.0148996474557 0.144932934341 0.719 2.34796091605e-38
-0.0121906206455 0.144932934341 0.719 2.34792504281e-38
-0.00946840663954 0.144731358633 0.718 2.34781714283e-38
-0.00676314759967 0.144731358633 0.718 2.34770924285e-38
-0.00407484352593 0.145336085758 0.721 2.34752945626e-38
-0.00136204894556 0.145739237175 0.723 2.34738540277e-38
0.00135074563481 0.144529782925 0.717 2.34713443022e-38
0.0040352819383 0.143925055799 0.714 2.3472061767e-38
0.00672546989717 0.143925055799 0.714 2.34734994992e-38
0.00948159383542 0.144932934341 0.719 2.34717016333e-38
0.0122075756117 0.14513451005 0.72 2.34695422324e-38
0.0148789247193 0.144731358633 0.718 2.31908001457e-38
0.0175352027459 0.144328207216 0.716 2.33780738764e-38
0.0203459593528 0.14513451005 0.72 2.34756701105e-38
0.0230587539331 0.14513451005 0.72 2.19926100847e-38
0.0256999608788 0.144731358633 0.718 2.30967996434e-38
0.0285634662691 0.145537661467 0.722 2.33701453297e-38
0.0314137844637 0.146142388592 0.725 2.34634199594e-38
0.0342396121515 0.146545540009 0.727 2.34608976221e-38
