VERSION .7
FIELDS x y z rgb
SIZE 4 4 4 4
TYPE F F F F
COUNT 1 1 1 1
WIDTH 861
HEIGHT 1
VIEWPOINT 0 0 0 1 0 0 0
POINTS 861
DATA ascii
-0.0326213548289 -0.149000242327 0.468 4.33284147636e-39
-0.0308580383517 -0.149000242327 0.468 4.2406458465e-39
-0.0291568900836 -0.149318618913 0.469 4.33284147636e-39
-0.0272730049583 -0.148681865741 0.467 4.05804965011e-39
-0.0252402929082 -0.14708998281 0.462 4.05804965011e-39
-0.0236521777476 -0.148045112568 0.465 4.15024247737e-39
-0.0219001645811 -0.148045112568 0.465 4.15024247737e-39
-0.0201914807725 -0.148363489154 0.466 4.24171503723e-39
-0.018514823011 -0.149000242327 0.468 4.33390786449e-39
-0.0167873003512 -0.149318618913 0.469 4.33390786449e-39
-0.0149881900565 -0.149000242327 0.468 4.33390786449e-39
-0.0131966153024 -0.148681865741 0.467 4.05839997472e-39
-0.0115105381153 -0.149636995499 0.47 4.15059560459e-39
-0.00969824062482 -0.149000242327 0.468 4.15059560459e-39
-0.00796883407984 -0.149636995499 0.47 3.96620434486e-39
-0.00621116925797 -0.149955372085 0.471 3.874008715e-39
-0.00443654946998 -0.149955372085 0.471 4.05839997472e-39
-0.00265627802661 -0.149636995499 0.47 4.24279123445e-39
-0.000883542123746 -0.149318618913 0.469 4.05839997472e-39
0.00088165823862 -0.149000242327 0.468 3.96657008376e-39
0.00264497471586 -0.149000242327 0.468 3.96657008376e-39
0.0044082911931 -0.149000242327 0.468 4.05840277732e-39
0.00618479486622 -0.149318618913 0.469 3.96620714746e-39
0.00800274401209 -0.150273748671 0.472 3.68962025787e-39
0.00969824062482 -0.149000242327 0.468 3.87401151759e-39
0.0113880855822 -0.148045112568 0.465 3.96657008376e-39
0.013055323918 -0.14708998281 0.462 3.87437445389e-39
0.0148280598209 -0.147408359396 0.463 4.14951940736e-39
0.0165367436295 -0.14708998281 0.462 4.14951940736e-39
0.0183170150729 -0.147408359396 0.463 4.14951940736e-39
0.0198448459095 -0.145816476465 0.458 4.24171503723e-39
0.0216175818123 -0.146134853051 0.459 3.96620714746e-39
0.0234487181541 -0.146771606224 0.461 4.05840277732e-39
0.0252402929082 -0.14708998281 0.462 4.05840277732e-39
0.0267474010084 -0.145816476465 0.458 4.05840277732e-39
0.028410871574 -0.145498099879 0.457 3.6914111173e-39
0.0299349346403 -0.14454297012 0.454 3.96727773948e-39
0.0315757985844 -0.144224593534 0.453 3.96692180967e-39
0.0332825985079 -0.144224593534 0.453 3.87472758111e-39
0.0349121591413 -0.143906216948 0.452 3.96620714746e-39
0.0365341842341 -0.143587840362 0.451 3.87365558778e-39
0.0382334486171 -0.143587840362 0.451 3.87365839038e-39
0.0398441703992 -0.143269463776 0.45 4.05697345289e-39
0.0416319773831 -0.143587840362 0.451 3.96620434486e-39
0.0437155543316 -0.144861346707 0.455 3.96620434486e-39
0.0453300438839 -0.14454297012 0.454 4.05839997472e-39
0.046729770532 -0.143587840362 0.451 4.05839997472e-39
0.0483216534628 -0.143269463776 0.45 4.15059560459e-39
0.049572553186 -0.141995957431 0.446 4.05839997472e-39
0.051482812703 -0.142632710603 0.448 3.96620434486e-39
0.0532894585381 -0.14295108719 0.449 4.05839997472e-39
0.0549811873806 -0.14295108719 0.449 4.1513130694e-39
0.0564204756163 -0.142314334017 0.447 3.87580658093e-39
0.0579746808447 -0.141995957431 0.446 4.06019784065e-39
0.0592538388447 -0.141040827673 0.443 4.06019784065e-39
0.0609229610657 -0.141040827673 0.443 3.78325502125e-39
0.0630159574398 -0.141995957431 0.446 3.8743716513e-39
0.0644062646623 -0.141359204259 0.444 3.96620714746e-39
0.065335020029 -0.139767321328 0.439 4.14951940736e-39
0.0683624234253 -0.142632710603 0.448 4.15059560459e-39
0.0700503844976 -0.142632710603 0.448 4.15095854089e-39
0.0718984758054 -0.14295108719 0.449 4.15096134348e-39
0.0727707146184 -0.141359204259 0.444 4.05876851622e-39
0.0746112703858 -0.141677580845 0.445 3.69106219399e-39
0.0752593268689 -0.139767321328 0.439 3.87580658093e-39
0.0769133780089 -0.139767321328 0.439 4.06019363676e-39
0.0791043364095 -0.140722451086 0.442 3.96907000022e-39
0.080404217146 -0.140085697914 0.44 4.24351010056e-39
0.0813160175466 -0.138812191569 0.436 4.24351010056e-39
0.0837198549664 -0.140085697914 0.44 4.24351010056e-39
0.0855717140445 -0.1404040745 0.441 4.42790136029e-39
0.0876289166013 -0.141040827673 0.443 4.33678473024e-39
0.0894996145307 -0.141359204259 0.444 4.24458910038e-39
0.0911725045219 -0.141359204259 0.444 4.15239347052e-39
0.0917998382686 -0.139767321328 0.439 4.24458910038e-39
0.0938796474469 -0.1404040745 0.441 4.52117598997e-39
0.095324587338 -0.140085697914 0.44 4.33678473024e-39
0.0972028208079 -0.1404040745 0.441 4.24458769908e-39
0.0993127721482 -0.141040827673 0.443 4.33678332894e-39
0.100070093969 -0.139767321328 0.439 4.52117458867e-39
0.101028991497 -0.138812191569 0.436 4.33678052635e-39
0.102907224967 -0.139130568156 0.437 4.52117178607e-39
0.104314487156 -0.138812191569 0.436 4.61336741594e-39
0.106200256166 -0.139130568156 0.437 4.79668247844e-39
0.108340349668 -0.139767321328 0.439 4.79668247844e-39
0.11024495753 -0.140085697914 0.44 4.70448684858e-39
0.111139802965 -0.139130568156 0.437 4.61337021853e-39
0.112528226302 -0.138812191569 0.436 4.52117458867e-39
0.114170974131 -0.138812191569 0.436 4.42969782492e-39
0.115548094158 -0.138493814983 0.435 4.42969782492e-39
0.116648283071 -0.137857061811 0.433 4.52189345478e-39
0.118279727589 -0.137857061811 0.433 4.52117458867e-39
0.119911172108 -0.137857061811 0.433 4.61336741594e-39
0.120700519975 -0.136901932052 0.43 4.52188784959e-39
0.123174061145 -0.137857061811 0.433 4.5222437794e-39
0.126534912208 -0.139767321328 0.439 4.5222437794e-39
0.127896961154 -0.139448944742 0.438 4.43040828324e-39
0.129547244523 -0.139448944742 0.438 4.43040828324e-39
0.129999376953 -0.138175438397 0.434 4.5226067157e-39
0.130118061716 -0.136583555466 0.429 4.98107373817e-39
0.130506142052 -0.135310049122 0.425 4.98107373817e-39
0.131485762317 -0.134673295949 0.423 4.98107373817e-39
0.133079529133 -0.134673295949 0.423 4.88887810831e-39
0.134354919363 -0.134354919363 0.422 4.98107373817e-39
0.136589207122 -0.134991672535 0.424 4.98107373817e-39
0.137209005328 -0.134036542777 0.421 4.98107373817e-39
0.138795236603 -0.134036542777 0.421 5.1654649979e-39
0.139381124877 -0.133081413018 0.418 5.16546639919e-39
0.141630483717 -0.133718166191 0.42 4.98107513947e-39
0.142871964014 -0.133399789605 0.419 4.98107513947e-39
0.145140161705 -0.134036542777 0.421 5.07327076933e-39
0.146726392981 -0.134036542777 0.421 5.1654649979e-39
0.145846618627 -0.131807906674 0.414 5.1654649979e-39
0.148118584088 -0.132444659846 0.416 5.1654649979e-39
0.147886866218 -0.130852776915 0.411 5.25801655757e-39
0.149071829962 -0.130534400329 0.41 5.25874102887e-39
0.151718688563 -0.131489530088 0.413 5.16654539901e-39
0.152532526937 -0.130852776915 0.411 5.07434976915e-39
0.15408108051 -0.130852776915 0.411 5.16654539901e-39
0.155629634083 -0.130852776915 0.411 4.98215413929e-39
0.155648472934 -0.129579270571 0.407 5.07434976915e-39
0.154478580271 -0.127350634467 0.4 5.25874102887e-39
0.155985688371 -0.127350634467 0.4 5.35093665874e-39
0.157886528463 -0.127669011054 0.401 5.25945288849e-39
0.159397404333 -0.127669011054 0.401 5.35164851836e-39
0.160507012672 -0.127350634467 0.4 5.35164851836e-39
0.16160908547 -0.127032257881 0.399 5.25945288849e-39
0.162294819656 -0.126395504709 0.397 5.35164851836e-39
0.162140341075 -0.125121998364 0.393 5.35164851836e-39
0.161955720333 -0.12384849202 0.389 5.35164851836e-39
0.160900744663 -0.121938232503 0.383 5.35164851836e-39
0.161496052363 -0.12130147933 0.381 5.44384414822e-39
0.162076288981 -0.120664726158 0.379 5.53603977808e-39
0.163504273906 -0.120664726158 0.379 5.53603977808e-39
0.164497081367 -0.120346349572 0.378 5.44384414822e-39
0.163726572351 -0.118754466641 0.373 5.16725725863e-39
0.160733078887 -0.114615571021 0.36 5.44384414822e-39
0.162089476177 -0.114615571021 0.36 5.53603977808e-39
0.153911530848 -0.107929662711 0.339 5.62679627443e-39
0.153815452707 -0.106974532953 0.336 5.62679627443e-39
0.157850734645 -0.10888479247 0.342 5.62679907702e-39
0.156347394315 -0.106974532953 0.336 5.53460344716e-39
0.159489714704 -0.108248039297 0.34 5.81083440694e-39
0.160770756589 -0.108248039297 0.34 5.81083440694e-39
0.162528421411 -0.108566415883 0.341 5.81083440694e-39
0.162852449653 -0.107929662711 0.339 5.81083440694e-39
0.162193089859 -0.106656156366 0.335 5.81011974472e-39
0.159063956666 -0.103790767091 0.326 5.81011974472e-39
0.156850391644 -0.101562130988 0.319 5.81011974472e-39
0.15656592499 -0.100607001229 0.316 6.08562763449e-39
0.156758081273 -0.0999702480569 0.314 5.90231257199e-39
0.15844415846 -0.100288624643 0.315 5.9030300368e-39
0.160644536286 -0.100925377815 0.317 5.81226653397e-39
0.15979678798 -0.0996518714707 0.313 5.62859133776e-39
0.157375995594 -0.0974232353675 0.306 5.81118753415e-39
0.15852893329 -0.0974232353675 0.306 5.71899470689e-39
0.159160034807 -0.0971048587814 0.305 5.81011554083e-39
0.159783600784 -0.0967864821952 0.304 6.0856248319e-39
0.16092900294 -0.0967864821952 0.304 6.17782046176e-39
0.161008126115 -0.0961497290229 0.302 5.99450680055e-39
0.164293621774 -0.0974232353675 0.306 5.99558159648e-39
0.164421725962 -0.0961497290229 0.302 6.0856248319e-39
0.163366750292 -0.0948762226782 0.298 6.17782046176e-39
0.166145480852 -0.0958313524367 0.301 6.27001609162e-39
0.167835325809 -0.0961497290229 0.302 5.99450820185e-39
0.168413678543 -0.0958313524367 0.301 6.08670243042e-39
0.169547777388 -0.0958313524367 0.301 5.99450680055e-39
0.171248925656 -0.0961497290229 0.302 5.81083440694e-39
0.170674340693 -0.0951945992644 0.299 5.71863877708e-39
0.171226319035 -0.0948762226782 0.298 5.62751934443e-39
0.17408417277 -0.0958313524367 0.301 5.72007090411e-39
0.178695923556 -0.0971048587814 0.305 5.81226373137e-39
0.185741653925 -0.100288624643 0.315 5.81226373137e-39
0.182774534852 -0.0980599885399 0.308 5.72006810151e-39
0.181546241751 -0.0967864821952 0.304 5.72007090411e-39
-0.154998532566 -0.084315162666 0.268 7.46784601893e-39
-0.148706356247 -0.0830567274023 0.264 7.46784882153e-39
-0.144354581608 -0.0811690745068 0.258 7.46784601893e-39
-0.170312634749 -0.0991017770141 0.315 7.00758393313e-39
-0.164293621774 -0.0962702976709 0.306 7.00758393313e-39
-0.189305964582 -0.123012047024 0.391 5.99485992777e-39
-0.198881752673 -0.13024804979 0.414 5.90338316402e-39
-0.209237469207 -0.138113270188 0.439 5.62608021091e-39
-0.174029540101 -0.117663697153 0.374 5.90087203717e-39
-0.167543323615 -0.114203000178 0.363 5.90015457235e-39
-0.174967714893 -0.134652573213 0.428 5.25443483869e-39
-0.166452554127 -0.139686314268 0.444 5.16582092771e-39
-0.15995503433 -0.135596399661 0.431 4.88995430553e-39
-0.15416208757 -0.133394137949 0.424 4.42969502232e-39
-0.152035181264 -0.134337964397 0.427 2.76802409294e-39
-0.145332317988 -0.131191876238 0.417 1.75171977e-39
-0.143761157793 -0.131191876238 0.417 1.75100090389e-39
-0.14355393043 -0.132450311501 0.421 1.84354966096e-39
-0.142642130029 -0.133079529133 0.423 2.12085261407e-39
-0.142715601549 -0.134652573213 0.428 2.02937444902e-39
-0.142421715469 -0.135911008477 0.432 2.39636751033e-39
-0.142097687228 -0.13716944374 0.436 2.4885631402e-39
-0.142387805537 -0.139057096636 0.442 2.48927920371e-39
-0.141677580845 -0.140000923083 0.445 2.48999806982e-39
-0.141573967163 -0.141573967163 0.45 2.48999806982e-39
-0.141432675779 -0.143147011243 0.455 2.58147483358e-39
-0.139718340315 -0.143147011243 0.455 2.76515002979e-39
-0.138004004851 -0.143147011243 0.455 2.85734565965e-39
-0.137188282591 -0.14409083769 0.458 2.49107286575e-39
-0.136349953711 -0.145034664138 0.461 2.49107286575e-39
-0.134613011625 -0.145034664138 0.461 2.67438652695e-39
-0.133740772812 -0.145978490586 0.464 2.85877778668e-39
-0.133130394032 -0.14723692585 0.468 3.13536747887e-39
-0.131928475322 -0.147866143481 0.47 3.22756591133e-39
-0.130434554417 -0.148180752297 0.471 3.50343393481e-39
-0.128386771286 -0.147866143481 0.47 3.41124110754e-39
-0.126077128123 -0.14723692585 0.468 3.31940561138e-39
-0.124048183843 -0.146922317034 0.467 3.31940561138e-39
-0.122288635136 -0.146922317034 0.467 3.41160124125e-39
-0.120529086429 -0.146922317034 0.467 3.41160404384e-39
-0.11851521323 -0.146607708218 0.466 3.96405895691e-39
-0.117009989015 -0.146922317034 0.467 3.87186332705e-39
-0.115250440308 -0.146922317034 0.467 3.68747346862e-39
-0.113004849239 -0.146293099402 0.465 3.59527783876e-39
-0.112449103127 -0.147866143481 0.47 3.68782239194e-39
-0.11091373675 -0.148180752297 0.471 3.87256958147e-39
-0.10821224548 -0.146922317034 0.467 4.05767830601e-39
-0.106908596973 -0.147551534666 0.469 4.14987393588e-39
-0.105141512726 -0.147551534666 0.469 3.78181168383e-39
-0.10249277024 -0.146293099402 0.465 3.874008715e-39
-0.101174050652 -0.146922317034 0.467 3.78217882403e-39
-0.0989887439066 -0.146293099402 0.465 3.68998599676e-39
-0.0978640644868 -0.14723692585 0.468 4.05697065029e-39
-0.0961007480096 -0.14723692585 0.468 4.05804965011e-39
-0.0943374315324 -0.14723692585 0.468 4.24243810724e-39
-0.0927719229933 -0.147551534666 0.469 4.15024247737e-39
-0.0911988789137 -0.147866143481 0.47 4.15024247737e-39
-0.0894280268959 -0.147866143481 0.47 4.15059840718e-39
-0.0878436795056 -0.148180752297 0.471 4.05840277732e-39
-0.0855208491462 -0.14723692585 0.468 3.8743716513e-39
-0.0833995944951 -0.146607708218 0.466 3.87580517963e-39
-0.0811182096084 -0.14566388177 0.463 4.06019643935e-39
-0.0790308648897 -0.145034664138 0.461 4.42790136029e-39
-0.0774615885803 -0.145349272954 0.462 4.24351010056e-39
-0.0762125727423 -0.146293099402 0.465 4.15059840718e-39
-0.0741402991045 -0.14566388177 0.463 4.15059840718e-39
-0.0722394590131 -0.145349272954 0.462 4.42610909955e-39
-0.071109127938 -0.146607708218 0.466 4.51830472942e-39
-0.0700974816257 -0.148180752297 0.471 4.70018486229e-39
-0.0677426252191 -0.146922317034 0.467 4.88457612202e-39
-0.0658417851277 -0.146607708218 0.466 4.97677175188e-39
-0.0636734333486 -0.14566388177 0.463 4.88565231924e-39
-0.0619289557226 -0.14566388177 0.463 4.60906542965e-39
-0.0601844780966 -0.14566388177 0.463 4.70197992563e-39
-0.058566220774 -0.145978490586 0.464 4.60978149317e-39
-0.0568179753778 -0.145978490586 0.464 4.5175858633e-39
-0.0549510452186 -0.14566388177 0.463 4.51686979979e-39
-0.0532065675926 -0.14566388177 0.463 4.5175886659e-39
-0.0512397915219 -0.145034664138 0.461 4.5175886659e-39
-0.0497176123407 -0.14566388177 0.463 4.60978429576e-39
-0.0481803620784 -0.146293099402 0.465 4.14880614645e-39
-0.0463285030003 -0.145978490586 0.464 4.5175886659e-39
-0.0448684920282 -0.146922317034 0.467 4.42539023344e-39
-0.0431089433213 -0.146922317034 0.467 4.33391346969e-39
-0.041526479816 -0.147551534666 0.469 4.60978429576e-39
-0.0396746207379 -0.14723692585 0.468 4.5175886659e-39
-0.0379113042607 -0.14723692585 0.468 4.5175886659e-39
-0.0359935092032 -0.146607708218 0.466 4.60978429576e-39
-0.0346785573857 -0.148495361113 0.472 4.33319740617e-39
-0.0329698735771 -0.148809969929 0.473 4.33319740617e-39
-0.0310558462899 -0.148180752297 0.471 4.14880614645e-39
-0.0294055629201 -0.148809969929 0.473 4.05661051658e-39
-0.0275066067139 -0.148180752297 0.471 4.05804965011e-39
-0.0257319869259 -0.148180752297 0.471 4.33355753988e-39
-0.0239573671379 -0.148180752297 0.471 4.24136191002e-39
-0.0222769416062 -0.148809969929 0.473 4.24100177631e-39
-0.0205814449934 -0.149439187561 0.475 3.87221925686e-39
-0.0187917541244 -0.149439187561 0.475 4.2402829102e-39
-0.0169304756207 -0.148809969929 0.473 4.33247854006e-39
-0.0153084505278 -0.150383014009 0.478 4.33139954024e-39
-0.0133944232406 -0.149124578745 0.474 4.24315417075e-39
-0.0116574811551 -0.149753796377 0.476 4.24315417075e-39
-0.00986402251585 -0.149753796377 0.476 4.15059560459e-39
-0.0080705638766 -0.149753796377 0.476 4.05839997472e-39
-0.00630347962911 -0.150383014009 0.478 4.24279403705e-39
-0.00449306602374 -0.150068405193 0.477 4.24279403705e-39
-0.00268453630349 -0.149439187561 0.475 4.42575316974e-39
-0.000892961549372 -0.149124578745 0.474 4.42575316974e-39
0.000891077664247 -0.148809969929 0.473 4.24099897371e-39
0.00268453630349 -0.149439187561 0.475 4.5175858633e-39
0.00448364659811 -0.149753796377 0.476 4.33391066709e-39
0.00627710523736 -0.149753796377 0.476 4.33390786449e-39
0.0080705638766 -0.149753796377 0.476 3.96620294356e-39
0.00980185430671 -0.148809969929 0.473 4.1509501331e-39
0.0115595191286 -0.148495361113 0.472 4.24314296036e-39
0.0132531318562 -0.147551534666 0.469 3.96727213429e-39
0.0149881900565 -0.14723692585 0.468 3.96655607077e-39
0.0167515065338 -0.14723692585 0.468 4.1509501331e-39
0.0183961382481 -0.146293099402 0.465 4.24314576296e-39
0.020018163341 -0.145349272954 0.462 4.24278983315e-39
0.021853067453 -0.145978490586 0.464 3.8740073137e-39
0.0237539075444 -0.146922317034 0.467 3.96620434486e-39
0.0255134562514 -0.146922317034 0.467 4.05840277732e-39
0.0270394032028 -0.14566388177 0.463 3.68962025787e-39
0.0287838808288 -0.14566388177 0.463 3.50701985758e-39
0.0303305505166 -0.144720055322 0.46 3.78360674717e-39
0.0319940210822 -0.144405446506 0.459 4.15166899921e-39
0.0336499561073 -0.14409083769 0.458 3.87508210962e-39
0.0353755948821 -0.14409083769 0.458 3.96620294356e-39
0.0371822407172 -0.144405446506 0.459 4.24171503723e-39
0.0388268724315 -0.14409083769 0.458 4.42539023344e-39
0.0408181390089 -0.145034664138 0.461 4.42539303604e-39
0.0421858396099 -0.143776228874 0.457 4.61013321908e-39
0.0440998668971 -0.144405446506 0.459 4.51793758922e-39
0.0457294275305 -0.14409083769 0.458 4.24171223463e-39
0.0473514526233 -0.143776228874 0.457 4.0573209749e-39
0.0489659421757 -0.143461620059 0.456 4.33391066709e-39
0.050128299298 -0.141888575979 0.451 4.24279403705e-39
0.0522872316515 -0.143147011243 0.455 3.96585121765e-39
0.0543576214042 -0.14409083769 0.458 3.87365558778e-39
0.0557159025795 -0.143147011243 0.455 3.87580658093e-39
0.0573040177401 -0.142832402427 0.454 3.87580658093e-39
0.0590145854338 -0.142832402427 0.454 4.05911884083e-39
0.060190129752 -0.141573967163 0.45 4.33570573042e-39
0.0622981972071 -0.142517793611 0.453 4.15059560459e-39
0.0638637057462 -0.142203184795 0.452 4.05839997472e-39
0.0645513238169 -0.140000923083 0.445 4.05839997472e-39
0.0662279815784 -0.140000923083 0.445 4.14951660477e-39
0.0686676128156 -0.141573967163 0.45 4.51651527128e-39
0.0709885592899 -0.142832402427 0.454 4.33284147636e-39
0.072538996748 -0.142517793611 0.453 4.24100177631e-39
0.0752291847069 -0.144405446506 0.459 4.33319460358e-39
0.0762879281473 -0.143147011243 0.455 4.42538743084e-39
0.0773165294257 -0.141888575979 0.451 4.60941855686e-39
0.0786653911754 -0.141259358347 0.449 4.70053518691e-39
0.0805360891047 -0.141573967163 0.45 4.60762069093e-39
0.0820488488603 -0.141259358347 0.449 3.68961605397e-39
0.0835540730754 -0.140944749531 0.448 3.8740073137e-39
0.0856225789429 -0.141573967163 0.45 4.05839857342e-39
0.0869299952199 -0.140944749531 0.448 4.24278983315e-39
0.0888157642302 -0.141259358347 0.449 4.1509501331e-39
0.0903059173643 -0.140944749531 0.448 4.1509501331e-39
0.0928152523512 -0.142203184795 0.452 4.1509501331e-39
0.0936818395088 -0.140944749531 0.448 4.33534139282e-39
0.0957955586193 -0.141573967163 0.45 4.6115723526e-39
0.097491055232 -0.141573967163 0.45 4.70376798247e-39
0.0980844790465 -0.140000923083 0.445 4.70376798247e-39
0.100433683798 -0.140944749531 0.448 4.51937672274e-39
0.10189369477 -0.140630140715 0.447 4.33498686431e-39
0.103809605942 -0.140944749531 0.448 4.42610349436e-39
0.105262081374 -0.140630140715 0.447 4.51829912422e-39
0.107424781498 -0.141259358347 0.449 4.79488601381e-39
0.108144425615 -0.140000923083 0.445 4.70376938377e-39
0.11031466128 -0.140630140715 0.447 4.42718249418e-39
0.112750524747 -0.141573967163 0.45 4.24279123445e-39
0.113937372376 -0.140944749531 0.448 4.42718249418e-39
0.114851056661 -0.140000923083 0.445 4.42718249418e-39
0.117051434488 -0.140630140715 0.447 4.51937812404e-39
0.118204372184 -0.140000923083 0.445 4.6115737539e-39
0.119611634373 -0.139686314268 0.444 4.51937812404e-39
0.121011361021 -0.139371705452 0.443 4.51937812404e-39
0.122126621015 -0.13874248782 0.441 4.33498686431e-39
0.123507508812 -0.138427879004 0.44 4.33498686431e-39
0.126303194338 -0.139686314268 0.444 4.6115737539e-39
0.128840787601 -0.140630140715 0.447 4.42718249418e-39
0.130232978709 -0.140315531899 0.446 4.15059560459e-39
0.130730324382 -0.139057096636 0.442 4.15059560459e-39
0.132395678833 -0.139057096636 0.442 4.42718249418e-39
0.134061033284 -0.139057096636 0.442 4.61014442947e-39
0.135112241183 -0.138427879004 0.44 4.42539303604e-39
0.136459219048 -0.138113270188 0.439 4.70197992563e-39
0.137484052556 -0.137484052556 0.437 4.51686699719e-39
0.139130568156 -0.137484052556 0.437 4.70161418673e-39
0.140454939399 -0.13716944374 0.436 4.70197432043e-39
0.141445862975 -0.136540226108 0.434 4.79452588011e-39
0.142751395366 -0.136225617292 0.433 4.61049475408e-39
0.14371594455 -0.135596399661 0.431 4.51938092664e-39
0.145677068966 -0.135911008477 0.432 4.70377218636e-39
0.146622779299 -0.135281790845 0.43 4.70448824988e-39
0.14927717344 -0.136225617292 0.433 4.52009699015e-39
0.150211580462 -0.135596399661 0.431 4.61229121872e-39
0.151483202922 -0.135281790845 0.43 4.61229121872e-39
0.15310334413 -0.135281790845 0.43 4.42897615621e-39
0.15400384122 -0.134652573213 0.428 4.33678052635e-39
0.156343626545 -0.135281790845 0.43 4.6115765565e-39
0.158331125352 -0.135596399661 0.431 4.70377218636e-39
0.15995503433 -0.135596399661 0.431 4.79596781623e-39
0.161204050168 -0.135281790845 0.43 4.88816344609e-39
0.160930886825 -0.133708746765 0.425 4.88816344609e-39
0.162149760501 -0.133394137949 0.424 4.79596781623e-39
0.163361098637 -0.133079529133 0.423 4.88816344609e-39
0.162225115906 -0.130877267422 0.416 4.88816344609e-39
0.166154900277 -0.132764920317 0.422 4.33749658986e-39
0.168142399085 -0.133079529133 0.423 4.61408347945e-39
0.169334898369 -0.132764920317 0.422 4.79847473918e-39
0.171329932716 -0.133079529133 0.423 4.70628191191e-39
0.172106093388 -0.132450311501 0.421 4.33749939246e-39
0.172867182979 -0.13182109387 0.419 4.79848034437e-39
0.172780524263 -0.130562658606 0.415 4.61408908465e-39
0.176024574449 -0.13182109387 0.419 4.33750219506e-39
0.177603270184 -0.13182109387 0.419 4.98214993539e-39
0.177899040148 -0.130877267422 0.416 4.88995710812e-39
0.179035022879 -0.130562658606 0.415 4.98071920966e-39
0.181033824997 -0.130877267422 0.416 5.16439440587e-39
0.182601217421 -0.130877267422 0.416 4.98000594874e-39
0.181512331819 -0.128989614526 0.41 5.07219877601e-39
0.182610636847 -0.12867500571 0.409 5.07327076933e-39
0.184601903424 -0.128989614526 0.41 4.98215273799e-39
0.185238656596 -0.128360396895 0.408 4.70735250394e-39
0.185860338688 -0.127731179263 0.406 4.89138643256e-39
0.184620742275 -0.125843526367 0.4 4.79919360529e-39
0.186127850375 -0.125843526367 0.4 4.89139203775e-39
0.187165871079 -0.125528917551 0.399 4.9828688015e-39
0.189614921742 -0.126158135183 0.401 5.16726006123e-39
0.191125797613 -0.126158135183 0.401 5.25945569109e-39
0.189754329242 -0.124270482288 0.395 5.16725725863e-39
0.18785348915 -0.122068220576 0.388 4.61552541557e-39
0.189315384007 -0.122068220576 0.388 4.89103610794e-39
0.187827114758 -0.120180567681 0.382 4.9828716041e-39
0.185798170478 -0.117978305969 0.375 5.25873962758e-39
0.188623998166 -0.117978305969 0.375 5.6257256824e-39
0.181421905332 -0.112629956099 0.358 5.80903794231e-39
0.18379183282 -0.11325917373 0.36 5.80903794231e-39
0.180519524358 -0.110427694387 0.351 5.44312808471e-39
0.178215532849 -0.108225432676 0.344 5.35093245484e-39
0.181598990534 -0.109483867939 0.348 5.53460344716e-39
0.182384570632 -0.109169259124 0.347 5.62644314721e-39
0.179457013147 -0.106652388596 0.339 5.53424891865e-39
0.179668008281 -0.106023170964 0.337 5.62644454851e-39
0.179863932334 -0.105393953333 0.335 5.71828424856e-39
0.181299452799 -0.104764735701 0.333 5.81011694213e-39
0.173234540578 -0.0994163858301 0.316 5.81083580824e-39
0.174425155977 -0.0994163858301 0.316 5.99522566667e-39
0.1767272636 -0.100045603462 0.318 6.08742129653e-39
0.173449303482 -0.0975287329346 0.31 5.81083440694e-39
0.175743875565 -0.0981579505664 0.312 5.62751934443e-39
0.178620568151 -0.0991017770141 0.315 5.62751934443e-39
0.174099243851 -0.095955688855 0.305 5.44312808471e-39
0.172950073924 -0.0946972535913 0.301 5.71828424856e-39
0.172349114569 -0.0937534271435 0.298 5.81083580824e-39
0.180994263409 -0.095955688855 0.305 5.71971917819e-39
0.184532199674 -0.0972141241186 0.309 5.90267550829e-39
-0.1492696379 -0.0823728771019 0.265 7.74443290852e-39
-0.148830692666 -0.0826837181475 0.266 7.74443290852e-39
-0.144493989107 -0.0808186718735 0.26 7.74443290852e-39
-0.162743184316 -0.0935631547459 0.301 7.09906069688e-39
-0.161072178209 -0.0932523137002 0.3 7.19125632674e-39
-0.173633924225 -0.101955862979 0.328 7.00686786961e-39
-0.198504975648 -0.127444828724 0.41 6.08598216301e-39
-0.210891520347 -0.136459219048 0.439 5.62644314721e-39
-0.215433567384 -0.140500152642 0.452 5.6257242811e-39
-0.212784824898 -0.13987847055 0.45 5.71791991096e-39
-0.213903852662 -0.141743516824 0.456 5.99342920203e-39
-0.174928153306 -0.117808756308 0.379 5.80832187879e-39
-0.173500168381 -0.117808756308 0.379 5.80832468139e-39
-0.172072183456 -0.117808756308 0.379 5.89980144514e-39
-0.167492458716 -0.115632868988 0.372 5.71612905153e-39
-0.166983809733 -0.11625455108 0.374 5.80832468139e-39
-0.162475672628 -0.11407866376 0.367 5.80832187879e-39
-0.174150108749 -0.132418285454 0.426 4.9778479491e-39
-0.148120467973 -0.132107444409 0.425 2.67367326604e-39
-0.145140161705 -0.130864080226 0.421 2.2119790532e-39
-0.145599829676 -0.1327291265 0.427 1.84319653375e-39
-0.144665422654 -0.133350808591 0.429 1.75099810129e-39
-0.144049392218 -0.134283331728 0.432 1.7517169674e-39
-0.143740435057 -0.135526695911 0.436 1.93610822713e-39
-0.144379072115 -0.137702583231 0.443 1.93682709324e-39
-0.144320671676 -0.139256788459 0.448 2.12121555037e-39
-0.143906216948 -0.140500152642 0.452 2.12229455019e-39
-0.142832402427 -0.141121834733 0.454 2.30668580992e-39
-0.142365198916 -0.142365198916 0.458 2.39780243996e-39
-0.140946633416 -0.142676039961 0.459 2.39780524256e-39
-0.140127143387 -0.143608563098 0.462 2.58147763617e-39
-0.138685971266 -0.143919404144 0.463 2.58075877006e-39
-0.136349953711 -0.143297722053 0.461 2.48928200631e-39
-0.136073022597 -0.144851927281 0.466 2.58147483358e-39
-0.135181944933 -0.145784450418 0.469 2.58219369969e-39
-0.133414860686 -0.145784450418 0.469 2.76658495941e-39
-0.131928475322 -0.146095291464 0.47 2.76766395923e-39
-0.131265347758 -0.147338655646 0.474 2.95205241636e-39
-0.129206261316 -0.147027814601 0.473 2.95277128247e-39
-0.126885314841 -0.146406132509 0.471 3.31975873859e-39
-0.125641950659 -0.147027814601 0.473 3.31975873859e-39
-0.123597935298 -0.146716973555 0.472 3.31976154119e-39
-0.122077640002 -0.147027814601 0.473 3.41195717106e-39
-0.120041160181 -0.146716973555 0.472 3.59562956467e-39
-0.118513329345 -0.147027814601 0.473 3.59563236727e-39
-0.116484385065 -0.146716973555 0.472 3.68782799713e-39
-0.115192039869 -0.147338655646 0.474 3.5034367374e-39
-0.113166863359 -0.147027814601 0.473 3.59634562818e-39
-0.111384708031 -0.147027814601 0.473 3.68854125805e-39
-0.109834270573 -0.147338655646 0.474 3.78073408531e-39
-0.108276297574 -0.147649496692 0.475 3.78073408531e-39
-0.105589877386 -0.146406132509 0.471 3.41303056568e-39
-0.103154013919 -0.145473609372 0.468 3.597424628e-39
-0.102257284599 -0.146716973555 0.472 3.78145995792e-39
-0.100478897041 -0.146716973555 0.472 3.87365839038e-39
-0.0982822869847 -0.146095291464 0.47 4.24171783983e-39
-0.0977434958388 -0.147960337738 0.476 4.33391346969e-39
-0.0955468857828 -0.147338655646 0.474 4.33391346969e-39
-0.0939587706222 -0.147649496692 0.475 3.87365558778e-39
-0.0921690797532 -0.147649496692 0.475 4.05840277732e-39
-0.0905696612819 -0.147960337738 0.476 4.05876291102e-39
-0.0878436795056 -0.146406132509 0.471 4.05876291102e-39
-0.0860690597176 -0.146406132509 0.471 3.96656728116e-39
-0.0842944399296 -0.146406132509 0.471 3.87580658093e-39
-0.0821694175083 -0.145784450418 0.469 3.87580658093e-39
-0.080059466168 -0.145162768327 0.467 4.05911884083e-39
-0.0786352490134 -0.145784450418 0.469 4.05911884083e-39
-0.0768681647659 -0.145784450418 0.469 4.15059840718e-39
-0.075261210754 -0.146095291464 0.47 4.05840277732e-39
-0.0734903587363 -0.146095291464 0.47 4.24171503723e-39
-0.0720246961088 -0.146716973555 0.472 4.24171503723e-39
-0.0708416162502 -0.147960337738 0.476 4.3346337371e-39
-0.068612980147 -0.147027814601 0.473 4.3346337371e-39
-0.0665482420497 -0.146406132509 0.471 4.42718529677e-39
-0.0649111458759 -0.146716973555 0.472 4.33498966691e-39
-0.062597734942 -0.145473609372 0.468 4.15059840718e-39
-0.0608344184648 -0.145473609372 0.468 4.24315417075e-39
-0.0594497628977 -0.146406132509 0.471 4.1513144707e-39
-0.0573077855103 -0.145473609372 0.468 4.1513144707e-39
-0.0555444690331 -0.145473609372 0.468 4.33248134266e-39
-0.0540109865411 -0.146095291464 0.47 4.33247854006e-39
-0.0523512837458 -0.146406132509 0.471 4.33247854006e-39
-0.0504692825056 -0.146095291464 0.47 4.24100177631e-39
-0.0488020441698 -0.146406132509 0.471 4.42539023344e-39
-0.0472271162051 -0.147027814601 0.473 4.33391346969e-39
-0.0457331953007 -0.147960337738 0.476 4.14952220996e-39
-0.0436628055481 -0.147027814601 0.473 4.14951940736e-39
-0.0417921076187 -0.146716973555 0.472 4.51686979979e-39
-0.0400984948911 -0.147027814601 0.473 4.42467416992e-39
-0.0383163395626 -0.147027814601 0.473 4.42467416992e-39
-0.036456944944 -0.146716973555 0.472 4.42467416992e-39
-0.0349724434653 -0.147960337738 0.476 4.2402829102e-39
-0.0332486885757 -0.148271178783 0.477 4.2402829102e-39
-0.0313855261868 -0.147960337738 0.476 4.2402829102e-39
-0.0298407403841 -0.14920370192 0.48 4.05589165047e-39
-0.0279154097861 -0.148582019829 0.478 4.42467416992e-39
-0.0258412522632 -0.147027814601 0.473 4.51686979979e-39
-0.0241608267314 -0.147649496692 0.475 4.42539303604e-39
-0.0223711358624 -0.147649496692 0.475 4.33319740617e-39
-0.0207114330671 -0.148582019829 0.478 3.96441488672e-39
-0.0189895620626 -0.14920370192 0.48 4.05661051658e-39
-0.0172526199771 -0.149825384012 0.482 4.14916628015e-39
-0.0153725026221 -0.14920370192 0.48 4.33355753988e-39
-0.013535714625 -0.148892860875 0.479 4.05876291102e-39
-0.0117799336882 -0.149514542966 0.481 4.05876291102e-39
-0.00998835893411 -0.149825384012 0.482 3.96620434486e-39
-0.00818924863949 -0.150136225057 0.483 3.874008715e-39
-0.00636941560849 -0.150136225057 0.483 3.96620434486e-39
-0.0045495825775 -0.150136225057 0.483 3.96620714746e-39
-0.00271279458037 -0.14920370192 0.48 4.14952220996e-39
-0.000909916515499 -0.150136225057 0.483 4.14916628015e-39
0.000909916515499 -0.150136225057 0.483 4.42539023344e-39
0.00273540120187 -0.150447066103 0.484 4.5175858633e-39
0.00454016315187 -0.149825384012 0.482 4.24171503723e-39
0.00630347962911 -0.148582019829 0.478 4.14951940736e-39
0.00812142877498 -0.148892860875 0.479 4.24171223463e-39
0.00988474525222 -0.148271178783 0.477 4.14987393588e-39
0.0116329906485 -0.147649496692 0.475 3.87436324351e-39
0.0133944232406 -0.147338655646 0.474 3.78216761364e-39
0.0151803463393 -0.147338655646 0.474 4.14951660477e-39
0.0169304756207 -0.147027814601 0.473 4.14951660477e-39
0.0186730693615 -0.146716973555 0.472 4.0573237775e-39
0.0202781394883 -0.145473609372 0.468 4.0573237775e-39
0.0220885530936 -0.145784450418 0.469 3.96513095024e-39
0.0238556373411 -0.145784450418 0.469 3.96477502043e-39
0.0256227215886 -0.145784450418 0.469 4.14916628015e-39
0.0273314053972 -0.145473609372 0.468 3.96477782302e-39
0.0288460490379 -0.14423024519 0.464 3.7803837607e-39
0.0304624224754 -0.143608563098 0.462 3.96477502043e-39
0.031854613583 -0.14205435787 0.457 4.0573265801e-39
0.0340173137068 -0.143919404144 0.463 4.14880054125e-39
0.0356845520426 -0.143608563098 0.462 4.42502729714e-39
0.0375062689587 -0.143919404144 0.463 4.42467136733e-39
0.0395898459073 -0.145162768327 0.467 4.60798642983e-39
0.041526479816 -0.145784450418 0.469 4.60798923243e-39
0.0431089433213 -0.145162768327 0.467 4.33390786449e-39
0.0448684920282 -0.145162768327 0.467 4.24171223463e-39
0.0466280407352 -0.145162768327 0.467 4.14951660477e-39
0.0480767483966 -0.14423024519 0.464 4.0573209749e-39
0.0495028494364 -0.143297722053 0.461 3.78181588773e-39
0.0510174930771 -0.142676039961 0.459 3.96620714746e-39
0.0533214845853 -0.14423024519 0.464 3.87401151759e-39
0.0551884147444 -0.144541086235 0.465 3.96620714746e-39
0.057062880444 -0.144851927281 0.466 3.87580517963e-39
0.0584400004706 -0.143919404144 0.463 3.87580517963e-39
0.0600544900229 -0.143608563098 0.462 3.96692180967e-39
0.0619289557226 -0.143919404144 0.463 4.1513130694e-39
0.0629858152778 -0.142365198916 0.458 4.42789995899e-39
0.0655592023589 -0.14423024519 0.464 4.33570432913e-39
0.0664370928273 -0.142365198916 0.458 4.42718109288e-39
0.0678650777523 -0.141743516824 0.456 4.42718109288e-39
0.0697357756816 -0.14205435787 0.457 4.33498966691e-39
0.0717703716169 -0.142676039961 0.459 4.05911884083e-39
0.0733396479263 -0.142365198916 0.458 4.05911884083e-39
0.0747374906892 -0.141743516824 0.456 4.33570432913e-39
0.0767909254757 -0.142365198916 0.458 4.33570573042e-39
0.0781736971577 -0.141743516824 0.456 4.33498966691e-39
0.0795413977586 -0.141121834733 0.454 4.33391346969e-39
0.0816099036261 -0.141743516824 0.456 4.33319460358e-39
0.0829625331461 -0.141121834733 0.454 3.96727493689e-39
0.0848596054672 -0.141432675779 0.455 3.96727773948e-39
0.0865739409312 -0.141432675779 0.455 4.05947336935e-39
0.0892584772347 -0.142986881007 0.46 4.05839857342e-39
0.0907938436118 -0.142676039961 0.459 4.24278983315e-39
0.0911122201979 -0.140500152642 0.452 4.33390786449e-39
0.0940473132231 -0.142365198916 0.458 4.24171223463e-39
0.0955638407489 -0.14205435787 0.457 4.33391066709e-39
0.0970728327342 -0.141743516824 0.456 4.42718249418e-39
0.0983576423897 -0.141121834733 0.454 4.51937812404e-39
0.0998477955237 -0.140810993687 0.453 4.51937812404e-39
0.102451324767 -0.14205435787 0.457 4.33498686431e-39
0.104401145871 -0.142365198916 0.458 4.33498546301e-39
0.105663348905 -0.141743516824 0.456 4.42718109288e-39
0.10761693778 -0.14205435787 0.457 4.51937672274e-39
0.110056569018 -0.142986881007 0.46 4.51937672274e-39
0.111546722152 -0.142676039961 0.459 4.33498686431e-39
0.113276128697 -0.142676039961 0.459 4.05839997472e-39
0.114504421798 -0.14205435787 0.457 3.96620434486e-39
0.114954670343 -0.140500152642 0.452 4.24279123445e-39
0.116657702496 -0.140500152642 0.452 4.42718249418e-39
0.117575154552 -0.139567629505 0.449 4.51937812404e-39
0.120595022408 -0.141121834733 0.454 4.6115737539e-39
0.122036194529 -0.140810993687 0.453 4.6115737539e-39
0.122923504423 -0.13987847055 0.45 4.61229121872e-39
0.124619001036 -0.13987847055 0.45 4.61229121872e-39
0.126033798765 -0.139567629505 0.449 4.61229121872e-39
0.129147860877 -0.141121834733 0.454 4.70448684858e-39
0.131434897419 -0.141743516824 0.456 4.52009558885e-39
0.132860998459 -0.141432675779 0.455 4.42789995899e-39
0.133688024029 -0.140500152642 0.452 4.42789995899e-39
0.135091518447 -0.140189311596 0.451 4.61229121872e-39
0.137094088335 -0.140500152642 0.452 4.7945356892e-39
0.138490047213 -0.140189311596 0.451 4.88637118535e-39
0.140189311596 -0.140189311596 0.451 4.88637118535e-39
0.141259358347 -0.139567629505 0.449 4.70126105951e-39
0.141359204259 -0.138013424276 0.444 4.79345949197e-39
0.142065661181 -0.137080901139 0.441 4.60942836595e-39
0.145030896368 -0.138324265322 0.445 4.51723273609e-39
0.145388834542 -0.137080901139 0.441 4.42575597234e-39
0.147717316557 -0.137702583231 0.443 4.05840277732e-39
0.14904922334 -0.137391742185 0.442 4.15059840718e-39
0.150373594583 -0.137080901139 0.441 4.33570573042e-39
0.152724683219 -0.137702583231 0.443 4.61229262001e-39
0.154045286692 -0.137391742185 0.442 4.61229121872e-39
0.154653781588 -0.136459219048 0.439 4.52009558885e-39
0.157019941305 -0.137080901139 0.441 4.15238926662e-39
0.159041350044 -0.137391742185 0.442 3.87580237703e-39
0.159979524837 -0.136770060094 0.44 4.24171503723e-39
0.161637343747 -0.136770060094 0.44 4.51830192682e-39
0.165521914875 -0.138635106368 0.446 4.79488881641e-39
0.165702767847 -0.137391742185 0.442 4.97928007613e-39
0.167746783208 -0.137702583231 0.443 4.70269318654e-39
0.168268619388 -0.136770060094 0.44 4.61049755668e-39
0.170312634749 -0.137080901139 0.441 4.70269318654e-39
0.171194292987 -0.136459219048 0.439 4.70269318654e-39
0.172454612136 -0.136148378002 0.438 4.15238926662e-39
0.17251489646 -0.13490501382 0.434 4.15238926662e-39
0.172946306154 -0.133972490683 0.431 4.24458769908e-39
0.174975250434 -0.134283331728 0.432 4.52117458867e-39
0.177011730254 -0.134594172774 0.433 4.61337021853e-39
0.179468316458 -0.135215854865 0.435 4.33678332894e-39
0.179441942066 -0.133972490683 0.431 4.33678473024e-39
0.182326170193 -0.13490501382 0.434 4.42898036011e-39
0.183537508328 -0.134594172774 0.433 4.70448684858e-39
0.185168952847 -0.134594172774 0.433 4.70448824988e-39
0.185937577978 -0.133972490683 0.431 4.79561188642e-39
0.18799666442 -0.134283331728 0.432 4.97892694892e-39
0.189624341168 -0.134283331728 0.432 4.98000314614e-39
0.188153026885 -0.132107444409 0.425 4.98035907595e-39
0.19154025234 -0.133350808591 0.429 4.88887810831e-39
0.194057122868 -0.133972490683 0.431 4.61336741594e-39
0.192956933954 -0.132107444409 0.425 4.5222437794e-39
0.193184884055 -0.131174921272 0.422 4.42969221972e-39
0.193851779389 -0.13055323918 0.42 4.2453037626e-39
0.197760841024 -0.132107444409 0.425 4.33750219506e-39
0.198893055984 -0.131796603363 0.424 4.61337021853e-39
0.203800576735 -0.133972490683 0.431 4.61337021853e-39
0.203994616903 -0.133039967546 0.428 4.61336741594e-39
0.205126831864 -0.1327291265 0.427 4.7055630458e-39
0.206735669761 -0.1327291265 0.427 4.52189345478e-39
0.20785658141 -0.132418285454 0.426 4.52189345478e-39
0.208478263501 -0.131796603363 0.424 4.42898036011e-39
0.209084874512 -0.131174921272 0.422 4.61229262001e-39
0.211673332674 -0.131796603363 0.424 4.98035627336e-39
0.209749885961 -0.129620716043 0.417 5.07255470582e-39
0.211827811254 -0.129931557089 0.418 5.34806259559e-39
0.208807943398 -0.127133987678 0.409 5.44025822545e-39
0.209320360152 -0.126512305587 0.407 5.44061275396e-39
0.206709295369 -0.124025577221 0.399 5.3484171241e-39
0.212387325136 -0.126512305587 0.407 5.16474613178e-39
0.217600035278 -0.128688192906 0.414 5.25694176165e-39
0.21386617496 -0.12557978245 0.404 5.25801655757e-39
0.211656377708 -0.12340389513 0.397 5.25801655757e-39
0.217447440583 -0.125890623495 0.405 5.16654119512e-39
0.203103539239 -0.112835299577 0.363 5.53353005254e-39
0.206161084797 -0.113767822714 0.366 5.53353005254e-39
0.199380982232 -0.107861842847 0.347 5.6260886187e-39
0.193169812974 -0.103820909253 0.334 5.6260886187e-39
-0.154420179832 -0.0819885645363 0.267 8.02101979811e-39
-0.151115845322 -0.0807602714346 0.263 7.74443290852e-39
-0.14701651129 -0.0801461248838 0.261 7.74443290852e-39
-0.144354581608 -0.0792249050576 0.258 7.74443290852e-39
-0.142826750771 -0.0789178317821 0.257 7.37565038907e-39
-0.150138108942 -0.0835239309134 0.272 7.09906349948e-39
-0.168149934625 -0.0954997886547 0.311 7.19125632674e-39
-0.163219807252 -0.0933502757267 0.304 7.19125632674e-39
-0.162074405096 -0.0933502757267 0.304 7.09906349948e-39
-0.166752091862 -0.0967280817563 0.315 7.00686786961e-39
-0.170640430761 -0.100412961061 0.327 6.45369409043e-39
-0.172516780345 -0.102255400714 0.333 6.54589252289e-39
-0.209320360152 -0.131734435154 0.429 5.99343200463e-39
-0.216418839304 -0.137261754111 0.447 5.90123637477e-39
-0.219058162365 -0.14002541359 0.456 5.81011554083e-39
-0.220676419687 -0.142174926518 0.463 5.81011554083e-39
-0.214676245564 -0.139411267039 0.454 5.90231257199e-39
-0.211558415681 -0.138490047213 0.451 5.71792411486e-39
-0.201483398031 -0.132962728256 0.433 5.625728485e-39
-0.184159190419 -0.122522236891 0.399 5.71684791764e-39
-0.175331304723 -0.117609064485 0.383 5.62465228777e-39
-0.171618167141 -0.116073698108 0.378 5.71649198783e-39
-0.168843204351 -0.115152478281 0.375 5.62465228777e-39
-0.166983809733 -0.114845405006 0.374 5.62465228777e-39
-0.165574663659 -0.114845405006 0.374 5.62464948518e-39
-0.165921298522 -0.116073698108 0.378 5.62393061907e-39
-0.163191548975 -0.115152478281 0.375 5.43953935934e-39
-0.178238139471 -0.133883948082 0.436 5.25514809961e-39
-0.171742503559 -0.131427361878 0.428 4.14808728033e-39
-0.153459398418 -0.132348581705 0.431 3.50414719572e-39
-0.151483202922 -0.132041508429 0.43 3.78073688791e-39
-0.148120467973 -0.130506142052 0.425 4.24099617112e-39
-0.147898169529 -0.131734435154 0.429 3.22684704522e-39
-0.147986712129 -0.133269801531 0.434 2.58076157266e-39
-0.146014284403 -0.132962728256 0.433 2.21090285598e-39
-0.144382839885 -0.132962728256 0.433 2.02651299756e-39
-0.145059154645 -0.135112241183 0.44 1.65952133754e-39
-0.145030896368 -0.136647607561 0.445 1.75243583352e-39
-0.144964960389 -0.138182973938 0.45 1.75351203074e-39
-0.14454297012 -0.139411267039 0.454 1.93790329046e-39
-0.144405446506 -0.140946633416 0.459 2.03009892033e-39
-0.143608563098 -0.141867853243 0.462 1.93790329046e-39
-0.142174926518 -0.142174926518 0.463 2.12121835297e-39
-0.141037059902 -0.142789073069 0.465 2.21269511672e-39
-0.140483197676 -0.144017366171 0.469 2.30417748566e-39
-0.139011883393 -0.144324439446 0.47 2.30417748566e-39
-0.137241031375 -0.144324439446 0.47 2.30489354918e-39
-0.135758413781 -0.144631512721 0.471 2.39780524256e-39
-0.135121660609 -0.145859805823 0.475 2.3056068101e-39
-0.134174066391 -0.146781025649 0.478 2.21448737746e-39
-0.132650003325 -0.147088098925 0.479 2.30740047213e-39
-0.129479424659 -0.145552732548 0.474 2.49179173186e-39
-0.12769350156 -0.145552732548 0.474 2.85877778668e-39
-0.126173206264 -0.145859805823 0.475 2.95097341654e-39
-0.125169095492 -0.146781025649 0.478 2.95097341654e-39
-0.123368101313 -0.146781025649 0.478 2.95097621914e-39
-0.121821431625 -0.147088098925 0.479 3.04245298289e-39
-0.119766112953 -0.146781025649 0.478 3.31903987248e-39
-0.117471540871 -0.146166879098 0.476 3.41123830494e-39
-0.115678082231 -0.146166879098 0.476 3.31904267508e-39
-0.113884623592 -0.146166879098 0.476 3.41303336828e-39
-0.112562136234 -0.146781025649 0.478 3.41303336828e-39
-0.110992859925 -0.147088098925 0.479 3.3204818086e-39
-0.109416048075 -0.1473951722 0.48 3.22828617874e-39
-0.107383336025 -0.147088098925 0.479 3.22720998152e-39
-0.105137744955 -0.146473952374 0.477 3.41160124125e-39
-0.102907224967 -0.145859805823 0.475 3.68818813084e-39
-0.101117534098 -0.145859805823 0.475 3.87257939056e-39
-0.099746065727 -0.146473952374 0.477 4.05660771399e-39
-0.0981541827961 -0.146781025649 0.478 4.05660771399e-39
-0.0959500371996 -0.146166879098 0.476 3.96512814764e-39
-0.0947500023748 -0.147088098925 0.479 3.78181588773e-39
-0.0929452404248 -0.147088098925 0.479 3.68962025787e-39
-0.0909502060772 -0.146781025649 0.478 3.69033632138e-39
-0.0885896980152 -0.145859805823 0.475 3.59921969134e-39
-0.0869827440034 -0.146166879098 0.476 3.59921969134e-39
-0.0851892853641 -0.146166879098 0.476 3.78325502125e-39
-0.0833958267249 -0.146166879098 0.476 3.59886376153e-39
-0.0814309345392 -0.145859805823 0.475 3.68998039157e-39
-0.0798089094464 -0.146166879098 0.476 3.78217602143e-39
-0.0780154508071 -0.146166879098 0.476 4.05839997472e-39
-0.0768625131105 -0.1473951722 0.48 4.05839997472e-39
-0.074584895994 -0.146473952374 0.477 4.14951660477e-39
-0.07324545367 -0.1473951722 0.48 4.0573209749e-39
-0.0717345777995 -0.148009318751 0.482 3.78360954976e-39
-0.0690481576109 -0.146166879098 0.476 3.6914139199e-39
-0.0669721162029 -0.145552732548 0.474 3.59921829004e-39
-0.0649111458759 -0.144938585997 0.472 3.41482703031e-39
-0.0629990024737 -0.144631512721 0.471 3.6914139199e-39
-0.0613543707594 -0.144938585997 0.472 3.87580517963e-39
-0.0605857456283 -0.1473951722 0.48 3.87580517963e-39
-0.0585323108417 -0.146781025649 0.478 3.87580517963e-39
-0.0568500014249 -0.147088098925 0.479 4.51579360257e-39
-0.0548154054896 -0.146473952374 0.477 4.51579360257e-39
-0.0530181790801 -0.146473952374 0.477 4.33247854006e-39
-0.0512209526706 -0.146473952374 0.477 4.14880334385e-39
-0.0494237262611 -0.146473952374 0.477 4.14880054125e-39
-0.0478261916749 -0.147088098925 0.479 3.87293251777e-39
-0.0461175078663 -0.1473951722 0.48 3.78181308513e-39
-0.0444012885172 -0.147702245476 0.481 3.874008715e-39
-0.0426775336276 -0.148009318751 0.482 4.05588884787e-39
-0.0406919187056 -0.1473951722 0.48 3.96369321801e-39
-0.0388833889853 -0.1473951722 0.48 3.96369321801e-39
-0.0371520985552 -0.147702245476 0.481 4.05588884787e-39
-0.0354867441045 -0.148316392026 0.483 3.96369321801e-39
-0.0337366148231 -0.148623465302 0.484 4.05588884787e-39
-0.0318470780425 -0.148316392026 0.483 4.05588884787e-39
-0.0300894132206 -0.148623465302 0.484 3.87149758815e-39
-0.0281490115416 -0.148009318751 0.482 4.14700828052e-39
-0.0262236809436 -0.1473951722 0.48 4.05589165047e-39
-0.0245168810201 -0.148009318751 0.482 4.05589165047e-39
-0.0227008157593 -0.148009318751 0.482 3.96441488672e-39
-0.0210147385722 -0.148930538577 0.485 3.78002362699e-39
-0.0191873700007 -0.148930538577 0.485 3.96477502043e-39
-0.0175389705161 -0.150465904954 0.49 4.05697065029e-39
-0.0156287109991 -0.149851758403 0.488 3.68926713065e-39
-0.01376178084 -0.149544685128 0.487 3.59814069152e-39
-0.011926876728 -0.149544685128 0.487 3.59814069152e-39
-0.0100712498796 -0.149237611853 0.486 3.68961605397e-39
-0.00830793340238 -0.150465904954 0.49 3.68961605397e-39
-0.006422164392 -0.149544685128 0.487 3.78181308513e-39
-0.00458726028 -0.149544685128 0.487 3.78181308513e-39
-0.00274105285725 -0.148930538577 0.485 3.96512814764e-39
-0.000915568170875 -0.149237611853 0.486 3.96513095024e-39
0.000911800400624 -0.148623465302 0.484 3.87257939056e-39
0.00275800782338 -0.149851758403 0.488 3.87257939056e-39
0.00458726028 -0.149544685128 0.487 4.05660771399e-39
0.00640897719612 -0.149237611853 0.486 4.05660771399e-39
0.00820620360562 -0.148623465302 0.484 4.14880054125e-39
0.0100712498796 -0.149237611853 0.486 3.96440928153e-39
0.0118044241949 -0.148009318751 0.482 3.96476521134e-39
0.013535714625 -0.147088098925 0.479 4.0569608412e-39
0.015340476575 -0.147088098925 0.479 3.96440928153e-39
0.0171094447076 -0.146781025649 0.478 3.96440928153e-39
0.0189104388873 -0.146781025649 0.478 3.96441208412e-39
0.0205381156356 -0.145552732548 0.474 4.14880614645e-39
0.0227008157593 -0.148009318751 0.482 4.05661051658e-39
0.0244660161217 -0.147702245476 0.481 3.87186332705e-39
0.0260597829377 -0.146473952374 0.477 3.96405895691e-39
0.0277986089083 -0.146166879098 0.476 4.05625598807e-39
0.0294677311293 -0.145552732548 0.474 4.05625598807e-39
0.0311217822692 -0.144938585997 0.472 3.87186332705e-39
0.0327607623282 -0.144324439446 0.47 3.87221925686e-39
0.0347520289056 -0.145245659272 0.473 4.2402829102e-39
0.036456944944 -0.144938585997 0.472 4.70125825692e-39
0.038397346623 -0.145552732548 0.474 4.60906542965e-39
0.0401832697217 -0.145552732548 0.474 4.42467416992e-39
0.0422348206231 -0.146473952374 0.477 4.24028571279e-39
0.0436628055481 -0.145245659272 0.473 4.0573237775e-39
0.045541039018 -0.145552732548 0.474 3.96512814764e-39
0.0473269621167 -0.145552732548 0.474 3.68962025787e-39
0.0490092715336 -0.145245659272 0.473 3.78181588773e-39
0.0504692825056 -0.144324439446 0.47 3.96620434486e-39
0.0523512837458 -0.144631512721 0.471 3.96692321097e-39
0.0545855715043 -0.145859805823 0.475 3.87472758111e-39
0.0561378928475 -0.145245659272 0.473 3.87472758111e-39
0.057920048176 -0.145245659272 0.473 4.05947336935e-39
0.059197322291 -0.144017366171 0.469 3.96727773948e-39
0.0608344184648 -0.143710292895 0.468 3.59921548744e-39
0.0624639790981 -0.14340321962 0.467 3.6914111173e-39
0.0642235278051 -0.14340321962 0.467 3.59921548744e-39
0.0659830765121 -0.14340321962 0.467 3.78360674717e-39
0.0673074477552 -0.142481999793 0.464 3.87580237703e-39
0.0689068662265 -0.142174926518 0.463 3.78360674717e-39
0.0712617226331 -0.14340321962 0.467 4.06019363676e-39
0.0727085464093 -0.142789073069 0.465 3.87615830684e-39
