VERSION .7
FIELDS x y z rgb
SIZE 4 4 4 4
TYPE F F F F
COUNT 1 1 1 1
WIDTH 822
HEIGHT 1
VIEWPOINT 0 0 0 1 0 0 0
POINTS 822
DATA ascii
-0.0816268585923 -0.00404093359368 0.143 1.37378677157e-38
-0.0810880674464 -0.00404093359368 0.143 1.17095638588e-38
-0.0799859946482 -0.0040126753168 0.142 1.15251697964e-38
-0.0794509712726 -0.0040126753168 0.142 1.26315173548e-38
-0.0783602017851 -0.00398441703992 0.141 1.43832315196e-38
-0.0778289461797 -0.00398441703992 0.141 1.4752014039e-38
-0.0772976905744 -0.00398441703992 0.141 1.44757844806e-38
-0.0800330917763 -0.00415396670119 0.147 1.47523713702e-38
-0.0783978794876 -0.00409745014743 0.145 1.53973834481e-38
-0.0767777382798 -0.00404093359368 0.143 1.45676255819e-38
-0.0751726681531 -0.00398441703992 0.141 1.45661906523e-38
-0.0741120408276 -0.00395615876304 0.14 1.44739950224e-38
-0.0730589490426 -0.00392790048616 0.139 1.44739950224e-38
-0.0725352289778 -0.00392790048616 0.139 1.44743481496e-38
-0.0720115089129 -0.00392790048616 0.139 1.43835888507e-38
-0.0714877888481 -0.00392790048616 0.139 1.4475781678e-38
-0.0709640687833 -0.00392790048616 0.139 1.42928323544e-38
-0.0704403487185 -0.00392790048616 0.139 1.39240498349e-38
-0.0704196259821 -0.00395615876304 0.14 1.32779615598e-38
-0.069892138147 -0.00395615876304 0.14 1.17106372534e-38
-0.068869188524 -0.00392790048616 0.139 1.07876019549e-38
-0.0683454684592 -0.00392790048616 0.139 1.13407757341e-38
-0.0683096746418 -0.00395615876304 0.14 1.3091776638e-38
-0.0677821868067 -0.00395615876304 0.14 1.41059285665e-38
-0.0662939175578 -0.00389964220928 0.138 1.41988430625e-38
-0.0657739652632 -0.00389964220928 0.138 1.37378649132e-38
-0.0661997233015 -0.00395615876304 0.14 1.20783435756e-38
-0.0666104102588 -0.0040126753168 0.142 5.90051750866e-39
-0.0656100672573 -0.00398441703992 0.141 4.70197432043e-39
-0.065078811652 -0.00398441703992 0.141 4.14844040755e-39
-0.0645475560467 -0.00398441703992 0.141 6.54552678399e-39
-0.0653783493869 -0.00406919187056 0.144 1.21694602057e-38
-0.0675372817405 -0.00423874153183 0.15 1.39218918353e-38
-0.0674185969776 -0.00426699980871 0.151 1.42906743547e-38
-0.0633079596343 -0.00404093359368 0.143 1.38296976067e-38
-0.0610133875517 -0.00392790048616 0.139 1.31843281977e-38
-0.0600544900229 -0.00389964220928 0.138 1.21698203394e-38
-0.058671718341 -0.00384312565552 0.136 1.13400596706e-38
-0.0585869435104 -0.0038713839324 0.137 1.30917794406e-38
-0.0584946331392 -0.00389964220928 0.138 1.41059313691e-38
-0.0579746808447 -0.00389964220928 0.138 1.38311353389e-38
-0.0566220513247 -0.00384312565552 0.136 1.38311353389e-38
-0.0565222054131 -0.0038713839324 0.137 1.40155265987e-38
-0.0564148239609 -0.00389964220928 0.138 1.41077222285e-38
-0.0554898363644 -0.0038713839324 0.137 1.41077222285e-38
-0.0553749193718 -0.00389964220928 0.138 1.42921134883e-38
-0.0548549670772 -0.00389964220928 0.138 1.39233309688e-38
-0.0547287467738 -0.00392790048616 0.139 1.43843091181e-38
-0.0549849551509 -0.00398441703992 0.141 1.39222533703e-38
-0.0536813066442 -0.00392790048616 0.139 1.38300577404e-38
-0.0520103005381 -0.00384312565552 0.136 1.40144490001e-38
-0.0530125274247 -0.00395615876304 0.14 1.38300577404e-38
-0.0539846121494 -0.00406919187056 0.144 1.40144490001e-38
-0.0530709278636 -0.00404093359368 0.143 1.35534708508e-38
-0.0514300639195 -0.00395615876304 0.14 1.16173626237e-38
-0.0498118065969 -0.0038713839324 0.137 9.40466750698e-39
-0.0496554441315 -0.00389964220928 0.138 9.6826879249e-39
-0.0509157632803 -0.00404093359368 0.143 1.17109917819e-38
-0.0538998373187 -0.00432351636246 0.153 1.38314912687e-38
-0.0533233684704 -0.00432351636246 0.153 1.41077222285e-38
-0.0503336427766 -0.00412570842431 0.146 1.41077222285e-38
-0.0463737162433 -0.00384312565552 0.136 1.23560066624e-38
-0.0461985149267 -0.0038713839324 0.137 6.36329072131e-39
-0.0453488827352 -0.00384312565552 0.136 3.78181308513e-39
-0.045166145878 -0.0038713839324 0.137 4.14736421033e-39
-0.0459536098604 -0.00398441703992 0.141 5.25478796591e-39
-0.0447780655422 -0.00392790048616 0.139 1.09709170174e-38
-0.0429808391327 -0.00381486737865 0.135 1.4290675756e-38
-0.0431014077808 -0.0038713839324 0.137 1.39226107014e-38
-0.0425852232564 -0.0038713839324 0.137 1.38304150715e-38
-0.0420690387321 -0.0038713839324 0.137 1.34627087493e-38
-0.0424627707233 -0.00395615876304 0.14 1.18031874118e-38
-0.0419352828882 -0.00395615876304 0.14 1.18932334498e-38
-0.0414077950531 -0.00395615876304 0.14 1.25386028588e-38
-0.0408803072181 -0.00395615876304 0.14 1.3737146047e-38
-0.0406410538072 -0.00398441703992 0.141 1.37378649132e-38
-0.0403942648558 -0.0040126753168 0.142 1.37378649132e-38
-0.0395785425965 -0.00398441703992 0.141 1.40144518027e-38
-0.0398780803314 -0.00406919187056 0.144 1.36467482831e-38
-0.0393355214154 -0.00406919187056 0.144 1.35545526532e-38
-0.0379847757806 -0.00398441703992 0.141 1.37396599765e-38
-0.0374535201752 -0.00398441703992 0.141 1.34630730869e-38
-0.0371841246023 -0.0040126753168 0.142 1.3370877457e-38
-0.0369071934889 -0.00404093359368 0.143 1.34630730869e-38
-0.0384029982784 -0.00426699980871 0.151 1.30942891661e-38
-0.0395879620222 -0.00446480774686 0.158 1.3186484796e-38
-0.0382522874683 -0.00438003291622 0.155 1.33712319855e-38
-0.0354810924491 -0.00412570842431 0.146 1.32790363557e-38
-0.0344524911707 -0.00406919187056 0.144 1.36456664807e-38
-0.0339099322546 -0.00406919187056 0.144 1.18017538834e-38
-0.0338308090794 -0.00412570842431 0.146 9.40466750698e-39
-0.0337366148231 -0.00418222497807 0.148 9.40466750698e-39
-0.0327306201662 -0.00412570842431 0.146 1.19861451432e-38
-0.031298867471 -0.0040126753168 0.142 1.27237101821e-38
-0.0303305505166 -0.00395615876304 0.14 1.33690795911e-38
-0.0298030626816 -0.00395615876304 0.14 1.32768839612e-38
-0.0292755748465 -0.00395615876304 0.14 1.30924955041e-38
-0.0287480870114 -0.00395615876304 0.14 7.19197519285e-39
-0.0282205991763 -0.00395615876304 0.14 3.59634562818e-39
-0.0278909192794 -0.00398441703992 0.141 3.59634562818e-39
-0.0273596636741 -0.00398441703992 0.141 2.76658495941e-39
-0.0268284080688 -0.00398441703992 0.141 8.85149653039e-39
-0.0264836570909 -0.0040126753168 0.142 1.28159086145e-38
-0.0261313705724 -0.00404093359368 0.143 1.28159086145e-38
-0.0259505176004 -0.00409745014743 0.145 1.25403965208e-38
-0.0255793922307 -0.00412570842431 0.146 1.26315145522e-38
-0.0250292977742 -0.00412570842431 0.146 9.77273396292e-39
-0.0244792033176 -0.00412570842431 0.146 7.92810530213e-39
-0.0240930068669 -0.00415396670119 0.147 8.7578659709e-39
-0.0236992748757 -0.00418222497807 0.148 1.170884219e-38
-0.0234543698094 -0.00423874153183 0.15 1.33690795911e-38
-0.023041798967 -0.00426699980871 0.151 1.29091790403e-38
-0.022770519509 -0.00432351636246 0.153 1.27258597739e-38
-0.022048991506 -0.00429525808559 0.152 1.26336669466e-38
-0.0210524162747 -0.00421048325495 0.149 1.29098979064e-38
-0.0211786365781 -0.00435177463934 0.154 1.29098993077e-38
-0.0214009350229 -0.00452132430062 0.16 1.2725508048e-38
-0.0215780202247 -0.00469087396189 0.166 1.27255066467e-38
-0.0215836718801 -0.00483216534628 0.171 1.26336669466e-38
-0.0195924053027 -0.00452132430062 0.16 1.29102510336e-38
-0.0182774534852 -0.00435177463934 0.154 1.25407524507e-38
-0.0172375488961 -0.00423874153183 0.15 1.25407524507e-38
-0.0165612341361 -0.00421048325495 0.149 1.26329480805e-38
-0.0158924549167 -0.00418222497807 0.148 1.26329480805e-38
-0.0153348249196 -0.00418222497807 0.148 1.21719699312e-38
-0.0147771949225 -0.00418222497807 0.148 1.18031874118e-38
-0.0142195649254 -0.00418222497807 0.148 1.18953830416e-38
-0.0136619349284 -0.00418222497807 0.148 1.24485568208e-38
-0.0131043049313 -0.00418222497807 0.148 1.28159058119e-38
-0.0125466749342 -0.00418222497807 0.148 1.28159058119e-38
-0.0120700519975 -0.00421048325495 0.149 1.31846883314e-38
-0.0115086542302 -0.00421048325495 0.149 1.21705364029e-38
-0.0110207279828 -0.00423874153183 0.15 6.63879861108e-39
-0.0105252661948 -0.00426699980871 0.151 2.85877778668e-39
-0.0100222688664 -0.00429525808559 0.152 2.76658215682e-39
-0.00944956778829 -0.00429525808559 0.152 4.88708164367e-39
-0.00893526714909 -0.00432351636246 0.153 1.13411330652e-38
-0.0084134309694 -0.00435177463934 0.154 1.26315145522e-38
-0.0078840592492 -0.00438003291622 0.155 1.28159058119e-38
-0.00739424911663 -0.00443654946998 0.157 1.20783435756e-38
-0.00684603854518 -0.00446480774686 0.158 8.85078046688e-39
-0.00629029243323 -0.00449306602374 0.159 3.87221925686e-39
-0.00572701078078 -0.00452132430062 0.16 3.87150319334e-39
-0.00522024568209 -0.00460609913125 0.163 4.79345949197e-39
-0.00466261568501 -0.00466261568501 0.165 1.1158180939e-38
-0.00411440511356 -0.00474739051565 0.168 1.30942891661e-38
-0.00339852876596 -0.00463435740813 0.164 1.27255066467e-38
-0.00269583961424 -0.00449306602374 0.159 1.28177022766e-38
-0.00209676414441 -0.00449306602374 0.159 1.3186484796e-38
-0.00149768867458 -0.00449306602374 0.159 1.28177022766e-38
-0.000909916515499 -0.0045495825775 0.161 1.23567241272e-38
-0.000307073275417 -0.00460609913125 0.163 1.22645284974e-38
0.000303305505166 -0.0045495825775 0.161 1.29091804416e-38
0.000892961549372 -0.00446480774686 0.158 1.30935717013e-38
0.00147884982333 -0.00443654946998 0.157 1.28169848117e-38
0.00207038975266 -0.00443654946998 0.157 1.29091804416e-38
0.00266192968199 -0.00443654946998 0.157 1.31857673312e-38
0.0032741923477 -0.00446480774686 0.158 1.30935717013e-38
0.00382051903402 -0.0044082911931 0.156 1.31857673312e-38
0.0044082911931 -0.0044082911931 0.156 1.2632593552e-38
0.00499606335218 -0.0044082911931 0.156 1.26336669466e-38
0.00561962932864 -0.00443654946998 0.157 1.26336669466e-38
0.00621116925797 -0.00443654946998 0.157 1.24492756869e-38
0.00688936790306 -0.00449306602374 0.159 1.26336669466e-38
0.00753554050103 -0.00452132430062 0.16 1.24492756869e-38
0.00818924863949 -0.0045495825775 0.161 1.28180582064e-38
0.00879585964982 -0.0045495825775 0.161 1.12507324987e-38
0.00934407022127 -0.00452132430062 0.16 7.47071167429e-39
0.0100090816705 -0.0045495825775 0.161 5.81011974472e-39
0.0106816286602 -0.00457784085437 0.162 8.20720612117e-39
0.0113617111904 -0.00460609913125 0.163 1.12496619067e-38
0.012122800781 -0.00466261568501 0.165 1.28169876143e-38
0.0128217221625 -0.00469087396189 0.166 1.28169876143e-38
0.0132041508429 -0.00460609913125 0.163 1.25404007247e-38
0.0135639729019 -0.00452132430062 0.16 7.19305419267e-39
0.0141668161419 -0.00452132430062 0.16 2.49107706964e-39
0.0151389008666 -0.00463435740813 0.164 3.41195436846e-39
0.0170058310257 -0.00500171500756 0.177 3.13536747887e-39
0.0170736508902 -0.00483216534628 0.171 9.5890615693e-39
0.0170962575117 -0.00466261568501 0.165 1.32768867638e-38
0.0171810323423 -0.00452132430062 0.16 1.30002998742e-38
0.0177838755824 -0.00452132430062 0.16 1.30002998742e-38
0.0183867188225 -0.00452132430062 0.16 1.20783435756e-38
0.0191082468255 -0.0045495825775 0.161 9.95784408875e-39
0.019837310369 -0.00457784085437 0.162 9.22136785875e-39
0.0205739094529 -0.00460609913125 0.163 1.04202669768e-38
0.0210580679301 -0.00457784085437 0.162 1.25407608585e-38
0.0216684467107 -0.00457784085437 0.162 1.23567241272e-38
0.0222788254913 -0.00457784085437 0.162 1.2541115387e-38
0.0228892042719 -0.00457784085437 0.162 1.22645284974e-38
0.0236446422071 -0.00460609913125 0.163 1.23567241272e-38
0.0242587887579 -0.00460609913125 0.163 1.22645298987e-38
0.0248729353088 -0.00460609913125 0.163 1.23560066624e-38
0.0254870818596 -0.00460609913125 0.163 1.23560066624e-38
0.0261012284104 -0.00460609913125 0.163 1.21719699312e-38
0.0267153749613 -0.00460609913125 0.163 1.22641655611e-38
0.0276648530644 -0.00466261568501 0.165 1.25407524507e-38
0.0286294022485 -0.00471913223877 0.167 1.23563611909e-38
0.0290834185637 -0.00469087396189 0.166 1.22638110326e-38
0.0295298993384 -0.00466261568501 0.165 1.21716154027e-38
0.0303343182869 -0.00469087396189 0.166 1.18957473792e-38
0.0315192820307 -0.00477564879253 0.169 1.10659867104e-38
0.0338684867819 -0.00502997328444 0.178 1.12503779702e-38
0.0347331900544 -0.00505823156132 0.179 1.16191604896e-38
0.0344185812384 -0.00491694017692 0.174 1.18035517494e-38
0.0344694461368 -0.00483216534628 0.171 1.18957473792e-38
0.034908391371 -0.00480390706941 0.17 1.21723342688e-38
0.0355489123136 -0.00480390706941 0.17 9.95963915209e-39
0.0368280703136 -0.00488868190004 0.173 4.33391066709e-39
0.037479894567 -0.00488868190004 0.173 2.39780243996e-39
0.0372500605817 -0.00477564879253 0.169 3.78073688791e-39
0.037886813754 -0.00477564879253 0.169 8.29832275121e-39
0.0380676667261 -0.00471913223877 0.167 1.18939523159e-38
0.0389286022283 -0.00474739051565 0.168 1.22627348353e-38
0.0395615876304 -0.00474739051565 0.168 1.20783435756e-38
0.0404338264434 -0.00477564879253 0.169 8.20612712135e-39
0.0410705796157 -0.00477564879253 0.169 3.87042419352e-39
0.0414605438367 -0.00474739051565 0.168 3.13393815443e-39
0.0420935292387 -0.00474739051565 0.168 3.68818813084e-39
0.0427265146408 -0.00474739051565 0.168 9.49830787556e-39
0.0433595000429 -0.00474739051565 0.168 1.20797827091e-38
0.0445162055098 -0.00480390706941 0.17 1.17113547182e-38
0.0451567264524 -0.00480390706941 0.17 1.21723328675e-38
0.045797247395 -0.00480390706941 0.17 1.18031874118e-38
0.0461646049944 -0.00477564879253 0.169 1.07876047575e-38
0.0470782892802 -0.00480390706941 0.17 1.1156387277e-38
0.0494030035247 -0.00497345673068 0.176 1.15251697964e-38
0.0512039977045 -0.00508648983819 0.18 1.21705364029e-38
0.0510174930771 -0.00500171500756 0.177 1.18017538834e-38
0.0505163796338 -0.00488868190004 0.173 1.25396762534e-38
0.0508724339224 -0.00486042362316 0.172 1.24474806236e-38
0.0524191036103 -0.0049451984538 0.175 1.2170893734e-38
0.0555049074454 -0.00517126466883 0.183 1.20794183715e-38
0.0561944094013 -0.00517126466883 0.183 1.16184402222e-38
0.0556405471745 -0.00505823156132 0.179 1.18950271118e-38
0.0547419339697 -0.00491694017692 0.174 1.16184402222e-38
0.0544423962348 -0.00483216534628 0.171 1.18950271118e-38
0.0547645405912 -0.00480390706941 0.17 1.18950271118e-38
0.0554050615338 -0.00480390706941 0.17 1.18028314819e-38
0.0563752623733 -0.00483216534628 0.171 1.16184402222e-38
0.0573529987533 -0.00486042362316 0.172 1.14340531664e-38
0.0580010552364 -0.00486042362316 0.172 9.95892308857e-39
0.0593310781348 -0.00491694017692 0.174 8.66818427049e-39
0.0599866701584 -0.00491694017692 0.174 9.49794493926e-39
0.060642262182 -0.00491694017692 0.174 1.10652706469e-38
0.061650140724 -0.0049451984538 0.175 1.18028356858e-38
0.0626655548065 -0.00497345673068 0.176 1.1710640056e-38
0.0644081485474 -0.00505823156132 0.179 1.06042924976e-38
0.0647189895931 -0.00502997328444 0.178 6.45441015395e-39
0.0642875798994 -0.0049451984538 0.175 2.95097621914e-39
0.0653180650629 -0.00497345673068 0.176 2.58219369969e-39
0.0663560857669 -0.00500171500756 0.177 5.53245385531e-39
0.0662656592809 -0.0049451984538 0.175 1.06032134978e-38
0.0673074477552 -0.00497345673068 0.176 1.13407785367e-38
0.0675843788686 -0.0049451984538 0.175 1.1801756686e-38
0.0690236671043 -0.00500171500756 0.177 1.00500397186e-38
0.0700842944298 -0.00502997328444 0.178 7.37636925518e-39
0.0707549575344 -0.00502997328444 0.178 5.90123917736e-39
0.071425620639 -0.00502997328444 0.178 5.71684791764e-39
0.0720962837436 -0.00502997328444 0.178 9.77345563162e-39
0.0727669468482 -0.00502997328444 0.178 1.16173682289e-38
0.0734376099528 -0.00502997328444 0.178 1.12485857094e-38
0.0741082730574 -0.00502997328444 0.178 1.1525172599e-38
0.0739387233961 -0.00497345673068 0.176 1.11563900796e-38
0.0746018509602 -0.00497345673068 0.176 1.15251697964e-38
0.0761202623711 -0.00502997328444 0.178 1.10641916471e-38
0.0772223351694 -0.00505823156132 0.179 1.15251697964e-38
0.0774615885803 -0.00502997328444 0.178 1.1156387277e-38
0.0785711969191 -0.00505823156132 0.179 1.18939523159e-38
0.0792456277939 -0.00505823156132 0.179 1.17095610562e-38
0.0794735778941 -0.00502997328444 0.178 1.1801756686e-38
0.0801442409987 -0.00502997328444 0.178 1.17095610562e-38
0.0812689204185 -0.00505823156132 0.179 1.1801756686e-38
0.0819433512933 -0.00505823156132 0.179 1.16173654263e-38
0.0835408858795 -0.00511474811507 0.181 1.12485829068e-38
0.0837575326689 -0.00508648983819 0.18 1.12485829068e-38
0.0853739061064 -0.00514300639195 0.182 1.16173654263e-38
0.086059640292 -0.00514300639195 0.182 1.14329741666e-38
0.0867453744776 -0.00514300639195 0.182 1.16173654263e-38
0.0883918900771 -0.00519952294571 0.184 1.09719960173e-38
0.0895693182803 -0.00522778122259 0.185 8.02101979811e-39
0.091730134519 -0.00531255605322 0.188 5.16295527235e-39
0.0939135573792 -0.00539733088386 0.191 4.97856401262e-39
0.0936422779211 -0.0053408143301 0.189 7.92882416825e-39
0.0958520751731 -0.00542558916074 0.192 1.10634755836e-38
0.0960724897327 -0.00539733088386 0.191 1.12478668433e-38
0.0957786036532 -0.0053408143301 0.189 1.13400624732e-38
0.0970012450995 -0.00536907260698 0.19 8.20541105784e-39
0.0982314220863 -0.00539733088386 0.191 4.33247854006e-39
0.105410908299 -0.00570817192953 0.202 4.61049755668e-39
0.112479245289 -0.00604727125207 0.214 9.31247467971e-39
0.116461778443 -0.00621682091335 0.22 1.09719960173e-38
0.120489524841 -0.00638637057462 0.226 1.13407785367e-38
0.123488669961 -0.00649940368214 0.23 1.10627595201e-38
0.125977282211 -0.00658417851277 0.233 1.07861726305e-38
0.127399615481 -0.00661243678965 0.234 9.86492959278e-39
0.129377694862 -0.00666895334341 0.236 1.00493208525e-38
0.128610953616 -0.00658417851277 0.233 1.09712771511e-38
0.129488844085 -0.00658417851277 0.233 1.1063472781e-38
0.129247706789 -0.00652766195902 0.231 1.170884219e-38
0.129554780064 -0.00649940368214 0.23 1.15244509303e-38
0.128153169531 -0.00638637057462 0.226 1.13400596706e-38
0.130717137186 -0.00647114540526 0.229 1.1063472781e-38
0.13100537161 -0.00644288712838 0.228 1.06961321977e-38
0.130707717761 -0.00638637057462 0.226 1.10649147171e-38
0.132723474845 -0.00644288712838 0.228 1.10641944497e-38
0.132410749914 -0.00638637057462 0.226 1.13407813393e-38
0.132082953902 -0.00632985402086 0.224 1.10641944497e-38
0.132926934438 -0.00632985402086 0.224 1.13400624732e-38
0.132576531805 -0.00627333746711 0.222 1.11556712135e-38
-0.0824124386895 -0.00337968991471 0.138 5.62393342166e-39
-0.0824859102094 -0.00340418042134 0.139 4.97856401262e-39
-0.0825518461888 -0.00342867092797 0.14 8.66638920715e-39
-0.0814384700797 -0.00340418042134 0.139 1.33683663302e-38
-0.0814968705186 -0.00342867092797 0.14 1.45669095184e-38
-0.081547735417 -0.0034531614346 0.141 1.44747138885e-38
-0.0804418948485 -0.00342867092797 0.14 1.39215401094e-38
-0.0810560413993 -0.00347765194122 0.142 1.087980319e-38
-0.0805210180237 -0.00347765194122 0.142 5.34806539818e-39
-0.0794227129957 -0.0034531614346 0.141 4.0573237775e-39
-0.0788914573904 -0.0034531614346 0.141 6.63880141367e-39
-0.0778044556731 -0.00342867092797 0.14 1.19861451432e-38
-0.077276967838 -0.00342867092797 0.14 1.44754271495e-38
-0.0778459011459 -0.00347765194122 0.142 1.50289582597e-38
-0.0794886489751 -0.00357561396774 0.146 1.49367626299e-38
-0.0789385545185 -0.00357561396774 0.146 1.45676227793e-38
-0.0767777382798 -0.00350214244785 0.143 1.45676255819e-38
-0.0757058076436 -0.00347765194122 0.142 1.45661906523e-38
-0.075170784268 -0.00347765194122 0.142 1.46583862822e-38
-0.0746357608924 -0.00347765194122 0.142 1.44739950224e-38
-0.0751444098763 -0.00352663295448 0.144 1.48431306691e-38
-0.0761560561885 -0.00360010447437 0.147 1.45679801104e-38
-0.0740592920441 -0.00352663295448 0.144 1.4475781678e-38
-0.0719851345212 -0.0034531614346 0.141 1.41084410946e-38
-0.0709471138172 -0.00342867092797 0.14 1.40162454648e-38
-0.0699166286537 -0.00340418042134 0.139 1.41999178584e-38
-0.0688936790306 -0.00337968991471 0.138 1.41999192597e-38
-0.0678782649481 -0.00335519940808 0.137 1.42910358897e-38
-0.0673620804238 -0.00335519940808 0.137 1.42910358897e-38
-0.0673338221469 -0.00337968991471 0.138 1.44747110859e-38
-0.0677821868067 -0.00342867092797 0.14 1.42903198262e-38
-0.0667743082647 -0.00340418042134 0.139 1.43832343222e-38
-0.0662505881999 -0.00340418042134 0.139 1.41066474326e-38
-0.0657268681351 -0.00340418042134 0.139 1.35534736534e-38
-0.0656722354665 -0.00342867092797 0.14 1.00493208525e-38
-0.0651447476314 -0.00342867092797 0.14 5.62393061907e-39
-0.0660019153634 -0.00350214244785 0.143 5.16259233604e-39
-0.0654631242176 -0.00350214244785 0.143 7.37528745276e-39
-0.0640163004414 -0.0034531614346 0.141 1.25382427251e-38
-0.0648357904708 -0.00352663295448 0.144 1.40140874651e-38
-0.0678650777523 -0.00372255700751 0.152 1.41984787249e-38
-0.065078811652 -0.00360010447437 0.147 1.37375019768e-38
-0.0623302232543 -0.00347765194122 0.142 1.0234068042e-38
-0.0609248449508 -0.00342867092797 0.14 5.07075683989e-39
-0.0599659474221 -0.00340418042134 0.139 4.14880054125e-39
-0.0628633627447 -0.00360010447437 0.147 5.5317377918e-39
-0.0635811229774 -0.00367357599425 0.15 1.06024974343e-38
-0.0613355319081 -0.00357561396774 0.146 1.39222533703e-38
-0.0578710671628 -0.00340418042134 0.139 1.410664463e-38
-0.0573473470979 -0.00340418042134 0.139 1.41988402599e-38
-0.0564148239609 -0.00337968991471 0.138 1.40144490001e-38
-0.0550848010625 -0.00333070890145 0.136 1.38300577404e-38
-0.0557761869035 -0.00340418042134 0.139 1.40144490001e-38
-0.0548549670772 -0.00337968991471 0.138 1.43832315196e-38
-0.0543350147827 -0.00337968991471 0.138 1.41988402599e-38
-0.0545949909299 -0.00342867092797 0.14 1.41988402599e-38
-0.0532951101935 -0.00337968991471 0.138 1.38300577404e-38
-0.0520103005381 -0.00333070890145 0.136 1.41988402599e-38
-0.0518765446942 -0.00335519940808 0.137 1.410664463e-38
-0.0517352533098 -0.00337968991471 0.138 1.40144490001e-38
-0.0512153010152 -0.00337968991471 0.138 1.42910358897e-38
-0.0506953487207 -0.00337968991471 0.138 1.42910358897e-38
-0.0498118065969 -0.00335519940808 0.137 1.42910358897e-38
-0.0492956220726 -0.00335519940808 0.137 1.41080781583e-38
-0.049135491837 -0.00337968991471 0.138 1.41080781583e-38
-0.0507292586529 -0.00352663295448 0.144 1.40158825285e-38
-0.0522778122259 -0.00367357599425 0.15 1.39233309688e-38
-0.0496441408208 -0.00352663295448 0.144 1.38311353389e-38
-0.0463737162433 -0.00333070890145 0.136 1.34623542208e-38
-0.0461985149267 -0.00335519940808 0.137 9.31355087693e-39
-0.0463492257367 -0.00340418042134 0.139 4.79596501363e-39
-0.0497816644349 -0.00369806650088 0.151 3.87221365166e-39
-0.0492127311271 -0.00369806650088 0.151 5.80832187879e-39
-0.04767736475 -0.00362459498099 0.148 1.12482199705e-38
-0.0442543454774 -0.00340418042134 0.139 1.40144490001e-38
-0.0434160165967 -0.00337968991471 0.138 1.410664463e-38
-0.0425852232564 -0.00335519940808 0.137 1.39226107014e-38
-0.0420690387321 -0.00335519940808 0.137 1.08808751833e-38
-0.0421594652181 -0.00340418042134 0.139 5.81011554083e-39
-0.0419352828882 -0.00342867092797 0.14 4.14880054125e-39
-0.0414077950531 -0.00342867092797 0.14 5.43953935934e-39
-0.0411723094125 -0.0034531614346 0.141 1.01415164824e-38
-0.0406410538072 -0.0034531614346 0.141 1.37378649132e-38
-0.0401097982018 -0.0034531614346 0.141 1.37378649132e-38
-0.0395785425965 -0.0034531614346 0.141 1.36456692833e-38
-0.0393242181046 -0.00347765194122 0.142 1.34623570234e-38
-0.038789194729 -0.00347765194122 0.142 1.32779657637e-38
-0.0379847757806 -0.0034531614346 0.141 1.31857701338e-38
-0.0374535201752 -0.0034531614346 0.141 1.35545526532e-38
-0.0371841246023 -0.00347765194122 0.142 1.33701613935e-38
-0.0366491012267 -0.00347765194122 0.142 1.33701585909e-38
-0.0361140778512 -0.00347765194122 0.142 1.33701585909e-38
-0.0360801679189 -0.00352663295448 0.144 1.32779615598e-38
-0.0355376090028 -0.00352663295448 0.144 1.33701571896e-38
-0.0345090077245 -0.00347765194122 0.142 1.34623528195e-38
-0.0339739843489 -0.00347765194122 0.142 1.3461275221e-38
-0.0341454178953 -0.00355112346111 0.145 1.37378621106e-38
-0.0345259626906 -0.00364908548762 0.149 1.36456664807e-38
-0.0373838164256 -0.00401644308705 0.164 1.35534708508e-38
-0.035644990455 -0.00389399055391 0.159 1.31846883314e-38
-0.0332825985079 -0.00369806650088 0.151 1.32768839612e-38
-0.0309804908849 -0.00350214244785 0.143 1.33690795911e-38
-0.0302288207199 -0.00347765194122 0.142 1.31846883314e-38
-0.0301120198421 -0.00352663295448 0.144 1.32768867638e-38
-0.0297748044047 -0.00355112346111 0.145 1.07876047575e-38
-0.0294300534268 -0.00357561396774 0.146 5.99343200463e-39
-0.0288799589702 -0.00357561396774 0.146 4.24171503723e-39
-0.0279417841778 -0.00352663295448 0.144 6.27001889422e-39
-0.0272089528641 -0.00350214244785 0.143 1.02344309783e-38
-0.0266701617183 -0.00350214244785 0.143 1.29081042444e-38
-0.0261313705724 -0.00350214244785 0.143 1.30002998742e-38
-0.0257715485135 -0.00352663295448 0.144 1.30013746702e-38
-0.0252289895974 -0.00352663295448 0.144 1.02344281757e-38
-0.0246864306814 -0.00352663295448 0.144 4.7941699503e-39
-0.0241438717653 -0.00352663295448 0.144 2.94954128951e-39
-0.0236013128492 -0.00352663295448 0.144 3.13393254924e-39
-0.0230587539331 -0.00352663295448 0.144 7.65223447606e-39
-0.0226725574825 -0.00355112346111 0.145 1.24471232925e-38
-0.0222788254913 -0.00357561396774 0.146 1.30935703e-38
-0.0217287310347 -0.00357561396774 0.146 1.29095349701e-38
-0.0211786365781 -0.00357561396774 0.146 1.30939262298e-38
-0.0206285421216 -0.00357561396774 0.146 1.25403979221e-38
-0.0206285421216 -0.00367357599425 0.15 1.18028356858e-38
-0.0204646441157 -0.00374704751414 0.153 1.18028356858e-38
-0.0202781394883 -0.00382051903402 0.156 1.27247891819e-38
-0.019942807936 -0.00386950004728 0.158 1.32783174896e-38
-0.0192250477032 -0.00384500954065 0.157 1.29095349701e-38
-0.0181587687224 -0.00374704751414 0.153 1.27251437104e-38
-0.0173524658887 -0.00369806650088 0.151 1.26329480805e-38
-0.0170058310257 -0.00374704751414 0.153 1.26329480805e-38
-0.0167515065338 -0.00382051903402 0.156 1.26329480805e-38
-0.0166818027842 -0.00394297156716 0.161 1.30017306e-38
-0.0160751917738 -0.00394297156716 0.161 1.28173393402e-38
-0.0148921119152 -0.00379602852739 0.155 1.27251437104e-38
-0.0138465556706 -0.00367357599425 0.15 1.26329480805e-38
-0.0131043049313 -0.00362459498099 0.148 1.27237101821e-38
-0.0125466749342 -0.00362459498099 0.148 1.26315145522e-38
-0.0120700519975 -0.00364908548762 0.149 1.30924927015e-38
-0.0115858935203 -0.00367357599425 0.15 1.28159058119e-38
-0.0110941995026 -0.00369806650088 0.151 1.18017538834e-38
-0.0105252661948 -0.00369806650088 0.151 9.5890587667e-39
-0.00995633288698 -0.00369806650088 0.151 9.5890587667e-39
-0.00944956778829 -0.00372255700751 0.152 1.06032106952e-38
-0.00893526714909 -0.00374704751414 0.153 1.22638096313e-38
-0.0084134309694 -0.00377153802076 0.154 1.26325921507e-38
-0.00783319435082 -0.00377153802076 0.154 1.28169848117e-38
-0.00730005486037 -0.00379602852739 0.155 1.21705392055e-38
-0.00675937982942 -0.00382051903402 0.156 6.08563043709e-39
-0.00621116925797 -0.00384500954065 0.157 2.85806732836e-39
-0.00565542314602 -0.00386950004728 0.158 2.85806732836e-39
-0.0051241675407 -0.00391848106053 0.16 3.04210265828e-39
-0.00452132430062 -0.00391848106053 0.16 1.07886795534e-38
-0.00394297156716 -0.00394297156716 0.161 1.27247877806e-38
-0.00331563782045 -0.00391848106053 0.16 1.29091790403e-38
-0.00266192968199 -0.00384500954065 0.157 1.29091790403e-38
-0.00208357694853 -0.00386950004728 0.158 1.18028314819e-38
-0.00151652752583 -0.00394297156716 0.161 8.02281065755e-39
-0.000932523137002 -0.00404093359368 0.165 7.28524561864e-39
-0.000320260471294 -0.00416338612682 0.17 8.29939754714e-39
0.000308957160542 -0.00401644308705 0.164 1.24482022923e-38
0.000892961549372 -0.00386950004728 0.158 1.28169848117e-38
0.00147884982333 -0.00384500954065 0.157 1.29091804416e-38
0.00207038975266 -0.00384500954065 0.157 1.29091804416e-38
0.00269583961424 -0.00389399055391 0.159 1.31857673312e-38
0.00331563782045 -0.00391848106053 0.16 1.31857673312e-38
0.00394297156716 -0.00394297156716 0.161 1.30013760715e-38
0.00446480774686 -0.00386950004728 0.158 1.30013760715e-38
0.00502808939931 -0.00384500954065 0.157 1.24492756869e-38
0.00561962932864 -0.00384500954065 0.157 1.27258625765e-38
0.00621116925797 -0.00384500954065 0.157 1.27258625765e-38
0.00684603854518 -0.00386950004728 0.158 1.28180582064e-38
0.0074884433729 -0.00389399055391 0.159 1.29102538362e-38
0.00813838374111 -0.00391848106053 0.16 1.3094645096e-38
0.00868659431256 -0.00389399055391 0.159 1.30024494661e-38
0.00928566978239 -0.00389399055391 0.159 1.2357080057e-38
0.00994691346136 -0.00391848106053 0.16 1.18950285131e-38
0.0105497567014 -0.00391848106053 0.16 1.23560066624e-38
0.0112223036912 -0.00394297156716 0.161 1.27247891819e-38
0.0118289147015 -0.00394297156716 0.161 1.25403979221e-38
0.0124355257118 -0.00394297156716 0.161 1.28169848117e-38
0.0130421367222 -0.00394297156716 0.161 1.28169848117e-38
0.0136487477325 -0.00394297156716 0.161 9.31355087693e-39
0.0143439013437 -0.00396746207379 0.162 4.33498686431e-39
0.0151389008666 -0.00401644308705 0.164 3.96512814764e-39
0.0161411277532 -0.00411440511356 0.168 6.17782326436e-39
0.0167741131553 -0.00411440511356 0.168 1.13407785367e-38
0.0170962575117 -0.00404093359368 0.165 1.30924955041e-38
0.0176105581509 -0.00401644308705 0.164 1.26315173548e-38
0.0185619201392 -0.00408991460693 0.167 1.26315173548e-38
0.0199955567195 -0.00426134815333 0.174 7.65295334217e-39
0.0211258877946 -0.00435931017984 0.178 3.31975873859e-39
0.0211842882335 -0.0042368576467 0.173 2.3063326827e-39
0.0212050109699 -0.00411440511356 0.168 4.88780751628e-39
0.0211880560038 -0.00399195258042 0.163 1.11574662768e-38
0.0215346908668 -0.00394297156716 0.161 1.25403965208e-38
0.0221413018771 -0.00394297156716 0.161 1.23560052611e-38
0.0227479128875 -0.00394297156716 0.161 1.28169834104e-38
0.0233545238978 -0.00394297156716 0.161 1.24482022923e-38
0.0239611349081 -0.00394297156716 0.161 1.16184444261e-38
0.0247203406136 -0.00396746207379 0.162 1.16184416235e-38
0.0253307193942 -0.00396746207379 0.162 1.20794197728e-38
0.0256208377035 -0.00391848106053 0.16 1.24485568208e-38
0.0262236809436 -0.00391848106053 0.16 1.22641655611e-38
0.027161855736 -0.00396746207379 0.162 1.21719699312e-38
0.0282865351557 -0.00404093359368 0.165 1.21719699312e-38
0.0289082172471 -0.00404093359368 0.165 1.21716154027e-38
0.0297088684253 -0.0040654241003 0.166 1.22638110326e-38
0.0303343182869 -0.0040654241003 0.166 1.21723342688e-38
0.0311462727759 -0.00408991460693 0.167 1.21723342688e-38
0.0325365799983 -0.00418787663345 0.171 1.23567255285e-38
0.0331808687112 -0.00418787663345 0.171 1.22645298987e-38
0.033825157424 -0.00418787663345 0.171 1.19879430091e-38
0.0344694461368 -0.00418787663345 0.171 1.18957473792e-38
0.0353190783283 -0.00421236714007 0.172 1.18957473792e-38
0.0365944685581 -0.00428583865996 0.175 1.14347692299e-38
0.0395954975627 -0.00455523423287 0.186 1.00500397186e-38
0.0394297156716 -0.00445727220636 0.182 9.22027904985e-39
0.0381317188203 -0.0042368576467 0.173 9.86564845889e-39
0.0381109960839 -0.00416338612682 0.17 1.17095610562e-38
0.0385235669264 -0.00413889562019 0.169 1.21705392055e-38
0.0396237558395 -0.00418787663345 0.171 1.23549304652e-38
0.040503530193 -0.00421236714007 0.172 1.18939523159e-38
0.0406730798543 -0.00416338612682 0.17 7.09977956299e-39
0.0410705796157 -0.00413889562019 0.169 3.31832941416e-39
0.0417073327881 -0.00413889562019 0.169 2.48928480891e-39
0.0420935292387 -0.00411440511356 0.168 4.24136191002e-39
0.0427265146408 -0.00411440511356 0.168 9.86709039501e-39
0.0431014077808 -0.00408991460693 0.167 1.16188045598e-38
0.043992485445 -0.00411440511356 0.168 1.18035517494e-38
0.0451567264524 -0.00416338612682 0.17 1.13418533326e-38
0.045797247395 -0.00416338612682 0.17 8.29867727973e-39
0.0464377683376 -0.00416338612682 0.17 5.25586976832e-39
0.0468013581668 -0.00413889562019 0.169 4.61050035928e-39
0.0474381113391 -0.00413889562019 0.169 7.8373446019e-39
0.0477903978575 -0.00411440511356 0.168 1.17095610562e-38
0.0489998521079 -0.00416338612682 0.17 1.25393189223e-38
0.0499323752449 -0.00418787663345 0.171 1.18939495133e-38
0.0508724339224 -0.00421236714007 0.172 1.19861451432e-38
0.0530181790801 -0.00433481967322 0.177 1.18021112145e-38
0.0564148239609 -0.00455523423287 0.186 1.14340503638e-38
0.0558873361259 -0.00445727220636 0.182 1.15262459937e-38
0.0550188650831 -0.00433481967322 0.177 1.1987224143e-38
0.0547419339697 -0.00426134815333 0.174 1.16184416235e-38
0.0557159025795 -0.00428583865996 0.175 1.18028328832e-38
0.0579859841554 -0.0044082911931 0.18 1.18950285131e-38
0.0593160070538 -0.00445727220636 0.182 1.18950285131e-38
0.0580236618579 -0.00431032916659 0.176 1.17106372534e-38
0.0580198940877 -0.00426134815333 0.174 1.15262487962e-38
0.0583382706738 -0.0042368576467 0.173 1.1710640056e-38
0.0593310781348 -0.00426134815333 0.174 1.15262487962e-38
0.0599866701584 -0.00426134815333 0.174 1.16184444261e-38
0.060642262182 -0.00426134815333 0.174 1.14340531664e-38
0.0612978542056 -0.00426134815333 0.174 1.1710640056e-38
0.0626655548065 -0.00431032916659 0.176 1.1710640056e-38
0.0636885044296 -0.00433481967322 0.177 1.11574662768e-38
0.0639918099347 -0.00431032916659 0.176 7.92954023176e-39
0.0650222950982 -0.00433481967322 0.177 5.62464948518e-39
0.0653180650629 -0.00431032916659 0.176 6.54660578381e-39
0.0667309789069 -0.00435931017984 0.178 8.85149653039e-39
0.0666443201911 -0.00431032916659 0.176 1.15251697964e-38
0.0676898764356 -0.00433481967322 0.177 1.1801756686e-38
0.0679705753193 -0.00431032916659 0.176 1.14329741666e-38
0.0686337028834 -0.00431032916659 0.176 7.74514897203e-39
0.0696905624386 -0.00433481967322 0.177 3.31976154119e-39
0.0707549575344 -0.00435931017984 0.178 3.41195717106e-39
0.0718268881707 -0.00438380068647 0.179 4.24171783983e-39
0.0720962837436 -0.00435931017984 0.178 9.40467311217e-39
0.0731757499204 -0.00438380068647 0.179 1.14329769692e-38
0.0738501807952 -0.00438380068647 0.179 1.17095638588e-38
0.07452461167 -0.00438380068647 0.179 1.12485857094e-38
0.074358829779 -0.00433481967322 0.177 9.5890643719e-39
0.0746018509602 -0.00431032916659 0.176 8.48271401094e-39
0.0761202623711 -0.00435931017984 0.178 8.5749096408e-39
0.0776537448631 -0.0044082911931 0.18 1.07876047575e-38
0.0783319435082 -0.0044082911931 0.18 1.14329741666e-38
0.0790101421533 -0.0044082911931 0.18 1.1801756686e-38
0.0796883407984 -0.0044082911931 0.18 1.1801756686e-38
0.0803665394435 -0.0044082911931 0.18 1.1801756686e-38
0.0805944895436 -0.00438380068647 0.179 1.1801756686e-38
0.0812689204185 -0.00438380068647 0.179 1.17095610562e-38
0.0828589194642 -0.00443278169973 0.181 1.16173654263e-38
0.0840024377352 -0.00445727220636 0.182 1.17095610562e-38
0.0842228522949 -0.00443278169973 0.181 1.15251697964e-38
0.0853739061064 -0.00445727220636 0.182 1.16173654263e-38
0.0855867851256 -0.00443278169973 0.181 1.16173654263e-38
0.0862687515409 -0.00443278169973 0.181 1.1801756686e-38
0.0879114993701 -0.00448176271299 0.183 1.15251697964e-38
0.088601001326 -0.00448176271299 0.183 1.10634755836e-38
0.0888025770344 -0.00445727220636 0.182 9.86493239538e-39
0.0904716992553 -0.00450625321961 0.184 9.95712802524e-39
0.0911649689814 -0.00450625321961 0.184 1.11556712135e-38
0.0938551569403 -0.00460421524613 0.188 1.14322581031e-38
0.0955694924043 -0.00465319625938 0.19 1.14322581031e-38
0.0962853687519 -0.00465319625938 0.19 1.0786888694e-38
0.0964907122305 -0.00462870575276 0.189 7.65223727866e-39
0.100288624643 -0.00477564879253 0.195 3.41052224143e-39
0.10257754507 -0.00484912031241 0.198 3.77930476088e-39
0.107498253017 -0.00504504436544 0.206 6.36221452408e-39
0.113530453188 -0.00528994943172 0.216 1.01422353485e-38
0.120167380485 -0.00555934500463 0.227 1.15251697964e-38
0.122622082803 -0.00563281652452 0.23 1.13407785367e-38
0.124562484482 -0.00568179753778 0.232 8.94226003323e-39
0.127599307304 -0.00577975956429 0.236 5.9919998776e-39
0.127944058282 -0.00575526905766 0.235 4.88636558016e-39
0.128829484291 -0.00575526905766 0.235 6.73027817743e-39
0.128610953616 -0.0057062880444 0.233 1.0418103372e-38
0.130600336308 -0.00575526905766 0.235 1.12478640407e-38
0.129247706789 -0.00565730703115 0.231 1.07868858914e-38
0.127864935107 -0.00555934500463 0.227 1.11556684109e-38
0.131555466067 -0.00568179753778 0.232 1.08790815213e-38
0.131287954379 -0.00563281652452 0.23 1.08790815213e-38
0.131579956574 -0.00560832601789 0.229 1.05117409379e-38
0.132442775961 -0.00560832601789 0.229 1.12493059768e-38
0.134469836356 -0.00565730703115 0.231 1.12485857094e-38
0.133582526462 -0.00558383551126 0.228 1.11563900796e-38
0.131493297858 -0.00546138297812 0.223 1.12485857094e-38
0.132333510624 -0.00546138297812 0.223 1.13400624732e-38
0.13317372339 -0.00546138297812 0.223 1.11556712135e-38
-0.0836068218589 -0.0029011830929 0.14 1.29073853783e-38
-0.0836727578383 -0.00292190582927 0.141 1.21698203394e-38
-0.0855001264098 -0.00300479677478 0.145 1.29073853783e-38
-0.0837820231756 -0.00296335130203 0.143 1.41059285665e-38
-0.082661111526 -0.00294262856565 0.142 1.47512979755e-38
-0.0821260881505 -0.00294262856565 0.142 1.46591023457e-38
-0.0810164798117 -0.00292190582927 0.141 1.41981241964e-38
-0.0804852242064 -0.00292190582927 0.141 1.06032163004e-38
-0.0793869191783 -0.0029011830929 0.14 5.8090435475e-39
-0.0794227129957 -0.00292190582927 0.141 4.61049755668e-39
-0.0783319435082 -0.0029011830929 0.14 5.44025822545e-39
-0.0778044556731 -0.0029011830929 0.14 9.77345002643e-39
-0.077276967838 -0.0029011830929 0.14 1.35534708508e-38
-0.0772976905744 -0.00292190582927 0.141 1.49367626299e-38
-0.0773108777703 -0.00294262856565 0.142 1.4844567e-38
-0.0762351793638 -0.00292190582927 0.141 1.42910358897e-38
-0.0757039237585 -0.00292190582927 0.141 1.16173654263e-38
-0.0751726681531 -0.00292190582927 0.141 8.66567034104e-39
-0.0741120408276 -0.0029011830929 0.14 9.03445286049e-39
-0.0735845529925 -0.0029011830929 0.14 1.18925173863e-38
-0.0746225736966 -0.00296335130203 0.143 1.41055656302e-38
-0.0761560561885 -0.00304624224754 0.147 1.4844567e-38
-0.0756021939617 -0.00304624224754 0.147 1.47523685676e-38
-0.073516733128 -0.00298407403841 0.144 1.4569419244e-38
-0.0724674091133 -0.00296335130203 0.143 1.42006367245e-38
-0.071425620639 -0.00294262856565 0.142 1.38311353389e-38
-0.0713898268216 -0.00296335130203 0.143 1.39233323701e-38
-0.0723374210396 -0.00302551951116 0.146 1.41988402599e-38
-0.0708039385477 -0.00298407403841 0.144 1.40144490001e-38
-0.0687976008893 -0.00292190582927 0.141 1.41059285665e-38
-0.0677821868067 -0.0029011830929 0.14 1.45669067158e-38
-0.0667743082647 -0.00288046035652 0.139 1.43832343222e-38
-0.0657739652632 -0.00285973762014 0.138 1.42910386923e-38
-0.0652540129687 -0.00285973762014 0.138 1.45676255819e-38
-0.0652031480703 -0.00288046035652 0.139 1.40137329366e-38
-0.0651447476314 -0.0029011830929 0.14 1.29073853783e-38
-0.0660019153634 -0.00296335130203 0.143 1.2630438355e-38
-0.0650053401321 -0.00294262856565 0.142 1.29992208744e-38
-0.063108267811 -0.00288046035652 0.139 1.42899596925e-38
-0.063935293381 -0.00294262856565 0.142 1.42906743547e-38
-0.0642932315548 -0.00298407403841 0.144 1.40140874651e-38
-0.0628652466298 -0.00294262856565 0.142 1.40140888664e-38
-0.0618912780201 -0.00292190582927 0.141 1.06028505615e-38
-0.0617951998787 -0.00294262856565 0.142 4.70197432043e-39
-0.0599659474221 -0.00288046035652 0.139 4.24099617112e-39
-0.0624357208213 -0.00302551951116 0.146 4.33319460358e-39
-0.0657004937433 -0.00321202413856 0.155 8.38980231756e-39
-0.0646963829716 -0.00319130140219 0.154 1.39215373068e-38
-0.0599527602262 -0.00298407403841 0.144 1.42903198262e-38
-0.0581724887828 -0.00292190582927 0.141 1.42903198262e-38
-0.0572324301053 -0.0029011830929 0.14 1.35527547873e-38
-0.0575150128741 -0.00294262856565 0.142 1.18010378199e-38
-0.0585850596252 -0.00302551951116 0.146 9.12736455387e-39
-0.0588299646915 -0.00306696498392 0.148 9.77273396292e-39
-0.0566974067297 -0.00298407403841 0.144 1.18010378199e-38
-0.0549849551509 -0.00292190582927 0.141 1.38300577404e-38
-0.0532951101935 -0.00285973762014 0.138 1.410664463e-38
-0.0516278718577 -0.00279756941101 0.135 1.42910358897e-38
-0.0518765446942 -0.00283901488376 0.137 1.40144490001e-38
-0.0517352533098 -0.00285973762014 0.138 1.38300577404e-38
-0.0519575517546 -0.0029011830929 0.14 1.410664463e-38
-0.0510627063201 -0.00288046035652 0.139 1.40144490001e-38
-0.0498118065969 -0.00283901488376 0.137 1.40144490001e-38
-0.0492956220726 -0.00283901488376 0.137 1.40158825285e-38
-0.0487794375483 -0.00283901488376 0.137 1.39236868986e-38
-0.0489678260608 -0.00288046035652 0.139 1.40158825285e-38
-0.048444105996 -0.00288046035652 0.139 1.41999178584e-38
-0.0482651369091 -0.0029011830929 0.14 1.39233309688e-38
-0.046714699451 -0.00283901488376 0.137 1.4015528e-38
-0.0465357303641 -0.00285973762014 0.138 1.32779629611e-38
-0.0466826734039 -0.0029011830929 0.14 1.12496591041e-38
-0.0487926247442 -0.00306696498392 0.148 1.02355057743e-38
-0.0501904675071 -0.00319130140219 0.154 1.13418533326e-38
-0.0486437978193 -0.00312913319305 0.151 1.33701585909e-38
-0.0448910986497 -0.00292190582927 0.141 1.39233323701e-38
-0.0440452342285 -0.0029011830929 0.14 1.37389411104e-38
-0.0425852232564 -0.00283901488376 0.137 1.37389411104e-38
-0.0439114783846 -0.00296335130203 0.143 1.07876019549e-38
-0.0457991312801 -0.00312913319305 0.151 4.61049475408e-39
-0.0455297357072 -0.00314985592943 0.152 4.14880054125e-39
-0.0428866448765 -0.00300479677478 0.145 2.95025735303e-39
-0.0417563138013 -0.00296335130203 0.143 6.91466943715e-39
-0.0406410538072 -0.00292190582927 0.141 1.27237129847e-38
-0.0398253315479 -0.0029011830929 0.14 1.36456692833e-38
-0.0392978437129 -0.0029011830929 0.14 1.35534736534e-38
-0.0393242181046 -0.00294262856565 0.142 1.30013788741e-38
-0.038789194729 -0.00294262856565 0.142 1.10652706469e-38
-0.0382541713535 -0.00294262856565 0.142 9.22028185244e-39
-0.0374535201752 -0.00292190582927 0.141 8.94369496285e-39
-0.0366604045375 -0.0029011830929 0.14 1.10641916471e-38
-0.0361329167024 -0.0029011830929 0.14 1.30924955041e-38
-0.0356054288674 -0.0029011830929 0.14 1.35534736534e-38
-0.0350779410323 -0.0029011830929 0.14 1.3461275221e-38
-0.0350440311 -0.00294262856565 0.142 1.3461275221e-38
-0.0345090077245 -0.00294262856565 0.142 1.3461275221e-38
-0.0344524911707 -0.00298407403841 0.144 1.31846883314e-38
-0.0339099322546 -0.00298407403841 0.144 1.30924927015e-38
-0.0338308090794 -0.00302551951116 0.146 1.31846883314e-38
-0.0337366148231 -0.00306696498392 0.148 1.33690795911e-38
-0.0329548024961 -0.00304624224754 0.147 1.33690795911e-38
-0.0324009402693 -0.00304624224754 0.147 1.32768839612e-38
-0.0309804908849 -0.00296335130203 0.143 1.32768839612e-38
-0.030441699739 -0.00296335130203 0.143 1.32768839612e-38
-0.0313666873355 -0.00310841045667 0.15 1.3184691134e-38
-0.0328549565845 -0.00331563782045 0.16 1.34612780236e-38
-0.0326552647612 -0.00335708329321 0.162 1.23549304652e-38
-0.0308580383517 -0.00323274687494 0.156 1.13407785367e-38
-0.0287179448494 -0.00306696498392 0.148 1.19861479457e-38
-0.0275894976594 -0.00300479677478 0.145 1.29081042444e-38
-0.0268566663457 -0.00298407403841 0.144 1.32768867638e-38
-0.0264968442867 -0.00300479677478 0.145 1.30924955041e-38
-0.0261294866873 -0.00302551951116 0.146 1.30013746702e-38
-0.0254041909141 -0.00300479677478 0.145 1.04188194355e-38
-0.0246864306814 -0.00298407403841 0.144 5.43953935934e-39
-0.0241438717653 -0.00298407403841 0.144 3.41051943883e-39
-0.0236013128492 -0.00298407403841 0.144 2.21197625061e-39
-0.0230587539331 -0.00298407403841 0.144 6.82247380729e-39
-0.0226725574825 -0.00300479677478 0.145 1.21705364029e-38
-0.0222788254913 -0.00302551951116 0.146 1.30935703e-38
-0.0217287310347 -0.00302551951116 0.146 1.30006544028e-38
-0.0211786365781 -0.00302551951116 0.146 1.20786981041e-38
-0.0206285421216 -0.00302551951116 0.146 7.92954023176e-39
-0.0202159712791 -0.00304624224754 0.147 4.88708444627e-39
-0.0197958648962 -0.00306696498392 0.148 5.25586696572e-39
-0.0193682229728 -0.0030876877203 0.149 7.8373446019e-39
-0.0189330455088 -0.00310841045667 0.15 1.20786981041e-38
-0.0183678799713 -0.00310841045667 0.15 1.30006544028e-38
-0.0178027144337 -0.00310841045667 0.15 1.25403965208e-38
-0.0173524658887 -0.00312913319305 0.151 1.28169834104e-38
-0.0171169802481 -0.00319130140219 0.154 1.30013746702e-38
-0.0169662694381 -0.0032741923477 0.158 1.29091790403e-38
-0.0166818027842 -0.00333636055683 0.161 1.25403965208e-38
-0.0161750376855 -0.00335708329321 0.162 1.26325921507e-38
-0.0150842681979 -0.00325346961132 0.157 1.27247877806e-38
-0.0141234867841 -0.00317057866581 0.153 1.27247877806e-38
-0.0136355605366 -0.00319130140219 0.154 1.30002970716e-38
-0.0133096484099 -0.00325346961132 0.157 1.28159058119e-38
-0.0131231437825 -0.00335708329321 0.162 1.29081014418e-38
-0.0126672435822 -0.00339852876596 0.164 1.29081014418e-38
-0.0116085001418 -0.0032741923477 0.158 1.33690795911e-38
-0.0106646736941 -0.00317057866581 0.153 1.30002970716e-38
-0.0100222688664 -0.00314985592943 0.152 1.30002970716e-38
-0.00944956778829 -0.00314985592943 0.152 1.29081014418e-38
-0.00887686671021 -0.00314985592943 0.152 1.27258625765e-38
-0.00835879830077 -0.00317057866581 0.153 1.25414713168e-38
-0.00778232945244 -0.00317057866581 0.153 1.30013746702e-38
-0.00720586060411 -0.00317057866581 0.153 1.25403979221e-38
-0.00667272111366 -0.00319130140219 0.154 9.86672745871e-39
-0.00613204608271 -0.00321202413856 0.155 5.99343480723e-39
-0.00558383551126 -0.00323274687494 0.156 4.794891619e-39
-0.00502808939931 -0.00325346961132 0.157 7.19162206564e-39
-0.00446480774686 -0.0032741923477 0.158 1.19861451432e-38
-0.00389399055391 -0.00329491508407 0.159 1.30924927015e-38
-0.00331563782045 -0.00331563782045 0.16 1.30002970716e-38
-0.00271279458037 -0.00331563782045 0.16 1.23549276626e-38
-0.00212313853616 -0.00333636055683 0.161 7.46855927985e-39
-0.00152594695146 -0.00335708329321 0.162 2.85877778668e-39
-0.000926871481626 -0.00339852876596 0.164 2.67438652695e-39
-0.000310841045667 -0.00341925150234 0.165 2.85877778668e-39
0.000303305505166 -0.00333636055683 0.161 1.09730722145e-38
0.000887309893996 -0.00325346961132 0.157 1.30935717013e-38
0.00149768867458 -0.00329491508407 0.159 1.27247891819e-38
0.00217588731967 -0.00341925150234 0.165 1.29091804416e-38
0.0029162541739 -0.00356431065699 0.172 1.29091804416e-38
0.0036472016025 -0.0036472016025 0.176 1.14340503638e-38
0.00416338612682 -0.00352286518423 0.17 1.08808765846e-38
0.00457784085437 -0.00335708329321 0.162 1.1987224143e-38
0.00509214149357 -0.00329491508407 0.159 1.25414713168e-38
0.0056912169634 -0.00329491508407 0.159 1.29102538362e-38
0.00632985402086 -0.00331563782045 0.16 1.28180582064e-38
0.00697602661883 -0.00333636055683 0.161 1.26336669466e-38
0.00758263762916 -0.00333636055683 0.161 1.26336669466e-38
0.00818924863949 -0.00333636055683 0.161 1.27258625765e-38
0.00868659431256 -0.00329491508407 0.159 1.26336669466e-38
0.00922726934351 -0.0032741923477 0.158 1.22648844272e-38
0.00982257704309 -0.0032741923477 0.158 1.25403979221e-38
0.0104838207221 -0.00329491508407 0.159 1.25403979221e-38
0.0111525999415 -0.00331563782045 0.16 1.2632593552e-38
0.0117554431816 -0.00331563782045 0.16 1.28169848117e-38
0.0123582864217 -0.00331563782045 0.16 1.30013760715e-38
0.0130421367222 -0.00333636055683 0.161 1.27247891819e-38
0.0136487477325 -0.00333636055683 0.161 1.25403979221e-38
0.0142553587428 -0.00333636055683 0.161 1.11574634742e-38
0.0149542801243 -0.00335708329321 0.162 1.09719960173e-38
0.0155646589049 -0.00335708329321 0.162 1.21705392055e-38
0.0161750376855 -0.00335708329321 0.162 1.29081042444e-38
0.0168890301479 -0.00337780602959 0.163 1.29081042444e-38
0.0176105581509 -0.00339852876596 0.164 1.27237129847e-38
0.0186730693615 -0.00348141971147 0.168 1.23549304652e-38
0.0197657227342 -0.00356431065699 0.172 6.17782326436e-39
0.0206511487431 -0.00360575612974 0.174 2.48999806982e-39
0.0209393831672 -0.00354358792061 0.171 2.85878339188e-39
0.0209525703631 -0.00343997423872 0.166 4.51830192682e-39
0.0215780202247 -0.00343997423872 0.166 1.07876019549e-38
