VERSION .7
FIELDS x y z rgb
SIZE 4 4 4 4
TYPE F F F F
COUNT 1 1 1 1
WIDTH 836
HEIGHT 1
VIEWPOINT 0 0 0 1 0 0 0
POINTS 836
DATA ascii
-0.033825157424 -0.0531538188091 0.135 1.21705392055e-38
-0.0330697194888 -0.0527600868179 0.134 1.22627348353e-38
-0.032321817094 -0.0523663548268 0.133 1.08798003874e-38
-0.031102943418 -0.0511851588532 0.13 8.75678977368e-39
-0.0306131332854 -0.0511851588532 0.13 7.00507560888e-39
-0.0303550410233 -0.0515788908444 0.131 7.19054586842e-39
-0.0298614631204 -0.0515788908444 0.131 8.57384045008e-39
-0.0295920675475 -0.0519726228356 0.132 1.04181089772e-38
-0.0299763801131 -0.0535475508003 0.136 1.20783463782e-38
-0.0301139037272 -0.0547287467738 0.139 1.21705392055e-38
-0.0293773046433 -0.0543350147827 0.138 1.23560066624e-38
-0.0284391298509 -0.0535475508003 0.136 1.23560066624e-38
-0.0273106826609 -0.0523663548268 0.133 1.25393189223e-38
-0.0270111449259 -0.0527600868179 0.134 1.25393189223e-38
-0.0263084557742 -0.0523663548268 0.133 1.25386028588e-38
-0.025613302163 -0.0519726228356 0.132 1.14315392369e-38
-0.0251159564899 -0.0519726228356 0.132 9.49543381241e-39
-0.0244321061895 -0.0515788908444 0.131 5.62213835833e-39
-0.0239385282866 -0.0515788908444 0.131 3.96261702079e-39
-0.0241608267314 -0.0531538188091 0.135 3.77822996496e-39
-0.0240025803809 -0.0539412827915 0.137 5.53102453088e-39
-0.0229720952174 -0.0527600868179 0.134 9.68054113565e-39
-0.0217965508992 -0.0511851588532 0.13 1.1801756686e-38
-0.0213067407667 -0.0511851588532 0.13 1.25393189223e-38
-0.0209770608697 -0.0515788908444 0.131 1.26315145522e-38
-0.0204834829669 -0.0515788908444 0.131 1.26315173548e-38
-0.0199899050641 -0.0515788908444 0.131 1.27229941185e-38
-0.0196451540862 -0.0519726228356 0.132 1.28159086145e-38
-0.0190027492585 -0.0515788908444 0.131 1.27237129847e-38
-0.0185091713556 -0.0515788908444 0.131 1.26315173548e-38
-0.0182906406811 -0.0523663548268 0.133 1.16173654263e-38
-0.0177895272378 -0.0523663548268 0.133 1.06032134978e-38
-0.0171584257208 -0.0519726228356 0.132 9.22027904985e-39
-0.0167873003512 -0.0523663548268 0.133 9.31247467971e-39
-0.016408639441 -0.0527600868179 0.134 1.03266266082e-38
-0.0161411277532 -0.0535475508003 0.136 1.23549304652e-38
-0.0153988770139 -0.0527600868179 0.134 1.28159086145e-38
-0.0147828465779 -0.0523663548268 0.133 1.30002998742e-38
-0.0140669702303 -0.0515788908444 0.131 1.30002998742e-38
-0.0135733923275 -0.0515788908444 0.131 1.33690823937e-38
-0.0130798144247 -0.0515788908444 0.131 1.26307984887e-38
-0.0126823146632 -0.0519726228356 0.132 1.2446407229e-38
-0.0122772793613 -0.0523663548268 0.133 1.27229941185e-38
-0.0116876233171 -0.0519726228356 0.132 1.22634579053e-38
-0.0112750524747 -0.0523663548268 0.133 1.26325963546e-38
-0.0112599813937 -0.0547287467738 0.139 1.24482050949e-38
-0.0111996970697 -0.0570911387209 0.145 1.27247891819e-38
-0.0105064273436 -0.0563036747386 0.143 1.28169848117e-38
-0.00975852494883 -0.055122478765 0.14 1.28169876143e-38
-0.00896729319622 -0.0535475508003 0.136 1.28169876143e-38
-0.00839270823302 -0.0531538188091 0.135 1.28166316845e-38
-0.00782565881032 -0.0527600868179 0.134 1.26325921507e-38
-0.00732077759675 -0.0527600868179 0.134 1.1801756686e-38
-0.00681589638318 -0.0527600868179 0.134 8.85006160077e-39
-0.00626391804148 -0.0523663548268 0.133 6.72848871929e-39
-0.00584946331392 -0.0531538188091 0.135 6.35970619983e-39
-0.00553862226826 -0.055122478765 0.14 7.37493432555e-39
-0.00511851588532 -0.0563036747386 0.143 1.00500425212e-38
-0.0045797247395 -0.0563036747386 0.143 1.21716182053e-38
-0.00392790048616 -0.0547287467738 0.139 1.28159058119e-38
-0.00333070890145 -0.0535475508003 0.136 1.30002970716e-38
-0.00281829214738 -0.0535475508003 0.136 1.31846883314e-38
-0.00232283035944 -0.0539412827915 0.137 1.30924927015e-38
-0.00178027144337 -0.0531538188091 0.135 1.30924927015e-38
-0.00126220303392 -0.0527600868179 0.134 1.30002970716e-38
-0.000751670164978 -0.0523663548268 0.133 1.29081014418e-38
-0.00025432449191 -0.0531538188091 0.135 1.15251669938e-38
0.00025809226216 -0.0539412827915 0.137 8.02101699551e-39
0.000774276786481 -0.0539412827915 0.137 4.97928007613e-39
0.0012904613108 -0.0539412827915 0.137 4.33391066709e-39
0.00179345863924 -0.0535475508003 0.136 4.42610629695e-39
0.00228892042719 -0.0531538188091 0.135 7.83842360172e-39
0.00281829214738 -0.0535475508003 0.136 1.13418575365e-38
0.00333070890145 -0.0535475508003 0.136 1.25404007247e-38
0.00384312565552 -0.0535475508003 0.136 1.2817347748e-38
0.00435554240959 -0.0535475508003 0.136 1.3184691134e-38
0.00486795916366 -0.0535475508003 0.136 1.29081042444e-38
0.00538037591773 -0.0535475508003 0.136 1.30002998742e-38
0.0058927926718 -0.0535475508003 0.136 1.30002998742e-38
0.00635811229774 -0.0531538188091 0.135 1.29081042444e-38
0.00686676128156 -0.0531538188091 0.135 1.27237129847e-38
0.00748467560265 -0.0539412827915 0.137 1.20783435756e-38
0.00805926056585 -0.0543350147827 0.138 1.09719960173e-38
0.00864138106955 -0.0547287467738 0.139 1.03284216715e-38
0.00936290907253 -0.0559099427474 0.142 1.05128129313e-38
0.00982822869847 -0.0555162107562 0.141 1.13418547339e-38
0.0101390697441 -0.0543350147827 0.138 1.23560066624e-38
0.0105817827486 -0.0539412827915 0.137 1.29081042444e-38
0.0110169602125 -0.0535475508003 0.136 1.30002998742e-38
0.0115293769666 -0.0535475508003 0.136 1.29995810081e-38
0.0121303363215 -0.0539412827915 0.137 1.25386028588e-38
0.0126465208459 -0.0539412827915 0.137 1.19854318822e-38
0.0132587835116 -0.0543350147827 0.138 1.19861507483e-38
0.0139784276294 -0.055122478765 0.14 1.2356009465e-38
0.014920370192 -0.0566974067297 0.144 1.26333124181e-38
0.0155703105602 -0.0570911387209 0.145 1.24489211584e-38
0.0160054880242 -0.0566974067297 0.144 1.24489211584e-38
0.016318212955 -0.0559099427474 0.142 1.25404007247e-38
0.0166158668048 -0.055122478765 0.14 1.28159086145e-38
0.0170209021067 -0.0547287467738 0.139 1.30002998742e-38
0.0176708424749 -0.055122478765 0.14 1.30002998742e-38
0.0180683422363 -0.0547287467738 0.139 1.30003026768e-38
0.0185920623012 -0.0547287467738 0.139 1.2908107047e-38
0.0192533059801 -0.055122478765 0.14 1.17088449926e-38
0.0196395024308 -0.0547287467738 0.139 8.94297609674e-39
0.0201632224956 -0.0547287467738 0.139 6.73028378262e-39
0.0206869425604 -0.0547287467738 0.139 6.73028378262e-39
0.0213632573204 -0.055122478765 0.14 7.2834547592e-39
0.0217343826901 -0.0547287467738 0.139 1.04188250407e-38
0.0222581027549 -0.0547287467738 0.139 1.26325963546e-38
0.0227818228197 -0.0547287467738 0.139 1.2817347748e-38
0.0233055428846 -0.0547287467738 0.139 1.30017390078e-38
0.0238292629494 -0.0547287467738 0.139 1.30939346376e-38
0.0243529830142 -0.0547287467738 0.139 1.31857673312e-38
0.024876703079 -0.0547287467738 0.139 1.31857673312e-38
0.0254004231438 -0.0547287467738 0.139 1.33690851963e-38
0.0261106478361 -0.055122478765 0.14 1.30003026768e-38
0.0266381356711 -0.055122478765 0.14 1.25393245275e-38
0.0271656235062 -0.055122478765 0.14 9.22028185244e-39
0.0276931113413 -0.055122478765 0.14 5.99343480723e-39
0.0280190234679 -0.0547287467738 0.139 4.51830472942e-39
0.0285427435328 -0.0547287467738 0.139 4.24171783983e-39
0.0292755748465 -0.055122478765 0.14 6.36221732668e-39
0.0295901836624 -0.0547287467738 0.139 1.13400624732e-38
0.0303305505166 -0.055122478765 0.14 1.26315173548e-38
0.0310784529114 -0.0555162107562 0.141 1.30924955041e-38
0.0318338908466 -0.0559099427474 0.142 1.30924955041e-38
0.032140964122 -0.0555162107562 0.141 1.29091804416e-38
0.0329039375977 -0.0559099427474 0.142 1.31857673312e-38
0.033674446614 -0.0563036747386 0.143 1.30935717013e-38
0.0339739843489 -0.0559099427474 0.142 1.30020935363e-38
0.0342659865433 -0.0555162107562 0.141 1.3184691134e-38
0.0345504531972 -0.055122478765 0.14 1.29081042444e-38
0.0350779410323 -0.055122478765 0.14 1.21705392055e-38
0.0361140778512 -0.0559099427474 0.142 1.12485829068e-38
0.0369071934889 -0.0563036747386 0.143 1.10641916471e-38
0.0371841246023 -0.0559099427474 0.142 1.17095610562e-38
0.0374535201752 -0.0555162107562 0.141 1.26315173548e-38
0.0379847757806 -0.0555162107562 0.141 1.3184691134e-38
0.0390623580722 -0.0563036747386 0.143 1.3094645096e-38
0.0398780803314 -0.0566974067297 0.144 1.30935717013e-38
0.0401399403639 -0.0563036747386 0.143 1.29073881809e-38
0.0409631981636 -0.0566974067297 0.144 1.21691070784e-38
0.0412175226555 -0.0563036747386 0.143 1.18925201889e-38
0.0426323203846 -0.0574848707121 0.146 1.1893239055e-38
0.0431824148411 -0.0574848707121 0.146 1.2356009465e-38
0.0431334338279 -0.0566974067297 0.144 1.26333124181e-38
0.0439792982491 -0.0570911387209 0.145 1.31846939366e-38
0.04421855166 -0.0566974067297 0.144 1.31846939366e-38
0.0447611105761 -0.0566974067297 0.144 1.31846939366e-38
0.0446744518603 -0.0559099427474 0.142 1.31846939366e-38
0.0455278518221 -0.0563036747386 0.143 1.31846939366e-38
0.0463887873243 -0.0566974067297 0.144 1.30924983067e-38
0.0469313462404 -0.0566974067297 0.144 1.2908107047e-38
0.0474739051565 -0.0566974067297 0.144 1.24471288977e-38
0.0480164640726 -0.0566974067297 0.144 1.04173929136e-38
0.0485590229886 -0.0566974067297 0.144 7.55932838787e-39
0.0491015819047 -0.0566974067297 0.144 5.43882609842e-39
0.0496441408208 -0.0566974067297 0.144 5.71613185412e-39
0.0501866997368 -0.0566974067297 0.144 6.54660858641e-39
0.0500246856161 -0.0559099427474 0.142 1.08798003874e-38
0.051271817569 -0.0566974067297 0.144 1.20794225754e-38
0.0518143764851 -0.0566974067297 0.144 1.30935745039e-38
0.0527205252303 -0.0570911387209 0.145 1.31846883314e-38
0.0532668519166 -0.0570911387209 0.145 1.31846883314e-38
0.0534420532333 -0.0566974067297 0.144 1.31846883314e-38
0.0543595052893 -0.0570911387209 0.145 1.31846883314e-38
0.0552844928858 -0.0574848707121 0.146 1.32768839612e-38
0.0558345873424 -0.0574848707121 0.146 1.30002970716e-38
0.0563846817989 -0.0574848707121 0.146 1.21705364029e-38
0.0565448120346 -0.0570911387209 0.145 9.5890587667e-39
0.0570911387209 -0.0570911387209 0.145 6.73207604336e-39
0.0580349651687 -0.0574848707121 0.146 6.17890226418e-39
0.0585850596252 -0.0574848707121 0.146 6.73207604336e-39
0.0587301187799 -0.0570911387209 0.145 8.94477116008e-39
0.0596852485384 -0.0574848707121 0.146 1.14340531664e-38
0.060235342995 -0.0574848707121 0.146 1.27247919845e-38
0.0599527602262 -0.0566974067297 0.144 1.29091832442e-38
0.0604953191423 -0.0566974067297 0.144 1.30013788741e-38
0.0610378780583 -0.0566974067297 0.144 1.3184691134e-38
0.0615804369744 -0.0566974067297 0.144 1.30013788741e-38
0.0625544055842 -0.0570911387209 0.145 1.30013788741e-38
0.0631007322705 -0.0570911387209 0.145 1.30935717013e-38
0.064086004191 -0.0574848707121 0.146 1.31857673312e-38
0.0641933856431 -0.0570911387209 0.145 1.28177036778e-38
0.0642932315548 -0.0566974067297 0.144 1.24489211584e-38
0.0652860390158 -0.0570911387209 0.145 1.19879416078e-38
0.0658323657021 -0.0570911387209 0.145 1.19872227417e-38
0.0672942605593 -0.0578786027033 0.147 1.22638110326e-38
0.0664634672191 -0.0566974067297 0.144 1.29081014418e-38
0.0665407065092 -0.0563036747386 0.143 1.30924955041e-38
0.0675485850512 -0.0566974067297 0.144 1.31839722679e-38
0.0685639991337 -0.0570911387209 0.145 1.2815192551e-38
0.0691103258201 -0.0570911387209 0.145 1.14315392369e-38
0.0696566525064 -0.0570911387209 0.145 1.07861726305e-38
0.0702029791927 -0.0570911387209 0.145 9.77273956811e-39
0.070749305879 -0.0570911387209 0.145 1.02337177174e-38
0.07031224453 -0.0563036747386 0.143 1.17095638588e-38
0.0713464974637 -0.0566974067297 0.144 1.25400447949e-38
0.0718890563798 -0.0566974067297 0.144 1.27251521182e-38
0.0744436046097 -0.0582723346944 0.148 1.30013788741e-38
0.0739877044093 -0.0574848707121 0.146 1.30935717013e-38
0.074027265997 -0.0570911387209 0.145 1.31846883314e-38
0.0750878933225 -0.0574848707121 0.146 1.30935717013e-38
0.0756379877791 -0.0574848707121 0.146 1.32768867638e-38
0.0756662460559 -0.0570911387209 0.145 1.3184691134e-38
0.0767381766922 -0.0574848707121 0.146 1.25386056614e-38
0.0767588994286 -0.0570911387209 0.145 1.02329988513e-38
0.0789046445863 -0.0582723346944 0.148 7.65152121514e-39
0.0794622745833 -0.0582723346944 0.148 5.89872805052e-39
0.0789385545185 -0.0574848707121 0.146 5.89872805052e-39
0.0789442061739 -0.0570911387209 0.145 6.17747013714e-39
0.0794905328602 -0.0570911387209 0.145 9.86565126149e-39
0.0789329028631 -0.0563036747386 0.143 1.23549304652e-38
0.0805831862329 -0.0570911387209 0.145 1.27247891819e-38
0.0816890268014 -0.0574848707121 0.146 1.29091790403e-38
0.0828024029104 -0.0578786027033 0.147 1.28177036778e-38
0.0827892157145 -0.0574848707121 0.146 1.28177036778e-38
0.0827684929782 -0.0570911387209 0.145 1.28177036778e-38
0.0844639895909 -0.0578786027033 0.147 1.29091832442e-38
0.0844394990843 -0.0574848707121 0.146 1.26325963546e-38
0.0855717140445 -0.0578786027033 0.147 1.25404007247e-38
0.0867114645453 -0.0582723346944 0.148 1.11574662768e-38
0.0872690945424 -0.0582723346944 0.148 9.1291624198e-39
0.087233300725 -0.0578786027033 0.147 8.29940175103e-39
0.0877871629519 -0.0578786027033 0.147 8.3915973809e-39
-0.0729120060028 -0.0518652413835 0.133 6.36043067114e-39
-0.0718664497583 -0.0514752771625 0.132 8.85042874096e-39
-0.0708284290543 -0.0510853129416 0.131 1.12485801042e-38
-0.0697979438908 -0.0506953487207 0.13 1.17095582536e-38
-0.0693081337582 -0.0506953487207 0.13 1.18939495133e-38
-0.0682889519054 -0.0503053844997 0.129 1.18017538834e-38
-0.0667517016432 -0.0495254560579 0.127 1.2078340773e-38
-0.0667950310011 -0.0499154202788 0.128 1.19861451432e-38
-0.0668308248185 -0.0503053844997 0.129 1.2078340773e-38
-0.0673733837346 -0.0510853129416 0.131 1.08797975848e-38
-0.0668798058317 -0.0510853129416 0.131 8.94333903304e-39
-0.0658794628302 -0.0506953487207 0.13 6.73064391632e-39
-0.0653896526977 -0.0506953487207 0.13 4.2406458465e-39
-0.0653990721233 -0.0510853129416 0.131 3.68747346862e-39
-0.0639145706446 -0.0503053844997 0.129 5.9923628139e-39
-0.0639202223 -0.0506953487207 0.13 9.77345563162e-39
-0.0638674735165 -0.0522552056044 0.134 1.21698203394e-38
-0.06241688197 -0.0514752771625 0.132 1.20783435756e-38
-0.0609813615046 -0.0506953487207 0.13 1.19861479457e-38
-0.0609568709979 -0.0510853129416 0.131 1.18950313157e-38
-0.0595401893837 -0.0503053844997 0.129 1.1710640056e-38
-0.0590541470214 -0.0503053844997 0.129 1.08812395209e-38
-0.0585681046591 -0.0503053844997 0.129 1.02358701119e-38
-0.0580820622968 -0.0503053844997 0.129 1.05110206705e-38
-0.0571495391598 -0.0499154202788 0.128 1.09730750171e-38
-0.057995403581 -0.0510853129416 0.131 1.13418547339e-38
-0.0575018256782 -0.0510853129416 0.131 1.17113547182e-38
-0.0565730703115 -0.0506953487207 0.13 1.17113547182e-38
-0.0556518504852 -0.0503053844997 0.129 1.17106358521e-38
-0.0551658081229 -0.0503053844997 0.129 1.15251669938e-38
-0.0542558916074 -0.0499154202788 0.128 1.1156387277e-38
-0.0537736170153 -0.0499154202788 0.128 1.0786888694e-38
-0.0541240196486 -0.0506953487207 0.13 1.09712799537e-38
-0.0532216386736 -0.0503053844997 0.129 1.16173682289e-38
-0.0527355963113 -0.0503053844997 0.129 1.22627376379e-38
-0.052249553949 -0.0503053844997 0.129 1.19861507483e-38
-0.0517635115867 -0.0503053844997 0.129 1.24471288977e-38
-0.0508799694629 -0.0499154202788 0.128 1.21712622755e-38
-0.0503976948709 -0.0499154202788 0.128 1.19868710158e-38
-0.0518652413835 -0.0518652413835 0.133 1.22627320327e-38
-0.0513641279401 -0.0518652413835 0.133 1.23542115991e-38
-0.0508630144968 -0.0518652413835 0.133 1.23534955356e-38
-0.0499832401433 -0.0514752771625 0.132 1.02319198515e-38
-0.0487361081904 -0.0506953487207 0.13 6.9121611129e-39
-0.0475040473185 -0.0499154202788 0.128 4.6061927678e-39
-0.0473891303258 -0.0503053844997 0.129 4.97425922374e-39
-0.0469030879635 -0.0503053844997 0.129 7.09475871059e-39
-0.0464170456012 -0.0503053844997 0.129 9.31247748231e-39
-0.0469991661049 -0.0514752771625 0.132 1.10641944497e-38
-0.0489678260608 -0.054205026709 0.139 1.20783435756e-38
-0.0470500310033 -0.0526451698253 0.135 1.22627320327e-38
-0.0461966310416 -0.0522552056044 0.134 1.22627320327e-38
-0.0453507666203 -0.0518652413835 0.133 1.22627348353e-38
-0.0441752223022 -0.0510853129416 0.131 1.21705420081e-38
-0.0436816443993 -0.0510853129416 0.131 1.20783463782e-38
-0.0435177463934 -0.0514752771625 0.132 1.18017538834e-38
-0.042368576467 -0.0506953487207 0.13 1.00493208525e-38
-0.0422009106909 -0.0510853129416 0.131 7.28165969587e-39
-0.0426624625466 -0.0522552056044 0.134 5.25264117666e-39
-0.0440452342285 -0.0545949909299 0.14 4.33068487803e-39
-0.0441394284848 -0.0553749193718 0.142 5.99092368038e-39
-0.0414548921813 -0.0526451698253 0.135 9.77273956811e-39
-0.0397330211768 -0.0510853129416 0.131 1.18017594886e-38
-0.0383408300692 -0.0499154202788 0.128 1.22627320327e-38
-0.0387458653712 -0.0510853129416 0.131 1.22627320327e-38
-0.0373762808851 -0.0499154202788 0.128 1.22627320327e-38
-0.0371822407172 -0.0503053844997 0.129 1.22627320327e-38
-0.0366961983549 -0.0503053844997 0.129 1.23549276626e-38
-0.0362101559926 -0.0503053844997 0.129 1.23549276626e-38
-0.0360010447437 -0.0506953487207 0.13 1.23549276626e-38
-0.0355112346111 -0.0506953487207 0.13 1.22627320327e-38
-0.0350214244785 -0.0506953487207 0.13 1.16191604896e-38
-0.034531614346 -0.0506953487207 0.13 1.06050085611e-38
-0.0343036642458 -0.0510853129416 0.131 1.08815954507e-38
-0.0340681786051 -0.0514752771625 0.132 1.14340531664e-38
-0.0335708329321 -0.0514752771625 0.132 1.18028356858e-38
-0.0325723738157 -0.0506953487207 0.13 1.24471260951e-38
-0.0320825636831 -0.0506953487207 0.13 1.21705392055e-38
-0.0315927535506 -0.0506953487207 0.13 1.21698203394e-38
-0.031102943418 -0.0506953487207 0.13 1.11563900796e-38
-0.0306131332854 -0.0506953487207 0.13 1.03266294108e-38
-0.0303550410233 -0.0510853129416 0.131 9.86564845889e-39
-0.0298614631204 -0.0510853129416 0.131 1.06954091277e-38
-0.0295920675475 -0.0514752771625 0.132 1.20783435756e-38
-0.0293151364341 -0.0518652413835 0.133 1.22627348353e-38
-0.029463963359 -0.0530351340462 0.136 1.25393189223e-38
-0.0287386675858 -0.0526451698253 0.135 1.26315145522e-38
-0.0278117961042 -0.0518652413835 0.133 1.21716154027e-38
-0.0268999957035 -0.0510853129416 0.131 1.21716154027e-38
-0.0268095692175 -0.0518652413835 0.133 1.23560066624e-38
-0.0263084557742 -0.0518652413835 0.133 1.22638110326e-38
-0.025613302163 -0.0514752771625 0.132 1.16173654263e-38
-0.0251159564899 -0.0514752771625 0.132 9.49543100981e-39
-0.0244321061895 -0.0510853129416 0.131 5.62142229481e-39
-0.0244867388581 -0.0522552056044 0.134 4.32960447691e-39
-0.0252346412528 -0.0549849551509 0.141 4.42467697252e-39
-0.0248785869641 -0.0553749193718 0.142 6.45297802692e-39
-0.0238292629494 -0.054205026709 0.139 9.77345563162e-39
-0.0219642166754 -0.0510853129416 0.131 1.22627320327e-38
-0.0213067407667 -0.0506953487207 0.13 1.23560052611e-38
-0.0209770608697 -0.0510853129416 0.131 1.23560052611e-38
-0.0204834829669 -0.0510853129416 0.131 1.26315145522e-38
-0.0199899050641 -0.0510853129416 0.131 1.27237101821e-38
-0.0193475002364 -0.0506953487207 0.13 1.2632593552e-38
-0.0188576901038 -0.0506953487207 0.13 1.28159086145e-38
-0.01865046274 -0.0514752771625 0.132 1.20783435756e-38
-0.0184281642953 -0.0522552056044 0.134 1.0786888694e-38
-0.0181907947695 -0.0530351340462 0.136 7.00686786961e-39
-0.0175483899418 -0.0526451698253 0.135 5.07004357897e-39
-0.0167873003512 -0.0518652413835 0.133 5.25443483869e-39
-0.0162861869078 -0.0518652413835 0.133 7.1894668686e-39
-0.0160224429903 -0.0526451698253 0.135 1.08797975848e-38
-0.0152839600212 -0.0518652413835 0.133 1.22627320327e-38
-0.0146716973555 -0.0514752771625 0.132 1.27237101821e-38
-0.0141743516824 -0.0514752771625 0.132 1.29081014418e-38
-0.0135733923275 -0.0510853129416 0.131 1.28159058119e-38
-0.0130798144247 -0.0510853129416 0.131 1.29081014418e-38
-0.0126823146632 -0.0514752771625 0.132 1.29081014418e-38
-0.0121849689902 -0.0514752771625 0.132 1.30002970716e-38
-0.0116876233171 -0.0514752771625 0.132 1.2816263143e-38
-0.0112750524747 -0.0518652413835 0.133 1.2448200891e-38
-0.0108549460917 -0.0522552056044 0.134 1.21723342688e-38
-0.0105817827486 -0.0534250982672 0.137 1.18964704492e-38
-0.0100655982242 -0.0534250982672 0.137 1.18964704492e-38
-0.00947970995029 -0.0530351340462 0.136 1.24489211584e-38
-0.00890135721684 -0.0526451698253 0.135 1.26325921507e-38
-0.00833054002389 -0.0522552056044 0.134 1.2816263143e-38
-0.00782565881032 -0.0522552056044 0.134 1.29081042444e-38
-0.00721151225948 -0.0514752771625 0.132 1.25393217249e-38
-0.0067650314848 -0.0518652413835 0.133 1.13407785367e-38
-0.00626391804148 -0.0518652413835 0.133 9.95784408875e-39
-0.00584946331392 -0.0526451698253 0.135 9.77345282903e-39
-0.00561774544352 -0.0553749193718 0.142 1.06032134978e-38
-0.0051543097027 -0.0561548478137 0.144 1.1801756686e-38
-0.00461175078663 -0.0561548478137 0.144 1.26315173548e-38
-0.0040126753168 -0.0553749193718 0.142 1.25403979221e-38
-0.00337968991471 -0.0538150624881 0.138 1.2632593552e-38
-0.00281829214738 -0.0530351340462 0.136 1.28169848117e-38
-0.00228892042719 -0.0526451698253 0.135 1.29091804416e-38
-0.00176708424749 -0.0522552056044 0.134 1.29091804416e-38
-0.00127162245955 -0.0526451698253 0.135 1.28169848117e-38
-0.000768625131105 -0.0530351340462 0.136 1.29091804416e-38
-0.00025809226216 -0.0534250982672 0.137 1.10652678443e-38
0.000263743917536 -0.0545949909299 0.14 7.4667754269e-39
0.000791231752608 -0.0545949909299 0.14 4.70126386211e-39
0.00129988073643 -0.0538150624881 0.138 4.33284147636e-39
0.00178027144337 -0.0526451698253 0.135 4.42539303604e-39
0.00228892042719 -0.0526451698253 0.135 8.2976066877e-39
0.00277684667463 -0.0522552056044 0.134 1.13407813393e-38
0.0032817278882 -0.0522552056044 0.134 1.29081042444e-38
0.00378660910177 -0.0522552056044 0.134 1.30002998742e-38
0.00432351636246 -0.0526451698253 0.135 1.29091790403e-38
0.00486795916366 -0.0530351340462 0.136 1.30013746702e-38
0.00538037591773 -0.0530351340462 0.136 1.29091804416e-38
0.00593612202968 -0.0534250982672 0.137 1.28169848117e-38
0.00640520942587 -0.0530351340462 0.136 1.30002970716e-38
0.00691762617994 -0.0530351340462 0.136 1.24471232925e-38
0.00743004293401 -0.0530351340462 0.136 1.06954091277e-38
0.00800086012697 -0.0534250982672 0.137 8.11393149149e-39
0.00857921286042 -0.0538150624881 0.138 6.91287717642e-39
0.00909916515499 -0.0538150624881 0.138 6.63736648405e-39
0.00954941369993 -0.0534250982672 0.137 8.94297609674e-39
0.00991865518448 -0.0526451698253 0.135 1.16184444261e-38
0.0104273041683 -0.0526451698253 0.135 1.26325963546e-38
0.0110169602125 -0.0530351340462 0.136 1.28169848117e-38
0.0115293769666 -0.0530351340462 0.136 1.27247891819e-38
0.0120417937206 -0.0530351340462 0.136 1.26325921507e-38
0.0125542104747 -0.0530351340462 0.136 1.25403979221e-38
0.0132587835116 -0.0538150624881 0.138 1.27247891819e-38
0.0139784276294 -0.0545949909299 0.14 1.26333124181e-38
0.0148167565101 -0.0557648835927 0.143 1.25411167883e-38
0.015355547656 -0.0557648835927 0.143 1.24489211584e-38
0.0158943388018 -0.0557648835927 0.143 1.20801386389e-38
0.0162032959623 -0.0549849551509 0.141 1.18957473792e-38
0.0164971820419 -0.054205026709 0.139 1.20801386389e-38
0.0171433546398 -0.0545949909299 0.14 1.22638110326e-38
0.0174184018681 -0.0538150624881 0.138 1.30013760715e-38
0.0179383541627 -0.0538150624881 0.138 1.29091804416e-38
0.0185920623012 -0.054205026709 0.139 1.29091804416e-38
0.019115782366 -0.054205026709 0.139 1.25403979221e-38
0.0196395024308 -0.054205026709 0.139 1.17106372534e-38
0.0205983999596 -0.0553749193718 0.142 1.0604289695e-38
0.0211334233351 -0.0553749193718 0.142 1.01433115457e-38
0.0215158520156 -0.0549849551509 0.141 1.05120940652e-38
0.0218907451555 -0.0545949909299 0.14 1.18028328832e-38
0.0224182329906 -0.0545949909299 0.14 1.24482022923e-38
0.0226179248138 -0.0538150624881 0.138 1.28169848117e-38
0.0233055428846 -0.054205026709 0.139 1.31857673312e-38
0.0240006964958 -0.0545949909299 0.14 1.31857673312e-38
0.0243529830142 -0.054205026709 0.139 1.31857673312e-38
0.024876703079 -0.054205026709 0.139 1.30935717013e-38
0.0257658968581 -0.0549849551509 0.141 1.35527575899e-38
0.0261106478361 -0.0545949909299 0.14 1.31839750705e-38
0.0266381356711 -0.0545949909299 0.14 1.2538608464e-38
0.0269715833383 -0.054205026709 0.139 9.0351745292e-39
0.0274953034031 -0.054205026709 0.139 6.26858676719e-39
0.0282205991763 -0.0545949909299 0.14 4.60906823225e-39
0.0285427435328 -0.054205026709 0.139 4.9778507517e-39
0.0290664635976 -0.054205026709 0.139 7.09835023856e-39
0.0298030626816 -0.0545949909299 0.14 1.11574634742e-38
0.0303305505166 -0.0545949909299 0.14 1.2632593552e-38
0.0310784529114 -0.0549849551509 0.141 1.30935717013e-38
0.0313855261868 -0.0545949909299 0.14 1.29091804416e-38
0.032140964122 -0.0549849551509 0.141 1.28169848117e-38
0.0329039375977 -0.0553749193718 0.142 1.29091804416e-38
0.0334389609733 -0.0553749193718 0.142 1.30013760715e-38
0.033734730938 -0.0549849551509 0.141 1.30935717013e-38
0.0340229653621 -0.0545949909299 0.14 1.27265870478e-38
0.0343036642458 -0.054205026709 0.139 1.18957473792e-38
0.0350779410323 -0.0545949909299 0.14 9.95891888468e-39
0.0363684023431 -0.0557648835927 0.143 7.3774412485e-39
0.0363910089646 -0.0549849551509 0.141 7.00865872905e-39
0.0371841246023 -0.0553749193718 0.142 8.48378880686e-39
0.0371878923726 -0.0545949909299 0.14 1.08815954507e-38
0.0382541713535 -0.0553749193718 0.142 1.20812176388e-38
0.038789194729 -0.0553749193718 0.142 1.30935717013e-38
0.039601149218 -0.0557648835927 0.143 1.30935717013e-38
0.0401399403639 -0.0557648835927 0.143 1.30935717013e-38
0.0406787315097 -0.0557648835927 0.143 1.30013760715e-38
0.0412175226555 -0.0557648835927 0.143 1.27247891819e-38
0.0423403181902 -0.0565448120346 0.145 1.28169848117e-38
0.0425908749118 -0.0561548478137 0.144 1.29091804416e-38
0.0431334338279 -0.0561548478137 0.144 1.29091804416e-38
0.0442826037543 -0.0569347762555 0.146 1.32768839612e-38
0.0445256249354 -0.0565448120346 0.145 1.27237101821e-38
0.0447611105761 -0.0561548478137 0.144 1.30002970716e-38
0.0449890606763 -0.0557648835927 0.143 1.28159058119e-38
0.0455278518221 -0.0557648835927 0.143 1.30924927015e-38
0.0463887873243 -0.0561548478137 0.144 1.30924927015e-38
0.0469313462404 -0.0561548478137 0.144 1.30924927015e-38
0.0471442252596 -0.0557648835927 0.143 1.29081014418e-38
0.0476830164054 -0.0557648835927 0.143 1.15251697964e-38
0.0482218075512 -0.0557648835927 0.143 9.95784408875e-39
0.048760598697 -0.0557648835927 0.143 8.48271401094e-39
0.0492993898429 -0.0557648835927 0.143 8.66710527067e-39
0.050535218485 -0.0565448120346 0.145 9.68125719916e-39
0.0507292586529 -0.0561548478137 0.144 1.16173654263e-38
0.051271817569 -0.0561548478137 0.144 1.26315173548e-38
0.052174198544 -0.0565448120346 0.145 1.30002998742e-38
0.0527205252303 -0.0565448120346 0.145 1.30935717013e-38
0.0532668519166 -0.0565448120346 0.145 1.29098993077e-38
0.053813178603 -0.0565448120346 0.145 1.29098993077e-38
0.0543595052893 -0.0565448120346 0.145 1.28187826777e-38
0.0549058319756 -0.0565448120346 0.145 1.30020949376e-38
0.0565994447032 -0.0577147046974 0.148 1.28169848117e-38
0.0559984853483 -0.0565448120346 0.145 1.16173626237e-38
0.0565448120346 -0.0565448120346 0.145 8.57490683821e-39
0.0574848707121 -0.0569347762555 0.146 5.80760861787e-39
0.0580349651687 -0.0569347762555 0.146 5.34663046856e-39
0.0585850596252 -0.0569347762555 0.146 5.34734653207e-39
0.0595401893837 -0.0573247404764 0.147 7.65223727866e-39
0.0596852485384 -0.0569347762555 0.146 1.1156387277e-38
0.060235342995 -0.0569347762555 0.146 1.26315173548e-38
0.0603690988389 -0.0565448120346 0.145 1.28169848117e-38
0.0600752127593 -0.0557648835927 0.143 1.30935717013e-38
0.0610378780583 -0.0561548478137 0.144 1.30939262298e-38
0.0615804369744 -0.0561548478137 0.144 1.30935703e-38
0.0621229958905 -0.0561548478137 0.144 1.30935703e-38
0.0626655548065 -0.0561548478137 0.144 1.32768839612e-38
0.0636470589568 -0.0565448120346 0.145 1.32768839612e-38
0.0633079596343 -0.0557648835927 0.143 1.25393217249e-38
0.0642932315548 -0.0561548478137 0.144 1.13407813393e-38
0.0648357904708 -0.0561548478137 0.144 1.00500425212e-38
0.0658323657021 -0.0565448120346 0.145 1.02344309783e-38
0.0668364764739 -0.0569347762555 0.146 1.07876019549e-38
0.0669250190748 -0.0565448120346 0.145 1.20794197728e-38
0.0670060261351 -0.0561548478137 0.144 1.28177022766e-38
0.0675485850512 -0.0561548478137 0.144 1.29091790403e-38
0.0680911439673 -0.0561548478137 0.144 1.30013760715e-38
0.0695869487567 -0.0569347762555 0.146 1.30924955041e-38
0.0691762617994 -0.0561548478137 0.144 1.27229941185e-38
0.0702029791927 -0.0565448120346 0.145 1.22627348353e-38
0.0702613796316 -0.0561548478137 0.144 1.24471260951e-38
0.07031224453 -0.0557648835927 0.143 1.27237129847e-38
0.0708510356758 -0.0557648835927 0.143 1.30002970716e-38
0.0718890563798 -0.0561548478137 0.144 1.31846883314e-38
0.0734376099528 -0.0569347762555 0.146 1.31850456625e-38
0.074494469508 -0.0573247404764 0.147 1.31850456625e-38
0.0745377988659 -0.0569347762555 0.146 1.30928500326e-38
0.0756021939617 -0.0573247404764 0.147 1.28177036778e-38
0.0761560561885 -0.0573247404764 0.147 1.29091804416e-38
0.0761880822356 -0.0569347762555 0.146 1.29091832442e-38
0.0756869687923 -0.0561548478137 0.144 1.26315173548e-38
0.0762295277084 -0.0561548478137 0.144 1.11556712135e-38
0.0773052261149 -0.0565448120346 0.145 9.31104255268e-39
0.0778515528012 -0.0565448120346 0.145 7.19054586842e-39
0.0783978794876 -0.0565448120346 0.145 6.82176334897e-39
0.0794886489751 -0.0569347762555 0.146 7.19305139008e-39
0.0789423222888 -0.0561548478137 0.144 1.03277028054e-38
0.0794848812048 -0.0561548478137 0.144 1.23560066624e-38
0.0800274401209 -0.0561548478137 0.144 1.28169848117e-38
0.0811295129192 -0.0565448120346 0.145 1.29091804416e-38
0.0811125579531 -0.0561548478137 0.144 1.30013760715e-38
0.0827892157145 -0.0569347762555 0.146 1.30935717013e-38
0.0839101273641 -0.0573247404764 0.147 1.30935717013e-38
0.0838894046277 -0.0569347762555 0.146 1.31857701338e-38
0.0844394990843 -0.0569347762555 0.146 1.28159086145e-38
0.0844074730371 -0.0565448120346 0.145 1.25386056614e-38
0.0849537997235 -0.0565448120346 0.145 9.95641196172e-39
0.086089782454 -0.0569347762555 0.146 7.55932558528e-39
0.0866398769106 -0.0569347762555 0.146 5.80761142047e-39
0.0859955881977 -0.0561548478137 0.144 5.53138466459e-39
-0.0728611411044 -0.0509779314895 0.132 7.55897105677e-39
-0.0718155848599 -0.0505917350388 0.131 8.75751424499e-39
-0.0713220069571 -0.0505917350388 0.131 1.05099486772e-38
-0.0702877540233 -0.0502055385881 0.13 1.17095582536e-38
-0.0703348511515 -0.0505917350388 0.131 1.19861451432e-38
-0.0687749942678 -0.0498193421374 0.129 1.2078340773e-38
-0.0677595801852 -0.0494331456867 0.128 1.19861451432e-38
-0.0678029095431 -0.0498193421374 0.129 1.2078340773e-38
-0.0673168671808 -0.0498193421374 0.129 1.19861451432e-38
-0.0673488932279 -0.0502055385881 0.13 1.18939495133e-38
-0.0668590830954 -0.0502055385881 0.13 1.07876019549e-38
-0.0658587400939 -0.0498193421374 0.129 8.94297609674e-39
-0.0653726977315 -0.0498193421374 0.129 4.9778479491e-39
-0.0648866553692 -0.0498193421374 0.129 3.41052504402e-39
-0.0648998425651 -0.0502055385881 0.13 4.05481685455e-39
-0.0649054942205 -0.0505917350388 0.131 6.63737208924e-39
-0.0644119163177 -0.0505917350388 0.131 9.58834550579e-39
-0.0648941909097 -0.0513641279401 0.133 1.1432971364e-38
-0.06437235473 -0.0517503243908 0.134 1.19861479457e-38
-0.0629142276431 -0.0509779314895 0.132 1.20783435756e-38
-0.0619440268036 -0.0505917350388 0.131 1.20783435756e-38
-0.0614504489008 -0.0505917350388 0.131 1.19861479457e-38
-0.0614221906239 -0.0509779314895 0.132 1.18028356858e-38
-0.0604632930951 -0.0505917350388 0.131 1.09730750171e-38
-0.0604274992777 -0.0509779314895 0.132 9.40574930939e-39
-0.0594761372895 -0.0505917350388 0.131 7.65403234199e-39
-0.0594328079316 -0.0509779314895 0.132 7.00687067221e-39
-0.0575018256782 -0.0505917350388 0.131 1.13418547339e-38
-0.0570082477754 -0.0505917350388 0.131 1.18035503481e-38
-0.0556518504852 -0.0498193421374 0.129 1.18950285131e-38
-0.0551658081229 -0.0498193421374 0.129 1.18939495133e-38
-0.0546797657606 -0.0498193421374 0.129 1.17095582536e-38
-0.0541937233983 -0.0498193421374 0.129 1.18932362524e-38
-0.0545403582613 -0.0505917350388 0.131 1.17088449926e-38
-0.0540467803585 -0.0505917350388 0.131 1.18939551185e-38
-0.0535532024557 -0.0505917350388 0.131 1.20783463782e-38
-0.0530596245529 -0.0505917350388 0.131 1.20783463782e-38
-0.05256604665 -0.0505917350388 0.131 1.18939551185e-38
-0.0516749689858 -0.0502055385881 0.13 1.15258928664e-38
-0.0511851588532 -0.0502055385881 0.13 1.17102841262e-38
-0.0499154202788 -0.0494331456867 0.128 1.19872227417e-38
-0.0490469492361 -0.0490469492361 0.127 1.18950285131e-38
-0.0489508710947 -0.0494331456867 0.128 1.21705364029e-38
-0.0484685965026 -0.0494331456867 0.128 1.13400596706e-38
-0.0476114287706 -0.0490469492361 0.127 9.40323537995e-39
-0.0471329219488 -0.0490469492361 0.127 7.46712995541e-39
-0.0470217727264 -0.0494331456867 0.128 7.65044501792e-39
-0.0476302676219 -0.0505917350388 0.131 8.94118383601e-39
-0.0464170456012 -0.0498193421374 0.129 1.05110206705e-38
-0.0459310032389 -0.0498193421374 0.129 1.15251697964e-38
-0.0465018204318 -0.0509779314895 0.132 1.21705392055e-38
-0.0463529935069 -0.0513641279401 0.133 1.22627320327e-38
-0.0448176271299 -0.0502055385881 0.13 1.22627320327e-38
-0.0443278169973 -0.0502055385881 0.13 1.22627348353e-38
-0.0435007914273 -0.0498193421374 0.129 1.21705392055e-38
-0.0433481967322 -0.0502055385881 0.13 1.19861507483e-38
-0.0428583865996 -0.0502055385881 0.13 1.1432971364e-38
-0.042368576467 -0.0502055385881 0.13 9.3117558136e-39
-0.0418787663345 -0.0502055385881 0.13 5.71433398819e-39
-0.0432992157189 -0.0525227172922 0.136 4.05409798844e-39
-0.0434160165967 -0.0532951101935 0.138 3.59311983912e-39
-0.0419635411651 -0.0521365208415 0.135 5.52994553106e-39
-0.0408407456304 -0.0513641279401 0.133 9.31176141879e-39
-0.0394297156716 -0.0502055385881 0.13 1.1525172599e-38
-0.0386403678041 -0.0498193421374 0.129 1.22627320327e-38
-0.0381543254418 -0.0498193421374 0.129 1.22627320327e-38
-0.0376682830795 -0.0498193421374 0.129 1.22627320327e-38
-0.0377587095655 -0.0505917350388 0.131 1.22627320327e-38
-0.0372651316627 -0.0505917350388 0.131 1.23549276626e-38
-0.0373329515272 -0.0513641279401 0.133 1.23549276626e-38
-0.0376626314241 -0.0525227172922 0.136 1.18939495133e-38
-0.0374233780132 -0.0529089137428 0.137 1.10641888445e-38
-0.0363684023431 -0.0521365208415 0.135 9.22135804967e-39
-0.0353284977539 -0.0513641279401 0.133 7.74622797185e-39
-0.0345655242782 -0.0509779314895 0.132 8.02281486144e-39
-0.0343262708673 -0.0513641279401 0.133 9.31355367953e-39
-0.033825157424 -0.0513641279401 0.133 1.13407785367e-38
-0.0325723738157 -0.0502055385881 0.13 1.21705392055e-38
-0.0318357747317 -0.0498193421374 0.129 1.22627348353e-38
-0.0315927535506 -0.0502055385881 0.13 1.22627348353e-38
-0.0313421968289 -0.0505917350388 0.131 1.22627376379e-38
-0.0310841045667 -0.0509779314895 0.132 1.21705420081e-38
-0.0301233231529 -0.0502055385881 0.13 1.21705392055e-38
-0.0298614631204 -0.0505917350388 0.131 1.21705392055e-38
-0.0298162498774 -0.0513641279401 0.133 1.22627348353e-38
-0.0290947218745 -0.0509779314895 0.132 1.23549304652e-38
-0.0285973762014 -0.0509779314895 0.132 1.24471232925e-38
-0.0283129095475 -0.0513641279401 0.133 1.24471232925e-38
-0.0273935736064 -0.0505917350388 0.131 1.23560066624e-38
-0.0271053391822 -0.0509779314895 0.132 1.23560066624e-38
-0.0264064178007 -0.0505917350388 0.131 1.22638110326e-38
-0.0263084557742 -0.0513641279401 0.133 1.22638110326e-38
-0.025613302163 -0.0509779314895 0.132 1.24471232925e-38
-0.0251159564899 -0.0509779314895 0.132 1.11556684109e-38
-0.0249916200717 -0.0517503243908 0.134 8.48020288409e-39
-0.0248522125724 -0.0525227172922 0.136 7.18874800249e-39
-0.0245187649052 -0.0529089137428 0.137 7.46712995541e-39
-0.0238273790643 -0.0525227172922 0.136 8.75858483702e-39
-0.0233149623102 -0.0525227172922 0.136 1.09719960173e-38
-0.0219642166754 -0.0505917350388 0.131 1.21716154027e-38
-0.0214706387726 -0.0505917350388 0.131 1.23560052611e-38
-0.0208169306341 -0.0502055385881 0.13 1.23560052611e-38
-0.0204834829669 -0.0505917350388 0.131 1.26315145522e-38
-0.0201424997592 -0.0509779314895 0.132 1.27237101821e-38
-0.0196451540862 -0.0509779314895 0.132 1.27247891819e-38
-0.0191478084131 -0.0509779314895 0.132 1.29081042444e-38
-0.0196395024308 -0.0536813066442 0.139 1.19861479457e-38
-0.0192533059801 -0.0540675030949 0.14 9.3117586162e-39
-0.0188595739889 -0.0544536995456 0.141 4.79417275289e-39
-0.0174184018681 -0.0517503243908 0.134 4.14808728033e-39
-0.0167873003512 -0.0513641279401 0.133 3.96369602061e-39
-0.0162861869078 -0.0513641279401 0.133 5.80653242065e-39
-0.0157850734645 -0.0513641279401 0.133 1.0050036916e-38
-0.0151690430286 -0.0509779314895 0.132 1.23549276626e-38
-0.0145605481331 -0.0505917350388 0.131 1.29081014418e-38
-0.0140669702303 -0.0505917350388 0.131 1.30002970716e-38
-0.0136770060094 -0.0509779314895 0.132 1.29081014418e-38
-0.0134791980712 -0.0521365208415 0.135 1.29081014418e-38
-0.012874470946 -0.0517503243908 0.134 1.29081014418e-38
-0.0122772793613 -0.0513641279401 0.133 1.30002970716e-38
-0.0115990807162 -0.0505917350388 0.131 1.29084587729e-38
-0.011190277644 -0.0509779314895 0.132 1.20794197728e-38
-0.010692931971 -0.0509779314895 0.132 1.06964853249e-38
-0.0103500648782 -0.0517503243908 0.134 9.68269633269e-39
-0.00984518366459 -0.0517503243908 0.134 9.59050070282e-39
-0.00941000620066 -0.0521365208415 0.135 1.04198984353e-38
-0.00883542123746 -0.0517503243908 0.134 1.18028328832e-38
-0.00820620360562 -0.0509779314895 0.132 1.27240675132e-38
-0.00770885793255 -0.0509779314895 0.132 1.28159086145e-38
-0.00721151225948 -0.0509779314895 0.132 1.28159086145e-38
-0.00671416658642 -0.0509779314895 0.132 1.27237129847e-38
-0.00626391804148 -0.0513641279401 0.133 1.25393217249e-38
-0.00584946331392 -0.0521365208415 0.135 1.25393217249e-38
-0.00538037591773 -0.0525227172922 0.136 1.27237129847e-38
-0.00493954679842 -0.0532951101935 0.138 1.28159086145e-38
-0.00441959450385 -0.0532951101935 0.138 1.28159086145e-38
-0.00389964220928 -0.0532951101935 0.138 1.28169848117e-38
-0.00333070890145 -0.0525227172922 0.136 1.29091804416e-38
-0.00281829214738 -0.0525227172922 0.136 1.29091804416e-38
-0.00230587539331 -0.0525227172922 0.136 1.28169848117e-38
-0.00178027144337 -0.0521365208415 0.135 1.28169848117e-38
-0.00127162245955 -0.0521365208415 0.135 1.29091804416e-38
-0.000762973475729 -0.0521365208415 0.135 1.28169848117e-38
-0.000261860032411 -0.0536813066442 0.139 1.17106372534e-38
0.000269395572912 -0.0552260924469 0.143 9.03481859939e-39
0.000808186718735 -0.0552260924469 0.143 6.08491437358e-39
0.00133755843893 -0.0548398959962 0.142 5.80832748399e-39
0.00179345863924 -0.0525227172922 0.136 7.09906349948e-39
0.00228892042719 -0.0521365208415 0.135 9.5890643719e-39
0.00279756941101 -0.0521365208415 0.135 1.1801756686e-38
0.0032817278882 -0.0517503243908 0.134 1.30002998742e-38
0.00378660910177 -0.0517503243908 0.134 1.30924927015e-38
0.00429149031534 -0.0517503243908 0.134 1.29091790403e-38
0.00486795916366 -0.0525227172922 0.136 1.29091790403e-38
0.00549906068063 -0.0536813066442 0.139 1.29091804416e-38
0.00602278074545 -0.0536813066442 0.139 1.28169848117e-38
0.00649940368214 -0.0532951101935 0.138 1.29081014418e-38
0.00696849107833 -0.0529089137428 0.137 1.18939495133e-38
0.00748467560265 -0.0529089137428 0.137 8.66710527067e-39
0.0078840592492 -0.0521365208415 0.135 5.34806259559e-39
0.00839270823302 -0.0521365208415 0.135 4.79237768956e-39
0.00883542123746 -0.0517503243908 0.134 4.14808447774e-39
0.00941000620066 -0.0521365208415 0.135 6.63808535016e-39
0.00991865518448 -0.0521365208415 0.135 1.07886837573e-38
0.0104273041683 -0.0521365208415 0.135 1.24482050949e-38
0.0110169602125 -0.0525227172922 0.136 1.2632593552e-38
0.0116141517972 -0.0529089137428 0.137 1.27247891819e-38
0.0121303363215 -0.0529089137428 0.137 1.26325921507e-38
0.0125542104747 -0.0525227172922 0.136 1.2632593552e-38
0.0130666272288 -0.0525227172922 0.136 1.28169848117e-38
0.0137787358061 -0.0532951101935 0.138 1.28169848117e-38
0.0145059154645 -0.0540675030949 0.14 1.2632593552e-38
0.0151407847517 -0.0544536995456 0.141 1.22638138352e-38
0.0154497419122 -0.0536813066442 0.139 1.09730750171e-38
0.0159734619771 -0.0536813066442 0.139 9.77453182885e-39
0.016378497279 -0.0532951101935 0.138 9.77453182885e-39
0.0168984495736 -0.0532951101935 0.138 1.01433115457e-38
0.0174184018681 -0.0532951101935 0.138 1.20794197728e-38
0.0178083660891 -0.0529089137428 0.137 1.2632593552e-38
0.0184583064573 -0.0532951101935 0.138 1.30013760715e-38
0.0189782587518 -0.0532951101935 0.138 1.31857673312e-38
0.020063376584 -0.0548398959962 0.142 1.28169848117e-38
0.0210335774235 -0.0559984853483 0.145 1.24482022923e-38
0.0215799041098 -0.0559984853483 0.145 1.23560066624e-38
0.0221262307961 -0.0559984853483 0.145 1.23560066624e-38
0.0220471076209 -0.0544536995456 0.141 1.27247891819e-38
0.0222581027549 -0.0536813066442 0.139 1.27247891819e-38
0.0227818228197 -0.0536813066442 0.139 1.29091804416e-38
0.0231378771084 -0.0532951101935 0.138 1.30013760715e-38
0.0240006964958 -0.0540675030949 0.14 1.30935717013e-38
0.0245281843308 -0.0540675030949 0.14 1.30935717013e-38
0.0250556721659 -0.0540675030949 0.14 1.30935717013e-38
0.025583160001 -0.0540675030949 0.14 1.33690851963e-38
0.0262971524635 -0.0544536995456 0.141 1.31846939366e-38
0.0264478632735 -0.0536813066442 0.139 1.29073881809e-38
0.0269715833383 -0.0536813066442 0.139 1.02337149148e-38
0.027297495465 -0.0532951101935 0.138 8.2976094903e-39
0.0282205991763 -0.0540675030949 0.14 6.54589252289e-39
0.0289534304901 -0.0544536995456 0.141 6.91395617623e-39
0.0292755748465 -0.0540675030949 0.14 9.12665129295e-39
0.0298030626816 -0.0540675030949 0.14 1.16184416235e-38
0.030547197306 -0.0544536995456 0.141 1.27247891819e-38
0.031298867471 -0.0548398959962 0.142 1.30935717013e-38
0.0313855261868 -0.0540675030949 0.14 1.30013760715e-38
0.032140964122 -0.0544536995456 0.141 1.30935717013e-38
0.0326722197273 -0.0544536995456 0.141 1.30935717013e-38
0.0334389609733 -0.0548398959962 0.142 1.30935717013e-38
0.033734730938 -0.0544536995456 0.141 1.30935717013e-38
0.0342659865433 -0.0544536995456 0.141 1.28169876143e-38
0.0345504531972 -0.0540675030949 0.14 1.10641916471e-38
0.0353284977539 -0.0544536995456 0.141 8.02101699551e-39
0.0361140778512 -0.0548398959962 0.142 5.16295527235e-39
0.0366491012267 -0.0548398959962 0.142 4.79417275289e-39
0.0371841246023 -0.0548398959962 0.142 5.5317349892e-39
0.0377191479779 -0.0548398959962 0.142 9.31247467971e-39
0.0385235669264 -0.0552260924469 0.143 1.18950313157e-38
0.038789194729 -0.0548398959962 0.142 1.30013760715e-38
0.0393242181046 -0.0548398959962 0.142 1.30935717013e-38
0.0401399403639 -0.0552260924469 0.143 1.30935717013e-38
0.0406787315097 -0.0552260924469 0.143 1.30935717013e-38
0.0412175226555 -0.0552260924469 0.143 1.29091804416e-38
0.0420483159957 -0.0556122888976 0.144 1.29091804416e-38
0.0425908749118 -0.0556122888976 0.144 1.30013760715e-38
0.0431334338279 -0.0556122888976 0.144 1.29091804416e-38
0.0433726872388 -0.0552260924469 0.143 1.27237129847e-38
0.04421855166 -0.0556122888976 0.144 1.18939523159e-38
0.0444502695304 -0.0552260924469 0.143 1.14329741666e-38
0.0446744518603 -0.0548398959962 0.142 1.15251697964e-38
0.0452094752359 -0.0548398959962 0.142 1.22627348353e-38
0.0463887873243 -0.0556122888976 0.144 1.27237129847e-38
0.0469313462404 -0.0556122888976 0.144 1.30002998742e-38
0.0468145453626 -0.0548398959962 0.142 1.3184691134e-38
0.0480164640726 -0.0556122888976 0.144 1.29081042444e-38
0.0485590229886 -0.0556122888976 0.144 1.18939523159e-38
0.0491015819047 -0.0556122888976 0.144 1.10641916471e-38
0.0499888917987 -0.0559984853483 0.145 1.12485829068e-38
0.050535218485 -0.0559984853483 0.145 1.17095610562e-38
0.0507292586529 -0.0556122888976 0.144 1.27237129847e-38
0.0516278718577 -0.0559984853483 0.145 1.30924955041e-38
0.0518143764851 -0.0556122888976 0.144 1.3184691134e-38
0.0523569354011 -0.0556122888976 0.144 1.30013760715e-38
0.0532668519166 -0.0559984853483 0.145 1.28177036778e-38
0.0541843039726 -0.0563846817989 0.146 1.28177036778e-38
0.0539846121494 -0.0556122888976 0.144 1.25421957881e-38
0.0552844928858 -0.0563846817989 0.146 1.29098993077e-38
0.0558345873424 -0.0563846817989 0.146 1.29091804416e-38
0.0567708782496 -0.0567708782496 0.147 1.18017538834e-38
0.0569347762555 -0.0563846817989 0.146 9.03588498752e-39
0.0574848707121 -0.0563846817989 0.146 6.36078239705e-39
0.0576374654072 -0.0559984853483 0.145 5.53102172828e-39
0.0585850596252 -0.0563846817989 0.146 5.5317377918e-39
0.0591351540818 -0.0563846817989 0.146 8.02101979811e-39
0.0600940516106 -0.0567708782496 0.147 1.14329741666e-38
0.0610604846798 -0.0571570747003 0.148 1.27237129847e-38
0.0612017760642 -0.0567708782496 0.147 1.28169848117e-38
0.0609154255252 -0.0559984853483 0.145 1.30013760715e-38
0.0614617522115 -0.0559984853483 0.145 1.30935703e-38
0.0620080788978 -0.0559984853483 0.145 1.30935703e-38
0.0621229958905 -0.0556122888976 0.144 1.30935717013e-38
0.0622303773426 -0.0552260924469 0.143 1.32768839612e-38
0.0632081137226 -0.0556122888976 0.144 1.3184691134e-38
0.0641933856431 -0.0559984853483 0.145 1.18932334498e-38
0.0651861931041 -0.0563846817989 0.146 9.03517172661e-39
0.0652860390158 -0.0559984853483 0.145 7.74443290852e-39
0.0662863820173 -0.0563846817989 0.146 7.00686786961e-39
0.0668364764739 -0.0563846817989 0.146 8.20612712135e-39
0.0669250190748 -0.0559984853483 0.145 1.01433115457e-38
0.0670060261351 -0.0556122888976 0.144 1.23560066624e-38
0.0684867598436 -0.0563846817989 0.146 1.29098979064e-38
0.0690368543002 -0.0563846817989 0.146 1.31857673312e-38
0.0691103258201 -0.0559984853483 0.145 1.33690823937e-38
0.0701370432133 -0.0563846817989 0.146 1.30002998742e-38
0.0702029791927 -0.0559984853483 0.145 1.29081042444e-38
0.0702613796316 -0.0556122888976 0.144 1.30002998742e-38
0.071787326583 -0.0563846817989 0.146 1.31846883314e-38
0.0718419592517 -0.0559984853483 0.145 1.31846883314e-38
0.072388285938 -0.0559984853483 0.145 1.30924927015e-38
0.0734376099528 -0.0563846817989 0.146 1.29081014418e-38
0.0739877044093 -0.0563846817989 0.146 1.26318718833e-38
0.0750483317349 -0.0567708782496 0.147 1.26318718833e-38
0.0745735926833 -0.0559984853483 0.145 1.26333124181e-38
0.0756379877791 -0.0563846817989 0.146 1.30013760715e-38
0.0761880822356 -0.0563846817989 0.146 1.30935745039e-38
0.0762125727423 -0.0559984853483 0.145 1.27237129847e-38
0.0772882711488 -0.0563846817989 0.146 1.20783463782e-38
0.0773052261149 -0.0559984853483 0.145 1.08790843239e-38
0.0778515528012 -0.0559984853483 0.145 9.49615267852e-39
0.0778572044566 -0.0556122888976 0.144 9.31104255268e-39
0.0794886489751 -0.0563846817989 0.146 1.00511159158e-38
0.0800387434317 -0.0563846817989 0.146 1.16184416235e-38
0.0800368595465 -0.0559984853483 0.145 1.23560066624e-38
0.0800274401209 -0.0556122888976 0.144 1.28169848117e-38
0.080569999037 -0.0556122888976 0.144 1.29091804416e-38
0.082239121258 -0.0563846817989 0.146 1.29091804416e-38
0.0827892157145 -0.0563846817989 0.146 1.29091804416e-38
0.0833393101711 -0.0563846817989 0.146 1.29091804416e-38
0.0850385745541 -0.0571570747003 0.148 1.31857701338e-38
0.0844394990843 -0.0563846817989 0.146 1.29081042444e-38
0.0838253525334 -0.0556122888976 0.144 1.25386056614e-38
0.0849537997235 -0.0559984853483 0.145 9.95640915913e-39
0.0866794384982 -0.0567708782496 0.147 6.82176054637e-39
0.0884201483539 -0.057543271151 0.149 5.53102172828e-39
0.0877871629519 -0.0567708782496 0.147 5.53138466459e-39
-0.0738558324506 -0.0504805858164 0.132 1.15251669938e-38
-0.0733584867775 -0.0504805858164 0.132 1.1156387277e-38
-0.0728611411044 -0.0504805858164 0.132 1.11556712135e-38
-0.0718155848599 -0.050098157136 0.131 1.15244537329e-38
-0.0718664497583 -0.0504805858164 0.132 1.21698259446e-38
