VERSION .7
FIELDS x y z rgb
SIZE 4 4 4 4
TYPE F F F F
COUNT 1 1 1 1
WIDTH 839
HEIGHT 1
VIEWPOINT 0 0 0 1 0 0 0
POINTS 839
DATA ascii
0.0449890606763 -0.0217080082983 0.167 8.94477116008e-39
0.0458914416513 -0.021837996372 0.168 1.02344309783e-38
0.0465244270533 -0.021837996372 0.168 1.02344309783e-38
0.0471574124554 -0.021837996372 0.168 1.05110178679e-38
0.0480748645114 -0.0219679844456 0.169 9.77345282903e-39
0.0484233832596 -0.021837996372 0.168 7.19197519285e-39
0.0490563686617 -0.021837996372 0.168 5.44025822545e-39
0.0496893540638 -0.021837996372 0.168 5.62464948518e-39
0.0500228017309 -0.0217080082983 0.167 7.65295334217e-39
0.050955324868 -0.021837996372 0.168 9.58834550579e-39
0.0522024568209 -0.0220979725193 0.17 1.03259105447e-38
0.0528429777635 -0.0220979725193 0.17 1.03259105447e-38
0.0541127163379 -0.0223579486665 0.172 9.12736735647e-39
0.054760772821 -0.0223579486665 0.172 5.34734933467e-39
0.0550866849476 -0.0222279605929 0.171 3.31904547768e-39
0.0557309736605 -0.0222279605929 0.171 3.96441488672e-39
0.0570346221672 -0.0224879367402 0.173 7.28310163199e-39
0.0573529987533 -0.0223579486665 0.172 9.77345282903e-39
0.0583382706738 -0.0224879367402 0.173 1.03259077421e-38
0.0583081285118 -0.0222279605929 0.171 1.01411563487e-38
0.0592971682026 -0.0223579486665 0.172 7.92738503472e-39
0.0595967059375 -0.0222279605929 0.171 4.05516858046e-39
0.0627070002793 -0.0231378771084 0.178 2.94954409211e-39
0.0623095005179 -0.0227479128875 0.175 3.59563236727e-39
0.0629688603117 -0.0227479128875 0.175 7.92918710455e-39
0.062537450618 -0.0223579486665 0.172 1.01422325459e-38
0.0628181495017 -0.0222279605929 0.171 1.02344309783e-38
0.0634624382145 -0.0222279605929 0.171 9.58762944227e-39
0.0656062994871 -0.0227479128875 0.175 5.80761142047e-39
0.0670229811013 -0.0230078890348 0.177 2.76515563498e-39
0.0665425903943 -0.0226179248138 0.174 2.48856874539e-39
0.0679705753193 -0.0228779009611 0.176 4.97892694892e-39
0.0686337028834 -0.0228779009611 0.176 9.22028185244e-39
0.0685093664651 -0.0226179248138 0.174 1.03266266082e-38
0.0699599580115 -0.0228779009611 0.176 9.86564845889e-39
0.0706230855756 -0.0228779009611 0.176 8.02030373459e-39
0.0708811778378 -0.0227479128875 0.175 4.42467416992e-39
0.072358143776 -0.0230078890348 0.177 3.04173972197e-39
0.0734376099528 -0.0231378771084 0.178 4.05589165047e-39
0.0741082730574 -0.0231378771084 0.178 8.29832275121e-39
0.0751990425449 -0.023267865182 0.179 9.86564845889e-39
0.0771450958793 -0.023657829403 0.182 9.95712802524e-39
0.0879058477147 -0.0262575908758 0.202 4.97677175188e-39
0.0921784991788 -0.027297495465 0.21 4.51687260238e-39
0.0978395739802 -0.028727364275 0.221 8.2976094903e-39
0.101797616628 -0.0296372807905 0.228 9.77345282903e-39
0.10490791097 -0.0302872211588 0.233 9.77452902625e-39
0.105785801439 -0.0302872211588 0.233 9.95784408875e-39
0.106663691907 -0.0302872211588 0.233 8.20612712135e-39
0.10708003052 -0.0301572330851 0.232 7.00758393313e-39
0.107488833592 -0.0300272450115 0.231 6.73099704354e-39
0.10835918852 -0.0300272450115 0.231 8.85149653039e-39
0.108756688281 -0.0298972569378 0.23 9.86564845889e-39
0.109146652502 -0.0297672688642 0.229 9.95784408875e-39
0.109048690476 -0.0295072927169 0.227 9.68125719916e-39
0.109419815845 -0.0293773046433 0.226 9.77345002643e-39
0.110271331922 -0.0293773046433 0.226 8.94369216026e-39
0.111122847998 -0.0293773046433 0.226 9.03588779012e-39
0.110487978711 -0.0289873404223 0.223 9.49686593944e-39
0.110828961919 -0.0288573523487 0.222 9.68126000176e-39
0.112671401571 -0.029117328496 0.224 9.77345563162e-39
0.114022147206 -0.0292473165696 0.225 9.77345563162e-39
0.111806698299 -0.0284673881278 0.219 9.5890643719e-39
0.113146140623 -0.0285973762014 0.22 9.49614987592e-39
0.11242084485 -0.0282074119805 0.217 9.49614987592e-39
0.113760287174 -0.0283374000541 0.218 9.58834550579e-39
0.115107265038 -0.0284673881278 0.219 9.68054113565e-39
0.116461778443 -0.0285973762014 0.22 1.00493236551e-38
0.117290687898 -0.0285973762014 0.22 9.95712802524e-39
0.117582690093 -0.0284673881278 0.219 9.77273676551e-39
0.118407831778 -0.0284673881278 0.219 9.86493239538e-39
0.117599645059 -0.0280774239068 0.216 9.77273676551e-39
0.119509904576 -0.0283374000541 0.218 9.86493239538e-39
0.121435235174 -0.0285973762014 0.22 9.95712802524e-39
0.121708398517 -0.0284673881278 0.219 1.00493236551e-38
0.123093054084 -0.0285973762014 0.22 9.95712802524e-39
0.123921963539 -0.0285973762014 0.22 9.95712802524e-39
0.123616774149 -0.0283374000541 0.218 9.95712802524e-39
0.125008965257 -0.0284673881278 0.219 9.95712802524e-39
0.125834106942 -0.0284673881278 0.219 9.86493239538e-39
0.127815954093 -0.028727364275 0.221 9.86493239538e-39
0.128648631319 -0.028727364275 0.221 9.86493239538e-39
0.130067196818 -0.0288573523487 0.222 9.86493239538e-39
0.132672609946 -0.0292473165696 0.225 9.86493239538e-39
0.144795410727 -0.0317170899688 0.244 9.86493239538e-39
0.166019260548 -0.0361366844727 0.278 9.86493239538e-39
-0.0710657985801 -0.0150202161037 0.119 5.52743300292e-39
-0.0712108577347 -0.0151464364071 0.12 6.81888788452e-39
-0.0713483813489 -0.0152726567105 0.121 9.86313733204e-39
-0.0703065928746 -0.0151464364071 0.12 1.22616558355e-38
-0.0704365809482 -0.0152726567105 0.121 1.29084587729e-38
-0.0694023280145 -0.0151464364071 0.12 1.30939262298e-38
-0.0689501955844 -0.0151464364071 0.12 1.29102510336e-38
-0.0690688803473 -0.0152726567105 0.121 1.2725508048e-38
-0.0691800295697 -0.0153988770139 0.122 1.02355099782e-38
-0.069846924904 -0.0156513176206 0.124 7.19197799545e-39
-0.0710582630396 -0.0160299785308 0.127 4.88565231924e-39
-0.0694682639939 -0.015777537924 0.125 5.06896738175e-39
-0.0684453143708 -0.0156513176206 0.124 4.51579079997e-39
-0.0668816897169 -0.0153988770139 0.122 6.08419270487e-39
-0.0653331361439 -0.0151464364071 0.12 1.02329960487e-38
-0.0648810037139 -0.0151464364071 0.12 1.24482022923e-38
-0.0644288712838 -0.0151464364071 0.12 1.30935717013e-38
-0.0650430178346 -0.0153988770139 0.122 1.31857673312e-38
-0.0661714650247 -0.015777537924 0.125 1.30002998742e-38
-0.0662260976933 -0.0159037582274 0.126 1.18939523159e-38
-0.0647076862823 -0.0156513176206 0.124 9.22027904985e-39
-0.0637224143618 -0.0155250973172 0.123 5.80832468139e-39
-0.0627446779818 -0.0153988770139 0.122 4.70197712303e-39
-0.0617744771423 -0.0152726567105 0.121 4.33247854006e-39
-0.0618253420407 -0.0153988770139 0.122 4.9778479491e-39
-0.0618686713986 -0.0155250973172 0.123 8.20541105784e-39
-0.0629029243323 -0.0159037582274 0.126 1.18010406225e-38
-0.0624281852808 -0.0159037582274 0.126 1.32768867638e-38
-0.0619534462292 -0.0159037582274 0.126 1.32768867638e-38
-0.0605028546828 -0.0156513176206 0.124 1.31857673312e-38
-0.0585831757401 -0.0152726567105 0.121 1.2632593552e-38
-0.0571664941259 -0.0150202161037 0.119 1.07868858914e-38
-0.0571947524028 -0.0151464364071 0.12 8.2976066877e-39
-0.0572154751392 -0.0152726567105 0.121 5.43954496453e-39
-0.0581668371274 -0.0156513176206 0.124 4.70162399582e-39
-0.0581649532423 -0.015777537924 0.125 5.254797775e-39
-0.057693981961 -0.015777537924 0.125 8.02102260071e-39
-0.0563074425088 -0.0155250973172 0.123 1.16166493628e-38
-0.0553899904528 -0.0153988770139 0.122 1.31839722679e-38
-0.0544800739373 -0.0152726567105 0.121 1.33690823937e-38
-0.0535776929623 -0.0151464364071 0.12 1.32768867638e-38
-0.0535682735367 -0.0152726567105 0.121 1.33690823937e-38
-0.0531123733364 -0.0152726567105 0.121 1.24471260951e-38
-0.0539620055279 -0.0156513176206 0.124 1.09719960173e-38
-0.0534948020168 -0.0156513176206 0.124 8.11393149149e-39
-0.0521723146589 -0.0153988770139 0.122 7.09977956299e-39
-0.0512887725351 -0.0152726567105 0.121 7.8373446019e-39
-0.0504127659519 -0.0151464364071 0.12 9.8663715289e-39
-0.0499606335218 -0.0151464364071 0.12 1.18946753859e-38
-0.0495085010918 -0.0151464364071 0.12 1.30935745039e-38
-0.0490563686617 -0.0151464364071 0.12 1.29091832442e-38
-0.0490092715336 -0.0152726567105 0.121 1.31857701338e-38
-0.0489546388649 -0.0153988770139 0.122 1.29091804416e-38
-0.0473024716101 -0.0150202161037 0.119 1.30013760715e-38
-0.0464603749591 -0.0148939958003 0.118 1.23560066624e-38
-0.0460157780695 -0.0148939958003 0.118 1.18028328832e-38
-0.0451849847293 -0.0147677754969 0.117 1.10652678443e-38
-0.04474415561 -0.0147677754969 0.117 1.12496591041e-38
-0.045060648311 -0.0150202161037 0.119 1.23560066624e-38
-0.0446122836512 -0.0150202161037 0.119 1.28169848117e-38
-0.0445350443611 -0.0151464364071 0.12 1.31857673312e-38
-0.044082911931 -0.0151464364071 0.12 1.31857673312e-38
-0.043630779501 -0.0151464364071 0.12 1.31857673312e-38
-0.0431786470709 -0.0151464364071 0.12 1.32779629611e-38
-0.0427265146408 -0.0151464364071 0.12 1.32779629611e-38
-0.0422743822108 -0.0151464364071 0.12 1.32779629611e-38
-0.0421707685289 -0.0152726567105 0.121 1.30935717013e-38
-0.0417148683286 -0.0152726567105 0.121 1.30013760715e-38
-0.0415999513359 -0.0153988770139 0.122 1.30013760715e-38
-0.0411402833654 -0.0153988770139 0.122 1.30013760715e-38
-0.0406806153948 -0.0153988770139 0.122 1.30013760715e-38
-0.0402209474242 -0.0153988770139 0.122 1.30935717013e-38
-0.0397612794537 -0.0153988770139 0.122 1.30935717013e-38
-0.0396237558395 -0.0155250973172 0.123 1.30935717013e-38
-0.0391603200987 -0.0155250973172 0.123 1.30935717013e-38
-0.0390114931738 -0.0156513176206 0.124 1.28169848117e-38
-0.0388551307084 -0.015777537924 0.125 1.29091804416e-38
-0.0383841594271 -0.015777537924 0.125 1.29091804416e-38
-0.0379131881458 -0.015777537924 0.125 1.27247891819e-38
-0.0374422168645 -0.015777537924 0.125 1.25403979221e-38
-0.0369712455832 -0.015777537924 0.125 1.25403979221e-38
-0.0367922764963 -0.0159037582274 0.126 1.23560066624e-38
-0.0366057718689 -0.0160299785308 0.127 1.21716154027e-38
-0.0361272650471 -0.0160299785308 0.127 1.23560066624e-38
-0.0356487582252 -0.0160299785308 0.127 1.22638110326e-38
-0.0351702514034 -0.0160299785308 0.127 1.22638110326e-38
-0.0346917445816 -0.0160299785308 0.127 1.22638110326e-38
-0.0344826333327 -0.0161561988342 0.128 1.1987224143e-38
-0.0340003587406 -0.0161561988342 0.128 1.20794197728e-38
-0.033779944181 -0.0162824191376 0.129 1.21716154027e-38
-0.0335519940808 -0.016408639441 0.13 1.20794197728e-38
-0.0330621839483 -0.016408639441 0.13 1.21716154027e-38
-0.0325723738157 -0.016408639441 0.13 1.21716154027e-38
-0.0320825636831 -0.016408639441 0.13 1.20794197728e-38
-0.0318357747317 -0.0165348597444 0.131 1.20794197728e-38
-0.0313421968289 -0.0165348597444 0.131 1.21716140014e-38
-0.0308486189261 -0.0165348597444 0.131 1.20794183715e-38
-0.0305867588937 -0.0166610800478 0.132 1.1987224143e-38
-0.0300894132206 -0.0166610800478 0.132 1.1987224143e-38
-0.0295920675475 -0.0166610800478 0.132 1.18028328832e-38
-0.0290947218745 -0.0166610800478 0.132 1.18028356858e-38
-0.0285973762014 -0.0166610800478 0.132 1.18950313157e-38
-0.0281000305283 -0.0166610800478 0.132 1.18950313157e-38
-0.0278117961042 -0.0167873003512 0.133 1.19861451432e-38
-0.0275160261395 -0.0169135206546 0.134 1.21705364029e-38
-0.0270111449259 -0.0169135206546 0.134 1.22627320327e-38
-0.0267040716505 -0.0170397409579 0.135 1.22627320327e-38
-0.0260013824988 -0.0169135206546 0.134 1.1987224143e-38
-0.0251159564899 -0.0166610800478 0.132 1.16184416235e-38
-0.0248051154443 -0.0167873003512 0.133 1.14340503638e-38
-0.0246694757152 -0.0170397409579 0.135 1.15262459937e-38
-0.0245187649052 -0.0172921815647 0.137 1.16191590883e-38
-0.0243529830142 -0.0175446221715 0.139 1.15269634585e-38
-0.0241721300422 -0.0177970627783 0.141 1.18035503481e-38
-0.0234732086607 -0.0176708424749 0.14 1.18035503481e-38
-0.0226179248138 -0.0174184018681 0.138 1.17113547182e-38
-0.0220979725193 -0.0174184018681 0.138 1.17113547182e-38
-0.0217343826901 -0.0175446221715 0.139 1.14347678286e-38
-0.0213632573204 -0.0176708424749 0.14 1.051281153e-38
-0.02128225026 -0.0180495033851 0.143 9.8663715289e-39
-0.0210335774235 -0.0183019439919 0.145 9.68198026917e-39
-0.020769833506 -0.0185543845987 0.147 1.02351540484e-38
-0.0192533059801 -0.0176708424749 0.14 1.13418575365e-38
-0.0183245506134 -0.0172921815647 0.137 1.18939523159e-38
-0.0179383541627 -0.0174184018681 0.138 1.21705392055e-38
-0.0177970627783 -0.0177970627783 0.141 1.19861479457e-38
-0.0176331647724 -0.0181757236885 0.144 1.18017538834e-38
-0.0173279753821 -0.0184281642953 0.146 1.10634755836e-38
-0.0171226319035 -0.0188068252054 0.149 7.92882416825e-39
-0.0158943388018 -0.0180495033851 0.143 6.63808535016e-39
-0.0151407847517 -0.0177970627783 0.141 7.00758393313e-39
-0.0145059154645 -0.0176708424749 0.14 9.03588779012e-39
-0.0139784276294 -0.0176708424749 0.14 1.08798003874e-38
-0.0136430960771 -0.0179232830817 0.142 1.13418575365e-38
-0.0132003830727 -0.0180495033851 0.143 1.15262459937e-38
-0.0127501345277 -0.0181757236885 0.144 1.16184402222e-38
-0.0119532511198 -0.0177970627783 0.141 1.13407757341e-38
-0.011340988454 -0.0176708424749 0.14 7.37564758647e-39
-0.010813500619 -0.0176708424749 0.14 3.87149758815e-39
-0.0102860127839 -0.0176708424749 0.14 3.22505198188e-39
-0.00975852494883 -0.0176708424749 0.14 4.2402829102e-39
-0.00923103711376 -0.0176708424749 0.14 7.83662853838e-39
-0.00870354927869 -0.0176708424749 0.14 1.09712771511e-38
-0.00817606144362 -0.0176708424749 0.14 1.12496591041e-38
-0.00770320627718 -0.0177970627783 0.141 1.11574634742e-38
-0.00712108577347 -0.0176708424749 0.14 1.12485829068e-38
-0.0065935979384 -0.0176708424749 0.14 8.02173866422e-39
-0.00606611010333 -0.0176708424749 0.14 4.42539023344e-39
-0.00557818385589 -0.0177970627783 0.141 2.7658716985e-39
-0.00508272206794 -0.0179232830817 0.142 2.58112450896e-39
-0.00454769869237 -0.0179232830817 0.142 4.33284147636e-39
-0.00404093359368 -0.0180495033851 0.143 9.1291624198e-39
-0.00350214244785 -0.0180495033851 0.143 1.09730722145e-38
-0.00296335130203 -0.0180495033851 0.143 1.12496591041e-38
-0.00244151512233 -0.0181757236885 0.144 1.11567418055e-38
-0.00189895620626 -0.0181757236885 0.144 9.77345002643e-39
-0.00136581671581 -0.0183019439919 0.145 5.62464948518e-39
-0.000819490029487 -0.0183019439919 0.145 3.22684704522e-39
-0.000273163343162 -0.0183019439919 0.145 2.95026295822e-39
0.000273163343162 -0.0183019439919 0.145 2.39888143978e-39
0.000825141684863 -0.0184281642953 0.146 7.00866293295e-39
0.00137523614144 -0.0184281642953 0.146 1.06042924976e-38
0.00193851779389 -0.0185543845987 0.147 1.09730750171e-38
0.00249238002071 -0.0185543845987 0.147 1.09730750171e-38
0.00304624224754 -0.0185543845987 0.147 1.04199012379e-38
0.00360010447437 -0.0185543845987 0.147 7.46964108226e-39
0.00415396670119 -0.0185543845987 0.147 4.05840277732e-39
0.00473985497515 -0.018680604902 0.148 2.95205241636e-39
0.00529748497222 -0.018680604902 0.148 3.32083493582e-39
0.00589467655693 -0.0188068252054 0.149 7.28524701994e-39
0.00649940368214 -0.0189330455088 0.15 1.06964853249e-38
0.00706456921971 -0.0189330455088 0.15 1.12496591041e-38
0.00762973475729 -0.0189330455088 0.15 1.07886809547e-38
0.00819490029487 -0.0189330455088 0.15 1.09730722145e-38
0.00881846627133 -0.0190592658122 0.151 9.31355087693e-39
0.00938739957916 -0.0190592658122 0.151 6.823195476e-39
0.0100222688664 -0.0191854861156 0.152 5.71684791764e-39
0.0105949699444 -0.0191854861156 0.152 6.54660578381e-39
0.0112411425424 -0.019311706419 0.153 9.22135804967e-39
0.0117403721006 -0.0191854861156 0.152 1.10659867104e-38
0.0123940802391 -0.019311706419 0.153 1.09737910806e-38
0.013055323918 -0.0194379267224 0.154 1.1158180939e-38
0.0136355605366 -0.0194379267224 0.154 1.06060861596e-38
0.0142157971552 -0.0194379267224 0.154 1.07886809547e-38
0.0147960337738 -0.0194379267224 0.154 9.22135524707e-39
0.0151765785691 -0.0191854861156 0.152 8.76037709775e-39
0.0159565070109 -0.0194379267224 0.154 9.40574650679e-39
0.0166441250816 -0.0195641470258 0.155 1.02355071756e-38
0.0174504279153 -0.0198165876326 0.157 1.08808765846e-38
0.0183867188225 -0.0201952485428 0.16 1.09730722145e-38
0.0192269315884 -0.0204476891495 0.162 1.07886809547e-38
0.0194699527695 -0.0200690282394 0.159 1.08798003874e-38
0.0196903673292 -0.0196903673292 0.156 1.08797975848e-38
0.0204081275619 -0.0198165876326 0.157 1.04188194355e-38
0.0216684467107 -0.0204476891495 0.162 1.00511159158e-38
0.0228289199479 -0.0209525703631 0.166 1.06964839236e-38
0.0238782439626 -0.0213312312733 0.169 1.07886795534e-38
0.0236446422071 -0.0205739094529 0.163 1.08815940494e-38
0.0236634810584 -0.0200690282394 0.159 1.06053630896e-38
0.0242625565282 -0.0200690282394 0.159 1.08808765846e-38
0.0253307193942 -0.0204476891495 0.162 1.07886809547e-38
0.0265816191174 -0.0209525703631 0.166 1.06964853249e-38
0.0283543550202 -0.0218361124869 0.173 1.0604289695e-38
0.0278325188405 -0.0209525703631 0.166 1.05120940652e-38
0.0274293674237 -0.0201952485428 0.16 1.06964853249e-38
0.0280322106638 -0.0201952485428 0.16 1.07886809547e-38
0.0286350539039 -0.0201952485428 0.16 1.0604289695e-38
0.0303343182869 -0.0209525703631 0.166 1.05120940652e-38
0.0311462727759 -0.0210787906665 0.167 1.05120940652e-38
0.0310144008171 -0.0205739094529 0.163 1.0604289695e-38
0.0310464268642 -0.0201952485428 0.16 1.05120940652e-38
0.0316492701043 -0.0201952485428 0.16 1.05120940652e-38
0.0322521133444 -0.0201952485428 0.16 1.04198984353e-38
0.0330603000631 -0.0203214688461 0.161 1.04198984353e-38
0.0340851335713 -0.0205739094529 0.163 1.04198984353e-38
0.034486401103 -0.0204476891495 0.162 1.06954091277e-38
0.0350967798835 -0.0204476891495 0.162 1.06954091277e-38
0.0357071586641 -0.0204476891495 0.162 1.06954091277e-38
0.0360933551148 -0.0203214688461 0.161 1.06032134978e-38
0.0366999661251 -0.0203214688461 0.161 1.06032134978e-38
0.0377700128763 -0.0205739094529 0.163 1.06032134978e-38
0.0381486737865 -0.0204476891495 0.162 1.05110178679e-38
0.0385197991561 -0.0203214688461 0.161 1.05110178679e-38
0.0391264101665 -0.0203214688461 0.161 1.05120968678e-38
0.0399798101282 -0.0204476891495 0.162 1.05120968678e-38
0.0405901889088 -0.0204476891495 0.162 1.04199012379e-38
0.0412005676894 -0.0204476891495 0.162 1.04199012379e-38
0.0423271309943 -0.0207001297563 0.164 1.0327705608e-38
0.0432069053478 -0.0208263500597 0.165 9.95892308857e-39
0.0440942152418 -0.0209525703631 0.166 1.00511187184e-38
0.0447196651034 -0.0209525703631 0.166 9.95892308857e-39
0.0458914416513 -0.0212050109699 0.168 1.05110178679e-38
0.0468013581668 -0.0213312312733 0.169 1.04188222381e-38
0.0474381113391 -0.0213312312733 0.169 1.05110178679e-38
0.0483593311653 -0.0214574515767 0.17 1.02344309783e-38
0.0487116176838 -0.0213312312733 0.169 9.49686593944e-39
0.0493483708561 -0.0213312312733 0.169 8.94369216026e-39
0.0496893540638 -0.0212050109699 0.168 9.12808341998e-39
0.0503223394659 -0.0212050109699 0.168 9.68125719916e-39
0.0512586303731 -0.0213312312733 0.169 1.00500397186e-38
0.0528166033717 -0.0217098921835 0.172 1.03266266082e-38
0.0534646598548 -0.0217098921835 0.172 1.03266266082e-38
0.0544273251538 -0.0218361124869 0.173 9.5890643719e-39
0.0550791494071 -0.0218361124869 0.173 8.11393429408e-39
0.0554088293041 -0.0217098921835 0.172 7.09978236559e-39
0.0557309736605 -0.0215836718801 0.171 7.92918710455e-39
0.0570346221672 -0.0218361124869 0.173 9.40431718236e-39
0.0583533417548 -0.0220885530936 0.175 9.77453182885e-39
0.0586754861113 -0.0219623327902 0.174 1.03266266082e-38
0.0589900949272 -0.0218361124869 0.173 1.00493208525e-38
0.0596419191805 -0.0218361124869 0.173 8.48127908131e-39
0.060642262182 -0.0219623327902 0.174 5.62321455555e-39
0.0627070002793 -0.0224672140038 0.178 5.5317405944e-39
0.0623095005179 -0.0220885530936 0.175 6.45405702673e-39
0.0629688603117 -0.0220885530936 0.175 9.40539618218e-39
0.0629010404472 -0.0218361124869 0.173 1.02344281757e-38
0.0628181495017 -0.0215836718801 0.171 1.02344309783e-38
0.0642046889539 -0.0218361124869 0.173 9.58762944227e-39
0.0648565132072 -0.0218361124869 0.173 6.08419831006e-39
0.0658869983707 -0.0219623327902 0.174 3.31832941416e-39
0.0657777330335 -0.0217098921835 0.172 3.87150319334e-39
0.0675843788686 -0.0220885530936 0.175 6.5462526566e-39
0.0682437386624 -0.0220885530936 0.175 9.5890643719e-39
0.0692968304475 -0.022214773397 0.176 1.01422353485e-38
0.070357457773 -0.0223409937004 0.177 9.68125719916e-39
0.0718268881707 -0.0225934343072 0.179 7.37493432555e-39
0.0733113896494 -0.022845874914 0.181 3.41052224143e-39
0.072358143776 -0.0223409937004 0.177 2.85734846225e-39
0.0734376099528 -0.0224672140038 0.178 4.70126105951e-39
0.07452461167 -0.0225934343072 0.179 8.5749096408e-39
0.0760392553107 -0.022845874914 0.181 9.77345282903e-39
0.0801122149516 -0.0238556373411 0.189 1.00486075916e-38
0.0829625331461 -0.0244867388581 0.194 7.92811090733e-39
0.0862819387368 -0.0252440606784 0.2 4.60799063373e-39
0.0883410251787 -0.0256227215886 0.203 3.13286055592e-39
0.0917395539446 -0.026380043409 0.209 3.22505618578e-39
0.0973968609758 -0.0277684667463 0.22 8.11249936446e-39
0.100904655079 -0.0285257885666 0.226 9.86565126149e-39
0.10400741388 -0.0291568900836 0.231 9.59014056912e-39
0.106239817754 -0.0295355509938 0.234 9.40395424606e-39
0.107579260078 -0.0296617712972 0.235 5.80832468139e-39
0.108464686087 -0.0296617712972 0.235 3.7800208244e-39
0.108419472844 -0.0294093306904 0.233 3.7800208244e-39
0.108828275916 -0.029283110387 0.232 8.11321542797e-39
0.108756688281 -0.0290306697802 0.23 9.77273676551e-39
0.107240160755 -0.0283995682632 0.225 9.95712802524e-39
0.108568299769 -0.0285257885666 0.226 9.3117586162e-39
0.109419815845 -0.0285257885666 0.226 7.18946406601e-39
0.109783405674 -0.0283995682632 0.225 5.25443483869e-39
0.111122847998 -0.0285257885666 0.226 5.34662766596e-39
0.113460749439 -0.0289044494768 0.229 7.92882416825e-39
0.111827421035 -0.0282733479599 0.224 9.68054113565e-39
0.112671401571 -0.0282733479599 0.224 9.86565126149e-39
0.11250185191 -0.0280209073531 0.222 9.49686874203e-39
0.112827764037 -0.0278946870497 0.221 8.29832555381e-39
0.113660441262 -0.0278946870497 0.221 7.00686786961e-39
0.113975050078 -0.0277684667463 0.22 7.37565038907e-39
0.114803959533 -0.0277684667463 0.22 8.94297609674e-39
0.115107265038 -0.0276422464429 0.219 9.77273676551e-39
0.116991150164 -0.0278946870497 0.221 9.68054113565e-39
0.117823827389 -0.0278946870497 0.221 9.86493239538e-39
0.118119597354 -0.0277684667463 0.22 9.12736735647e-39
0.117867156747 -0.0275160261395 0.218 8.75858483702e-39
0.119232973463 -0.0276422464429 0.219 9.12736735647e-39
0.12115453629 -0.0278946870497 0.221 9.77273676551e-39
0.121435235174 -0.0277684667463 0.22 9.95712802524e-39
0.122264144629 -0.0277684667463 0.22 9.95712802524e-39
0.122533540202 -0.0276422464429 0.219 1.00493236551e-38
0.124485245192 -0.0278946870497 0.221 1.00493236551e-38
0.124183823572 -0.0276422464429 0.219 1.00493236551e-38
0.12557978245 -0.0277684667463 0.22 1.00493236551e-38
0.124684937015 -0.0273898058361 0.217 9.86493239538e-39
0.128394306827 -0.0280209073531 0.222 9.86493239538e-39
0.128648631319 -0.0278946870497 0.221 9.86493239538e-39
0.130067196818 -0.0280209073531 0.222 9.86493239538e-39
0.136210546211 -0.0291568900836 0.231 9.95712802524e-39
0.15844415846 -0.0337008210057 0.267 9.95712802524e-39
-0.0704686069954 -0.0144493989107 0.118 7.55932838787e-39
-0.0700240101058 -0.0144493989107 0.118 8.66639200975e-39
-0.0695794132162 -0.0144493989107 0.118 1.10634755836e-38
-0.0691348163267 -0.0144493989107 0.118 1.27237157873e-38
-0.0686902194371 -0.0144493989107 0.118 1.30924955041e-38
-0.0682456225476 -0.0144493989107 0.118 1.30013760715e-38
-0.067801025658 -0.0144493989107 0.118 1.30013760715e-38
-0.0684980631543 -0.014694303977 0.12 1.2725508048e-38
-0.0680459307243 -0.014694303977 0.12 1.14340531664e-38
-0.0681570799467 -0.0148167565101 0.121 8.94369496285e-39
-0.0677011797464 -0.0148167565101 0.121 5.9919998776e-39
-0.0666895334341 -0.014694303977 0.12 5.52994553106e-39
-0.0673413576874 -0.0149392090433 0.122 5.80652961806e-39
-0.0663334791454 -0.0148167565101 0.121 7.65151841254e-39
-0.0658775789451 -0.0148167565101 0.121 1.08783654578e-38
-0.0654216787448 -0.0148167565101 0.121 1.25403979221e-38
-0.0644288712838 -0.014694303977 0.12 1.30935717013e-38
-0.0639767388537 -0.014694303977 0.12 1.31857673312e-38
-0.0645833498641 -0.0149392090433 0.122 1.3184691134e-38
-0.0657004937433 -0.0153065666427 0.125 1.24471260951e-38
-0.0647076862823 -0.0151841141096 0.124 9.68125719916e-39
-0.0642404827713 -0.0151841141096 0.124 6.17710720084e-39
-0.0627446779818 -0.0149392090433 0.122 4.79417275289e-39
-0.0622850100112 -0.0149392090433 0.122 5.06896738175e-39
-0.0623321071394 -0.0150616615764 0.123 4.79345668938e-39
-0.0618686713986 -0.0150616615764 0.123 8.11249936446e-39
-0.0639013834487 -0.0156739242421 0.128 1.16166493628e-38
-0.0644100324325 -0.0159188293084 0.13 1.32768867638e-38
-0.0634285282823 -0.0157963767753 0.129 1.30013760715e-38
-0.0619666334251 -0.015551471709 0.127 1.30942891661e-38
-0.0590673342173 -0.0149392090433 0.122 1.23567241272e-38
-0.0576468848329 -0.014694303977 0.12 1.04181061746e-38
-0.0567181294661 -0.0145718514439 0.119 6.82247660989e-39
-0.0576883303056 -0.0149392090433 0.122 4.5175886659e-39
-0.0591050119198 -0.0154290191759 0.126 4.2406458465e-39
-0.0590955924942 -0.015551471709 0.127 3.96405895691e-39
-0.0586170856724 -0.015551471709 0.127 6.45369689303e-39
-0.0567652265942 -0.0151841141096 0.124 1.03259105447e-38
-0.0553899904528 -0.0149392090433 0.122 1.29073881809e-38
-0.0544800739373 -0.0148167565101 0.121 1.32768867638e-38
-0.054024173737 -0.0148167565101 0.121 1.30924955041e-38
-0.0531255605322 -0.014694303977 0.12 1.30924955041e-38
-0.0548681542731 -0.0153065666427 0.125 1.15251697964e-38
-0.0557027153836 -0.0156739242421 0.128 8.11393149149e-39
-0.0560832601789 -0.0159188293084 0.13 4.88708444627e-39
-0.0538828823526 -0.0154290191759 0.126 4.33391066709e-39
-0.0521365208415 -0.0150616615764 0.123 4.51830192682e-39
-0.0512529787177 -0.0149392090433 0.122 6.54732885382e-39
-0.0507933107472 -0.0149392090433 0.122 9.95856715876e-39
-0.0503336427766 -0.0149392090433 0.122 1.24482050949e-38
-0.0498739748061 -0.0149392090433 0.122 1.29091832442e-38
-0.0506294127413 -0.0153065666427 0.125 1.30013788741e-38
-0.0509609765233 -0.015551471709 0.127 1.27247891819e-38
-0.0484949708944 -0.0149392090433 0.122 1.22638110326e-38
-0.0472478389414 -0.014694303977 0.12 1.02355071756e-38
-0.0464057422905 -0.0145718514439 0.119 7.10085576021e-39
-0.0463435740813 -0.014694303977 0.12 5.99450820185e-39
-0.0458914416513 -0.014694303977 0.12 6.08670383172e-39
-0.0458179701314 -0.0148167565101 0.121 9.03696398734e-39
-0.0464867493508 -0.0151841141096 0.124 1.17106372534e-38
-0.0460195458398 -0.0151841141096 0.124 1.28169848117e-38
-0.0451849847293 -0.0150616615764 0.123 1.30935717013e-38
-0.0439943693301 -0.0148167565101 0.121 1.30935717013e-38
-0.0435384691298 -0.0148167565101 0.121 1.30935717013e-38
-0.0430825689295 -0.0148167565101 0.121 1.30013760715e-38
-0.0429789552476 -0.0149392090433 0.122 1.20794197728e-38
-0.0425192872771 -0.0149392090433 0.122 1.05120940652e-38
-0.0420596193065 -0.0149392090433 0.122 1.02355071756e-38
-0.0415999513359 -0.0149392090433 0.122 1.08808765846e-38
-0.0411402833654 -0.0149392090433 0.122 1.1987224143e-38
-0.0406806153948 -0.0149392090433 0.122 1.30013760715e-38
-0.0402209474242 -0.0149392090433 0.122 1.30013760715e-38
-0.0400871915803 -0.0150616615764 0.123 1.30013760715e-38
-0.0396237558395 -0.0150616615764 0.123 1.30013760715e-38
-0.0394786966849 -0.0151841141096 0.124 1.30013760715e-38
-0.0393261019897 -0.0153065666427 0.125 1.30013760715e-38
-0.0388551307084 -0.0153065666427 0.125 1.2632593552e-38
-0.0383841594271 -0.0153065666427 0.125 1.22638110326e-38
-0.0379131881458 -0.0153065666427 0.125 1.20794197728e-38
-0.0374422168645 -0.0153065666427 0.125 1.1987224143e-38
-0.0369712455832 -0.0153065666427 0.125 1.20794197728e-38
-0.0367922764963 -0.0154290191759 0.126 1.21716154027e-38
-0.0366057718689 -0.015551471709 0.127 1.21716154027e-38
-0.0361272650471 -0.015551471709 0.127 1.22638110326e-38
-0.0356487582252 -0.015551471709 0.127 1.22638110326e-38
-0.0351702514034 -0.015551471709 0.127 1.21716154027e-38
-0.0346917445816 -0.015551471709 0.127 1.21716154027e-38
-0.0344826333327 -0.0156739242421 0.128 1.20794197728e-38
-0.0340003587406 -0.0156739242421 0.128 1.20794197728e-38
-0.033779944181 -0.0157963767753 0.129 1.18950285131e-38
-0.0335519940808 -0.0159188293084 0.13 1.18950285131e-38
-0.0330621839483 -0.0159188293084 0.13 1.18950285131e-38
-0.0325723738157 -0.0159188293084 0.13 1.1987224143e-38
-0.0320825636831 -0.0159188293084 0.13 1.20794197728e-38
-0.0315927535506 -0.0159188293084 0.13 1.20794197728e-38
-0.0313421968289 -0.0160412818416 0.131 1.20794183715e-38
-0.0308486189261 -0.0160412818416 0.131 1.20794183715e-38
-0.0305867588937 -0.0161637343747 0.132 1.1987224143e-38
-0.0300894132206 -0.0161637343747 0.132 1.20794197728e-38
-0.0295920675475 -0.0161637343747 0.132 1.20794197728e-38
-0.0293151364341 -0.0162861869078 0.133 1.19872269456e-38
-0.0288140229908 -0.0162861869078 0.133 1.20794225754e-38
-0.0283129095475 -0.0162861869078 0.133 1.20794225754e-38
-0.0280209073531 -0.016408639441 0.134 1.2078340773e-38
-0.0275160261395 -0.016408639441 0.134 1.21705364029e-38
-0.0272127206343 -0.0165310919741 0.135 1.21705364029e-38
-0.0267040716505 -0.0165310919741 0.135 1.1987224143e-38
-0.0261954226667 -0.0165310919741 0.135 1.1987224143e-38
-0.0256867736829 -0.0165310919741 0.135 1.18957473792e-38
-0.0253646293265 -0.0166535445073 0.136 1.18035517494e-38
-0.0248522125724 -0.0166535445073 0.136 1.17124351193e-38
-0.0245187649052 -0.0167759970404 0.137 1.18035503481e-38
-0.0241777816975 -0.0168984495736 0.138 1.18035503481e-38
-0.023657829403 -0.0168984495736 0.138 1.18035503481e-38
-0.0231378771084 -0.0168984495736 0.138 1.18035503481e-38
-0.0227818228197 -0.0170209021067 0.139 1.19879416078e-38
-0.0222581027549 -0.0170209021067 0.139 1.18035503481e-38
-0.0217343826901 -0.0170209021067 0.139 1.18957459779e-38
-0.0213632573204 -0.0171433546398 0.14 1.17113547182e-38
-0.0209845964102 -0.017265807173 0.141 1.13436525999e-38
-0.0205983999596 -0.0173882597061 0.142 1.13425736e-38
-0.020063376584 -0.0173882597061 0.142 1.13425736e-38
-0.019115782366 -0.0170209021067 0.139 1.18028328832e-38
-0.0184583064573 -0.0168984495736 0.138 1.16184444261e-38
-0.0180683422363 -0.0170209021067 0.139 1.20783435756e-38
-0.0176708424749 -0.0171433546398 0.14 1.18939523159e-38
-0.0176331647724 -0.0176331647724 0.144 1.20783435756e-38
-0.0173279753821 -0.0178780698387 0.146 1.20779806393e-38
-0.0170077149108 -0.018122974905 0.148 1.10641888445e-38
-0.0158943388018 -0.0175107122393 0.143 1.06954063251e-38
-0.0151407847517 -0.017265807173 0.141 1.06032106952e-38
-0.0147131428283 -0.0173882597061 0.142 1.09730750171e-38
-0.014377811276 -0.0176331647724 0.144 1.12496619067e-38
-0.0141234867841 -0.0180005223718 0.147 1.16184444261e-38
-0.0138465556706 -0.0183678799713 0.15 1.14344133001e-38
-0.0134584753348 -0.0186127850375 0.152 1.15262445924e-38
-0.0124619001036 -0.0180005223718 0.147 1.17095582536e-38
-0.0115840096352 -0.0175107122393 0.143 1.03259077421e-38
-0.0111224577795 -0.0176331647724 0.144 8.29688782159e-39
-0.0108003134231 -0.0180005223718 0.147 8.11142036464e-39
-0.0103858586955 -0.0182454274381 0.149 8.57347751377e-39
-0.00995633288698 -0.0184903325044 0.151 1.04181061746e-38
-0.00951173599742 -0.0187352375707 0.153 1.12478640407e-38
-0.00876006583244 -0.0183678799713 0.15 1.12496591041e-38
-0.00786710428307 -0.0176331647724 0.144 1.12496591041e-38
-0.00727368046862 -0.0175107122393 0.143 1.13407785367e-38
-0.00673488932279 -0.0175107122393 0.143 9.68126000176e-39
-0.00619609817697 -0.0175107122393 0.143 6.36149846057e-39
-0.00565730703115 -0.0175107122393 0.143 3.87221925686e-39
-0.0051543097027 -0.0176331647724 0.144 4.60942836595e-39
-0.00467580288089 -0.0178780698387 0.146 7.09871037226e-39
-0.00412570842431 -0.0178780698387 0.146 9.95892308857e-39
-0.00355112346111 -0.0177556173055 0.145 1.12496591041e-38
-0.00302551951116 -0.0178780698387 0.146 1.11574634742e-38
-0.00247542505459 -0.0178780698387 0.146 1.13411330652e-38
-0.00193851779389 -0.0180005223718 0.147 9.95784128616e-39
-0.00138465556706 -0.0180005223718 0.147 5.90123637477e-39
-0.000830793340238 -0.0180005223718 0.147 3.04245578549e-39
-0.000276931113413 -0.0180005223718 0.147 2.85806732836e-39
0.000276931113413 -0.0180005223718 0.147 3.41267743847e-39
0.000830793340238 -0.0180005223718 0.147 7.74587204204e-39
0.00138465556706 -0.0180005223718 0.147 1.07883278275e-38
0.00193851779389 -0.0180005223718 0.147 1.1157110347e-38
0.00250933498684 -0.018122974905 0.148 1.10649147171e-38
0.00306696498392 -0.018122974905 0.148 1.02351540484e-38
0.00362459498099 -0.018122974905 0.148 6.0863507045e-39
0.00418222497807 -0.018122974905 0.148 2.67511239956e-39
0.00473985497515 -0.018122974905 0.148 2.30668300732e-39
0.00529748497222 -0.018122974905 0.148 2.8598567865e-39
0.00589467655693 -0.0182454274381 0.149 6.73207324076e-39
0.00649940368214 -0.0183678799713 0.15 1.05120940652e-38
0.00706456921971 -0.0183678799713 0.15 1.11574634742e-38
0.00762973475729 -0.0183678799713 0.15 1.07886809547e-38
0.00819490029487 -0.0183678799713 0.15 1.0604289695e-38
0.00876006583244 -0.0183678799713 0.15 6.6398776109e-39
0.00938739957916 -0.0184903325044 0.151 3.50271787129e-39
0.00995633288698 -0.0184903325044 0.151 3.04245858809e-39
0.0105252661948 -0.0184903325044 0.151 2.95026015563e-39
0.0110941995026 -0.0184903325044 0.151 7.28417082272e-39
0.0116631328105 -0.0184903325044 0.151 1.08808793872e-38
0.0123130731787 -0.0186127850375 0.152 1.0697204191e-38
0.0129705490874 -0.0187352375707 0.153 1.07904774194e-38
0.0136355605366 -0.0188576901038 0.154 1.02373036402e-38
0.0142157971552 -0.0188576901038 0.154 7.83842079912e-39
0.0147960337738 -0.0188576901038 0.154 5.07255190322e-39
0.0153762703923 -0.0188576901038 0.154 4.15059560459e-39
0.0159565070109 -0.0188576901038 0.154 5.34913879281e-39
0.0166441250816 -0.018980142637 0.155 9.31355087693e-39
0.0173392786929 -0.0191025951701 0.156 1.05120940652e-38
0.0180419678446 -0.0192250477032 0.157 1.08808765846e-38
0.0186335077739 -0.0192250477032 0.157 1.0604289695e-38
0.0192250477032 -0.0192250477032 0.157 1.07876047575e-38
0.0198165876326 -0.0192250477032 0.157 8.94368935766e-39
0.0204081275619 -0.0192250477032 0.157 6.91538550067e-39
0.0211334233351 -0.0193475002364 0.158 6.54768198103e-39
0.022003778263 -0.0195924053027 0.16 8.02281065755e-39
0.0227479128875 -0.0197148578358 0.161 1.00511145145e-38
0.0229193464339 -0.0193475002364 0.158 1.051281153e-38
0.0235146541335 -0.0193475002364 0.158 1.04209718299e-38
0.0244151512233 -0.0195924053027 0.16 1.07886809547e-38
0.025643444325 -0.0200822154352 0.164 1.05120940652e-38
0.0265816191174 -0.0203271205015 0.166 9.95892028597e-39
0.0276987629967 -0.0206944781009 0.169 9.49794213666e-39
0.0274971872883 -0.0200822154352 0.164 9.49794213666e-39
0.0276008009701 -0.0197148578358 0.161 9.95892028597e-39
0.0287330159304 -0.0200822154352 0.164 1.05120940652e-38
0.030245775686 -0.0206944781009 0.169 1.0604289695e-38
0.0317962131441 -0.0213067407667 0.174 1.05120940652e-38
0.0326383097951 -0.0214291932998 0.175 1.05120940652e-38
0.0317754904077 -0.0204495730347 0.167 1.03277028054e-38
0.0316285473679 -0.0199597629021 0.163 1.01433115457e-38
0.0322426939188 -0.0199597629021 0.163 1.00511159158e-38
0.033058416178 -0.0200822154352 0.164 1.02355071756e-38
0.0357297652856 -0.0213067407667 0.174 1.05120940652e-38
0.0355489123136 -0.0208169306341 0.17 1.05120940652e-38
0.0353379171796 -0.0203271205015 0.166 1.06032134978e-38
0.0353134266729 -0.0199597629021 0.163 1.06032134978e-38
0.0359275732238 -0.0199597629021 0.163 1.06032134978e-38
0.0372142667643 -0.0203271205015 0.166 1.05110178679e-38
0.0387515170265 -0.0208169306341 0.17 1.06032134978e-38
0.0389286022283 -0.0205720255678 0.168 1.06954091277e-38
0.0388551307084 -0.0202046679684 0.165 1.06954091277e-38
0.0394768127998 -0.0202046679684 0.165 1.06954091277e-38
0.0400984948911 -0.0202046679684 0.165 1.02355099782e-38
0.0409669659338 -0.0203271205015 0.166 1.04199012379e-38
0.0413418590738 -0.0202046679684 0.165 1.02355099782e-38
0.0417092166732 -0.0200822154352 0.164 1.0327705608e-38
0.0425852232564 -0.0202046679684 0.165 1.0327705608e-38
0.0432069053478 -0.0202046679684 0.165 1.02355099782e-38
0.0438285874391 -0.0202046679684 0.165 1.0327705608e-38
0.0447196651034 -0.0203271205015 0.166 1.01433143483e-38
0.0461646049944 -0.0206944781009 0.169 1.04188222381e-38
0.0468013581668 -0.0206944781009 0.169 1.05110178679e-38
0.0477188102228 -0.0208169306341 0.17 1.04188222381e-38
0.0483593311653 -0.0208169306341 0.17 1.02344309783e-38
0.0489998521079 -0.0208169306341 0.17 9.95784408875e-39
0.0496403730505 -0.0208169306341 0.17 9.95784408875e-39
0.0502808939931 -0.0208169306341 0.17 9.95784408875e-39
0.0509214149357 -0.0208169306341 0.17 1.00500397186e-38
0.0512586303731 -0.0206944781009 0.169 1.02344281757e-38
0.0525095300963 -0.0209393831672 0.171 1.02344281757e-38
0.0531538188091 -0.0209393831672 0.171 1.03266266082e-38
0.0541127163379 -0.0210618357004 0.172 1.01422353485e-38
0.054760772821 -0.0210618357004 0.172 9.77345282903e-39
0.0550866849476 -0.0209393831672 0.171 9.77345563162e-39
0.0560568857871 -0.0210618357004 0.172 9.86565126149e-39
0.0570346221672 -0.0211842882335 0.173 1.00500425212e-38
0.0583533417548 -0.0214291932998 0.175 1.00511187184e-38
0.0586754861113 -0.0213067407667 0.174 1.04188222381e-38
0.0589900949272 -0.0211842882335 0.173 1.03259077421e-38
0.0599866701584 -0.0213067407667 0.174 9.86493239538e-39
0.0634304121674 -0.0222863610318 0.182 8.94297609674e-39
0.0644684328714 -0.0224088135649 0.183 9.0351745292e-39
0.0633776633839 -0.0217965508992 0.178 9.3121215525e-39
0.0636885044296 -0.0216740983661 0.177 1.03273524808e-38
0.0639918099347 -0.0215516458329 0.176 1.04188194355e-38
0.0650222950982 -0.0216740983661 0.177 1.02344309783e-38
0.0649469396932 -0.0214291932998 0.175 1.03251944812e-38
0.065981192627 -0.0215516458329 0.176 8.29689342678e-39
0.0670229811013 -0.0216740983661 0.177 6.82176334897e-39
0.0669250190748 -0.0214291932998 0.175 7.37493712815e-39
0.0679705753193 -0.0215516458329 0.176 9.03553466291e-39
0.0686337028834 -0.0215516458329 0.176 1.00500425212e-38
0.0696905624386 -0.0216740983661 0.177 1.00500397186e-38
0.0699599580115 -0.0215516458329 0.176 9.86564845889e-39
0.0706230855756 -0.0215516458329 0.176 8.11249936446e-39
0.0715405376316 -0.0214291932998 0.175 4.70126105951e-39
0.0738501807952 -0.0219190034324 0.179 7.0061518061e-39
0.0753572888954 -0.0221639084986 0.181 9.22027904985e-39
0.0777196808425 -0.0226537186312 0.185 9.95784408875e-39
0.0825348912226 -0.0236333388963 0.193 8.2036187971e-39
0.0841248902684 -0.0238782439626 0.195 5.06824991693e-39
0.0948121705839 -0.0264497471586 0.216 5.43703243639e-39
0.099610425998 -0.0275518199569 0.225 8.85006720596e-39
0.102690578178 -0.0281640826226 0.23 9.95713082784e-39
0.10400741388 -0.0282865351557 0.231 9.86565126149e-39
0.106693834069 -0.0287763452883 0.235 8.48128188391e-39
0.107121475992 -0.0286538927552 0.234 4.2402829102e-39
0.108003134231 -0.0286538927552 0.234 2.85734846225e-39
0.107954153218 -0.0284089876889 0.232 3.87150039074e-39
0.110235538104 -0.0287763452883 0.235 8.20469499432e-39
0.11017525378 -0.028531440222 0.233 9.67982507213e-39
0.109623275439 -0.0281640826226 0.23 1.00486075916e-38
0.110970253303 -0.0282865351557 0.231 8.66567314364e-39
0.110872291277 -0.0280416300895 0.229 4.69946599618e-39
0.111735110664 -0.0280416300895 0.229 3.1321402885e-39
0.111122847998 -0.02767427249 0.226 3.6860329338e-39
0.111478902287 -0.0275518199569 0.225 7.46712995541e-39
0.111827421035 -0.0274293674237 0.224 9.68054393825e-39
0.1131743989 -0.0275518199569 0.225 9.86565126149e-39
0.114022147206 -0.0275518199569 0.225 8.39052118367e-39
0.113338296906 -0.0271844623575 0.222 5.07255470582e-39
0.114689042541 -0.0273069148906 0.223 3.50343393481e-39
0.114493118487 -0.0270620098243 0.221 4.79417275289e-39
0.115847631893 -0.0271844623575 0.222 8.20541105784e-39
0.116684076888 -0.0271844623575 0.222 9.77273676551e-39
0.119108637044 -0.0275518199569 0.225 9.68054113565e-39
0.118356966879 -0.0271844623575 0.222 8.66638920715e-39
0.119193411875 -0.0271844623575 0.222 5.99271594112e-39
0.120570531902 -0.0273069148906 0.223 5.34734653207e-39
0.120321859065 -0.0270620098243 0.221 7.83662853838e-39
0.122250957433 -0.0273069148906 0.223 9.40395424606e-39
0.121987213516 -0.0270620098243 0.221 1.00493236551e-38
0.123931382965 -0.0273069148906 0.223 9.95712802524e-39
0.123093054084 -0.0269395572912 0.22 9.95712802524e-39
0.122795400235 -0.0266946522249 0.218 9.95712802524e-39
0.12588497184 -0.0271844623575 0.222 9.95712802524e-39
0.12557978245 -0.0269395572912 0.22 9.95712802524e-39
0.125834106942 -0.026817104758 0.219 9.86493239538e-39
0.127815954093 -0.0270620098243 0.221 9.86493239538e-39
0.128648631319 -0.0270620098243 0.221 9.86493239538e-39
0.132410749914 -0.02767427249 0.226 9.86493239538e-39
0.140338138521 -0.0291437028877 0.238 9.95712802524e-39
0.16378497279 -0.0337968991471 0.276 9.95712802524e-39
-0.0698714154107 -0.0138861172583 0.117 1.23560066624e-38
-0.0700240101058 -0.0140048020212 0.118 1.24482022923e-38
-0.0695794132162 -0.0140048020212 0.118 1.25403979221e-38
-0.0697207046006 -0.0141234867841 0.119 1.29091804416e-38
-0.0686902194371 -0.0140048020212 0.118 1.30935717013e-38
-0.0682456225476 -0.0140048020212 0.118 1.30935717013e-38
-0.067801025658 -0.0140048020212 0.118 1.30013760715e-38
-0.0684980631543 -0.0142421715469 0.12 1.30013760715e-38
-0.0680459307243 -0.0142421715469 0.12 1.28169848117e-38
-0.0681570799467 -0.0143608563098 0.121 1.18028328832e-38
-0.0677011797464 -0.0143608563098 0.121 1.02355071756e-38
-0.067245279546 -0.0143608563098 0.121 8.48379020816e-39
-0.0667893793457 -0.0143608563098 0.121 8.76037709775e-39
-0.065785268574 -0.0142421715469 0.12 1.00511159158e-38
-0.0653331361439 -0.0142421715469 0.12 1.17106372534e-38
-0.0654216787448 -0.0143608563098 0.121 1.32772412923e-38
-0.0638919640231 -0.0141234867841 0.119 1.33694369222e-38
-0.0634435993633 -0.0141234867841 0.119 1.3461275221e-38
-0.0629952347035 -0.0141234867841 0.119 1.3461275221e-38
-0.0630724739936 -0.0142421715469 0.12 1.29081014418e-38
-0.0626203415635 -0.0142421715469 0.12 1.16173654263e-38
-0.0621682091335 -0.0142421715469 0.12 8.5749096408e-39
-0.0622303773426 -0.0143608563098 0.121 5.34806259559e-39
-0.0617744771423 -0.0143608563098 0.121 5.25515370481e-39
-0.061318576942 -0.0143608563098 0.121 6.73028098002e-39
-0.0603596794132 -0.0142421715469 0.12 9.40467311217e-39
-0.0604067765414 -0.0143608563098 0.121 1.18939523159e-38
-0.0614372617049 -0.0147169105985 0.124 1.31846883314e-38
-0.0609700581938 -0.0147169105985 0.124 1.32779615598e-38
-0.0600149284353 -0.0145982258356 0.123 1.33705131194e-38
-0.0585831757401 -0.0143608563098 0.121 1.30017277974e-38
-0.0571664941259 -0.0141234867841 0.119 1.12485829068e-38
-0.0571947524028 -0.0142421715469 0.12 7.56004164879e-39
-0.0572154751392 -0.0143608563098 0.121 4.9778479491e-39
-0.0572286623351 -0.0144795410727 0.122 4.70018486229e-39
-0.0586302728682 -0.0149542801243 0.126 4.33140234284e-39
-0.0581555338167 -0.0149542801243 0.126 6.63736928664e-39
-0.0567652265942 -0.0147169105985 0.124 1.03259105447e-38
-0.0553899904528 -0.0144795410727 0.122 1.26315173548e-38
-0.0544800739373 -0.0143608563098 0.121 1.31857673312e-38
-0.0535776929623 -0.0142421715469 0.12 1.32768867638e-38
-0.0531255605322 -0.0142421715469 0.12 1.30002998742e-38
-0.0553070995073 -0.0149542801243 0.126 1.14322581031e-38
-0.0570082477754 -0.0155477039387 0.131 7.19054306582e-39
-0.0569460795663 -0.0156663887016 0.132 4.51579360257e-39
-0.0547381661995 -0.0151916496501 0.128 4.70018486229e-39
-0.0517126466883 -0.0144795410727 0.122 4.33140234284e-39
-0.0512529787177 -0.0144795410727 0.122 5.16366853326e-39
-0.0507933107472 -0.0144795410727 0.122 8.75929809793e-39
-0.0519839261463 -0.0149542801243 0.126 1.22627320327e-38
-0.0527355963113 -0.015310334413 0.129 1.29081014418e-38
-0.0530596245529 -0.0155477039387 0.131 1.30002970716e-38
-0.0533685817134 -0.0157850734645 0.133 1.26315145522e-38
-0.0508799694629 -0.0151916496501 0.128 1.18939495133e-38
-0.0480353029238 -0.0144795410727 0.122 8.48271120834e-39
-0.0471856707323 -0.0143608563098 0.121 5.52922666495e-39
-0.0475021634334 -0.0145982258356 0.123 4.79166162604e-39
-0.0478035850534 -0.0148355953614 0.125 4.14701108311e-39
-0.0480899355924 -0.0150729648872 0.127 5.62321735815e-39
-0.0487361081904 -0.0154290191759 0.13 9.86421352926e-39
-0.0475040473185 -0.0151916496501 0.128 1.29995810081e-38
-0.0462870575276 -0.0149542801243 0.126 1.3184691134e-38
-0.0447215489885 -0.0145982258356 0.123 1.31846883314e-38
-0.0438982911887 -0.0144795410727 0.122 1.30013760715e-38
-0.0437946775068 -0.0145982258356 0.123 1.19861479457e-38
-0.043331241766 -0.0145982258356 0.123 9.86493239538e-39
-0.0435648435216 -0.0148355953614 0.125 6.36078239705e-39
-0.0437833741961 -0.0150729648872 0.127 4.70018486229e-39
-0.0429638841666 -0.0149542801243 0.126 5.53102172828e-39
-0.0414774988028 -0.0145982258356 0.123 8.48199794743e-39
-0.0403471677276 -0.0143608563098 0.121 1.19854318822e-38
-0.0398912675273 -0.0143608563098 0.121 1.2817347748e-38
-0.0397612794537 -0.0144795410727 0.122 1.28169848117e-38
-0.0399459001959 -0.0147169105985 0.124 1.29091804416e-38
-0.0397970732711 -0.0148355953614 0.125 1.28159058119e-38
-0.0396407108057 -0.0149542801243 0.126 1.2262371899e-38
-0.0391659717541 -0.0149542801243 0.126 1.11549523473e-38
-0.0380770861517 -0.0147169105985 0.124 9.31104535528e-39
-0.0376098826406 -0.0147169105985 0.124 8.94190550472e-39
-0.0371426791296 -0.0147169105985 0.124 9.3117586162e-39
-0.0369712455832 -0.0148355953614 0.125 1.11556712135e-38
-0.0365002743019 -0.0148355953614 0.125 1.22620187718e-38
-0.0363175374447 -0.0149542801243 0.126 1.23542144017e-38
-0.0358427983931 -0.0149542801243 0.126 1.21705392055e-38
-0.0353680593416 -0.0149542801243 0.126 1.22627348353e-38
-0.03489332029 -0.0149542801243 0.126 1.22638110326e-38
-0.0344185812384 -0.0149542801243 0.126 1.18950285131e-38
-0.0339438421869 -0.0149542801243 0.126 1.161700249e-38
-0.033734730938 -0.0150729648872 0.127 1.12482199705e-38
-0.0335180841486 -0.0151916496501 0.128 1.13404156004e-38
-0.0330358095565 -0.0151916496501 0.128 1.16173626237e-38
-0.0328078594564 -0.015310334413 0.129 1.17095582536e-38
-0.032321817094 -0.015310334413 0.129 1.1987224143e-38
-0.0315889857803 -0.0151916496501 0.128 1.17106372534e-38
-0.0311067111882 -0.0151916496501 0.128 1.1987224143e-38
-0.0308636900071 -0.015310334413 0.129 1.23549192548e-38
-0.0303776476448 -0.015310334413 0.129 1.19875786715e-38
-0.0301233231529 -0.0154290191759 0.13 1.17113547182e-38
-0.0296335130203 -0.0154290191759 0.13 1.15280438596e-38
-0.0293678852176 -0.0155477039387 0.131 1.13436525999e-38
-0.0288743073148 -0.0155477039387 0.131 1.16191590883e-38
-0.028380729412 -0.0155477039387 0.131 1.17109917819e-38
-0.0281000305283 -0.0156663887016 0.132 1.22627236249e-38
-0.0276026848553 -0.0156663887016 0.132 1.20794183715e-38
-0.0271053391822 -0.0156663887016 0.132 1.20794183715e-38
-0.0268095692175 -0.0157850734645 0.133 1.18950285131e-38
-0.0263084557742 -0.0157850734645 0.133 1.19861451432e-38
-0.0258073423309 -0.0157850734645 0.133 1.19861451432e-38
-0.0253062288876 -0.0157850734645 0.133 1.21705392055e-38
-0.0249916200717 -0.0159037582274 0.134 1.19854290796e-38
-0.0244867388581 -0.0159037582274 0.134 1.20776247095e-38
-0.0241608267314 -0.0160224429903 0.135 1.18950285131e-38
-0.0236521777476 -0.0160224429903 0.135 1.18028328832e-38
-0.0233149623102 -0.0161411277532 0.136 1.20794197728e-38
-0.0228025455561 -0.0161411277532 0.136 1.17106372534e-38
-0.022290128802 -0.0161411277532 0.136 1.17106372534e-38
-0.0219378422836 -0.0162598125161 0.137 1.17106372534e-38
-0.0214216577593 -0.0162598125161 0.137 1.1987224143e-38
-0.0210580679301 -0.016378497279 0.138 1.1987224143e-38
-0.0205381156356 -0.016378497279 0.138 1.16184416235e-38
-0.020018163341 -0.016378497279 0.138 1.17106372534e-38
-0.0196395024308 -0.0164971820419 0.139 1.17106372534e-38
