VERSION .7
FIELDS x y z rgb
SIZE 4 4 4 4
TYPE F F F F
COUNT 1 1 1 1
WIDTH 853
HEIGHT 1
VIEWPOINT 0 0 0 1 0 0 0
POINTS 853
DATA ascii
-0.0231717870407 0.0472704455629 0.164 3.22684984781e-39
-0.0225538727196 0.0472704455629 0.164 7.65295614477e-39
-0.0223372259302 0.0481351488354 0.167 1.23549332678e-38
-0.0215780202247 0.0478469144113 0.166 1.18950313157e-38
-0.0208263500597 0.0475586799871 0.165 1.21716182053e-38
-0.0202046679684 0.0475586799871 0.165 1.22638138352e-38
-0.019582985877 0.0475586799871 0.165 1.2356009465e-38
-0.0199955567195 0.0501527898046 0.174 1.20794225754e-38
-0.0191176662511 0.0495763209563 0.172 1.21716154027e-38
-0.0178253210552 0.0478469144113 0.166 1.21716154027e-38
-0.0171998711936 0.0478469144113 0.166 1.1987224143e-38
-0.0162748835971 0.0469822111388 0.163 1.22638110326e-38
-0.0157568151876 0.0472704455629 0.164 1.25403965208e-38
-0.0150465904954 0.0469822111388 0.163 8.66818006659e-39
-0.0145209865455 0.0472704455629 0.164 3.22398419245e-39
-0.0142421715469 0.0484233832596 0.168 4.33104781433e-39
-0.0132851579033 0.0472704455629 0.164 2.76515563498e-39
-0.0125900042921 0.0469822111388 0.163 1.15248166692e-38
-0.0121962723009 0.0478469144113 0.166 1.18946753859e-38
-0.0123375636853 0.0510174930771 0.177 1.2356009465e-38
-0.0118684762891 0.0518821963496 0.18 1.19868710158e-38
-0.0105064273436 0.0487116176838 0.169 1.22634579053e-38
-0.00975287329346 0.0481351488354 0.167 1.21716154027e-38
-0.00917828833025 0.0484233832596 0.168 1.18028328832e-38
-0.00839270823302 0.0475586799871 0.165 1.22645284974e-38
-0.00777102614169 0.0475586799871 0.165 1.24489197571e-38
-0.00710601469247 0.0472704455629 0.164 1.20801372376e-38
-0.00652766195902 0.0475586799871 0.165 1.18957459779e-38
-0.00590597986768 0.0475586799871 0.165 1.24482022923e-38
-0.00528429777635 0.0475586799871 0.165 6.36329072131e-39
-0.00469087396189 0.0478469144113 0.166 3.96190095727e-39
-0.0042368576467 0.0498645553804 0.173 3.77822576106e-39
-0.00362647886612 0.0504410242288 0.175 5.43953935934e-39
-0.00298407403841 0.0507292586529 0.176 1.26325921507e-38
-0.0022154489073 0.0484233832596 0.168 1.18035503481e-38
-0.00156362465396 0.0478469144113 0.166 1.18957459779e-38
-0.000955129758505 0.0487116176838 0.169 1.2356009465e-38
-0.000318376586168 0.0487116176838 0.169 1.26315173548e-38
0.000316492701043 0.0484233832596 0.168 1.20801386389e-38
0.000943826447754 0.0481351488354 0.167 1.19879416078e-38
0.00156362465396 0.0478469144113 0.166 1.20801372376e-38
0.0022154489073 0.0484233832596 0.168 1.21726887973e-38
0.00281452437713 0.0478469144113 0.166 1.20804931675e-38
0.0034606969751 0.0481351488354 0.167 1.20801372376e-38
0.00435931017984 0.0513057275012 0.178 1.24489197571e-38
0.00505823156132 0.0515939619254 0.179 8.94548722359e-39
0.00576468848329 0.0518821963496 0.18 2.8598553852e-39
0.00615653658934 0.0495763209563 0.172 2.21448597616e-39
0.00672546989717 0.0489998521079 0.17 8.94476835748e-39
0.00723600276611 0.0481351488354 0.167 1.23560066624e-38
0.00791231752608 0.0484233832596 0.168 1.21716154027e-38
0.00859616782655 0.0487116176838 0.169 1.25403979221e-38
0.00934218633615 0.0492880865321 0.171 1.11574662768e-38
0.00998647504899 0.0492880865321 0.171 9.31355367953e-39
0.0108172683892 0.0501527898046 0.174 1.03295006714e-38
0.0112091164953 0.0489998521079 0.17 1.29098993077e-38
0.0119193411875 0.0492880865321 0.171 1.18957473792e-38
0.0131514020594 0.0515939619254 0.179 1.23560066624e-38
0.0142120293849 0.0530351340462 0.184 1.20794197728e-38
0.0148242920506 0.0527468996221 0.183 1.25393189223e-38
0.0146660457001 0.0498645553804 0.173 1.25393189223e-38
0.0152293273526 0.0495763209563 0.172 1.24467631588e-38
0.0157850734645 0.0492880865321 0.171 9.86708759241e-39
0.0165254403188 0.0495763209563 0.172 9.77489196255e-39
0.0171734968018 0.0495763209563 0.172 1.15269648598e-38
0.0179251669668 0.0498645553804 0.173 1.22645298987e-38
0.0186843726723 0.0501527898046 0.174 1.23560066624e-38
0.0194511139183 0.0504410242288 0.175 1.25386028588e-38
0.0198806397268 0.0498645553804 0.173 8.94153696322e-39
0.0206511487431 0.0501527898046 0.174 4.05445251695e-39
0.0215516458329 0.0507292586529 0.176 3.7803865633e-39
0.0227196546106 0.0518821963496 0.18 8.57455651359e-39
0.023267865182 0.0515939619254 0.179 1.26315173548e-38
0.0231397609935 0.0498645553804 0.173 1.17106372534e-38
0.0236540616327 0.0495763209563 0.172 1.2448200891e-38
0.0245847008846 0.0501527898046 0.174 1.21723328675e-38
0.0253853520628 0.0504410242288 0.175 1.18035503481e-38
0.0260447118567 0.0504410242288 0.175 1.24489197571e-38
0.0263988822602 0.0498645553804 0.173 1.20804931675e-38
0.027207068979 0.0501527898046 0.174 1.18039062779e-38
0.0280227912382 0.0504410242288 0.175 1.20801372376e-38
0.028682151032 0.0504410242288 0.175 1.16191604896e-38
0.029509176602 0.0507292586529 0.176 1.16184416235e-38
0.0303437377125 0.0510174930771 0.177 1.1710640056e-38
0.0310106330469 0.0510174930771 0.177 1.15258928664e-38
0.0314985592943 0.0507292586529 0.176 3.13609054888e-39
0.0321616868584 0.0507292586529 0.176 3.31545394971e-39
0.0331978236773 0.0513057275012 0.178 2.94774902878e-39
0.0340587591795 0.0515939619254 0.179 6.5458897203e-39
0.0343451097186 0.0510174930771 0.177 1.18950285131e-38
0.0352098129911 0.0513057275012 0.178 1.08826730492e-38
0.0358804760956 0.0513057275012 0.178 1.18046265453e-38
0.0363457957216 0.0510174930771 0.177 1.18961019077e-38
0.0365944685581 0.0504410242288 0.175 1.17109917819e-38
0.0374667073711 0.0507292586529 0.176 1.16191590883e-38
0.0387797753034 0.0515939619254 0.179 1.19879416078e-38
0.0396746207379 0.0518821963496 0.18 1.15269634585e-38
0.0401286370531 0.0515939619254 0.179 1.16184416235e-38
0.0405751178278 0.0513057275012 0.178 1.1987224143e-38
0.041014063062 0.0510174930771 0.177 1.19861479457e-38
0.0421519296776 0.0515939619254 0.179 1.18939523159e-38
0.0428263605525 0.0515939619254 0.179 1.06032134978e-38
0.0437438126085 0.0518821963496 0.18 4.05589165047e-39
0.0444220112536 0.0518821963496 0.18 3.31832661156e-39
0.0451002098987 0.0518821963496 0.18 3.41123830494e-39
0.0457784085437 0.0518821963496 0.18 4.70269598914e-39
0.0459404226645 0.0513057275012 0.178 1.12485829068e-38
0.0468729458015 0.0515939619254 0.179 1.14340531664e-38
0.0472817488737 0.0513057275012 0.178 1.12503779702e-38
0.0482218075512 0.0515939619254 0.179 1.14347692299e-38
0.0491694017692 0.0518821963496 0.18 1.15255243249e-38
0.0498476004143 0.0518821963496 0.18 1.16177199548e-38
0.0508064979431 0.0521704307737 0.181 1.14340489625e-38
0.0512039977045 0.0518821963496 0.18 1.12503779702e-38
0.0521704307737 0.0521704307737 0.181 1.14340503638e-38
0.0531443993835 0.0524586651979 0.182 1.15262459937e-38
0.0541259035338 0.0527468996221 0.183 1.18017538834e-38
0.0548154054896 0.0527468996221 0.183 1.18935893796e-38
0.0548982964351 0.0521704307737 0.181 1.18006748836e-38
0.0558873361259 0.0524586651979 0.182 8.57419077469e-39
0.0562622292658 0.0521704307737 0.181 3.31904267508e-39
0.0569441956811 0.0521704307737 0.181 3.7800208244e-39
0.0579445386827 0.0524586651979 0.182 2.76658776201e-39
0.0586302728682 0.0524586651979 0.182 1.00500425212e-38
0.0593160070538 0.0524586651979 0.182 1.13418575365e-38
0.0600017412394 0.0524586651979 0.182 1.14340503638e-38
0.0610209230922 0.0527468996221 0.183 1.14340531664e-38
0.0613732096106 0.0524586651979 0.182 1.15262487962e-38
0.0623999270039 0.0527468996221 0.183 1.09730750171e-38
0.0634341799377 0.0530351340462 0.184 1.09730750171e-38
0.0644759684119 0.0533233684704 0.185 1.11574662768e-38
0.0648207193898 0.0530351340462 0.184 1.13425736e-38
0.0655139891159 0.0530351340462 0.184 1.17113561195e-38
0.066567080901 0.0533233684704 0.185 1.12503779702e-38
0.0669005285681 0.0530351340462 0.184 1.16184402222e-38
0.0675937982942 0.0530351340462 0.184 1.16184402222e-38
0.06865819339 0.0533233684704 0.185 1.14340503638e-38
0.0693552308863 0.0533233684704 0.185 9.1291596172e-39
0.0700522683827 0.0533233684704 0.185 4.51938092664e-39
0.0711317345595 0.0536116028946 0.186 4.42718529677e-39
0.0729911291781 0.0544763061671 0.189 8.20685019136e-39
0.0725333450926 0.0536116028946 0.186 1.1157110347e-38
0.0732341503592 0.0536116028946 0.186 1.125145697e-38
0.0755249546716 0.0547645405912 0.19 1.10656307806e-38
0.0822598439943 0.0590880569537 0.205 1.09719988198e-38
0.0939681900478 0.0668703864061 0.232 7.2834575618e-39
0.103427177262 0.0729233093136 0.253 7.00686786961e-39
0.107268419032 0.0749409502827 0.26 7.92954023176e-39
0.109497055135 0.0758056535552 0.263 1.17113547182e-38
0.111328191477 0.0763821224035 0.265 1.0514243657e-38
0.112750524747 0.0766703568277 0.266 1.14329741666e-38
0.11332510971 0.0763821224035 0.265 1.16173654263e-38
0.114323568826 0.0763821224035 0.265 1.16173654263e-38
0.113581318087 0.0752291847069 0.261 1.16173654263e-38
0.114564706122 0.0752291847069 0.261 1.12485829068e-38
0.115548094158 0.0752291847069 0.261 1.09719960173e-38
0.114745559094 0.0740762470102 0.257 1.03266266082e-38
0.118044241949 0.0749409502827 0.26 1.12496619067e-38
0.114446021359 0.0720586060411 0.25 1.12496619067e-38
0.112607349477 0.0697527306478 0.242 1.14340531664e-38
0.112580975085 0.0691762617994 0.24 1.13418575365e-38
0.112539529613 0.0685997929511 0.238 1.13418575365e-38
0.115342750679 0.0697527306478 0.242 1.14340531664e-38
0.11625455108 0.0697527306478 0.242 1.14340531664e-38
0.118134668435 0.0703291994961 0.244 1.17095610562e-38
0.116614373139 0.0688880273753 0.239 1.17095610562e-38
0.117514870228 0.0688880273753 0.239 1.16173654263e-38
0.118910829106 0.0691762617994 0.24 1.16173654263e-38
0.119315864408 0.0688880273753 0.239 1.14329741666e-38
0.120719358826 0.0691762617994 0.24 1.14329741666e-38
0.120610093489 0.0685997929511 0.238 1.14329741666e-38
0.121506822809 0.0685997929511 0.238 1.14329741666e-38
0.121889251489 0.0683115585269 0.237 1.15251697964e-38
0.12174607622 0.0677350896786 0.235 1.15251697964e-38
0.123675174588 0.0683115585269 0.237 1.15251697964e-38
0.124568136137 0.0683115585269 0.237 1.15251697964e-38
0.125990469407 0.0685997929511 0.238 1.15251697964e-38
0.126354059236 0.0683115585269 0.237 1.15251697964e-38
0.127247020785 0.0683115585269 0.237 1.14329741666e-38
0.129221332397 0.0688880273753 0.239 1.14329741666e-38
0.129577386685 0.0685997929511 0.238 1.14329769692e-38
0.129925905434 0.0683115585269 0.237 1.14329769692e-38
0.130818866983 0.0683115585269 0.237 1.14329769692e-38
0.130600336308 0.0677350896786 0.235 1.13407813393e-38
0.131485762317 0.0677350896786 0.235 1.11556712135e-38
0.132371188326 0.0677350896786 0.235 1.11556712135e-38
0.133823663758 0.0680233241028 0.236 1.12478668433e-38
0.133000405958 0.0671586208303 0.233 1.14322581031e-38
0.133878296426 0.0671586208303 0.233 1.16166493628e-38
0.134177834161 0.0668703864061 0.232 1.15244537329e-38
0.135051956859 0.0668703864061 0.232 1.15244537329e-38
0.134168414736 0.0660056831336 0.229 1.15244537329e-38
0.136210546211 0.066582151982 0.231 1.15244537329e-38
0.134707205882 0.0654292142853 0.227 1.15244537329e-38
0.135562489728 0.0654292142853 0.227 1.14322581031e-38
-0.105702910493 0.0516843884114 0.177 1.35534708508e-38
-0.104442591344 0.051392386217 0.176 1.35534736534e-38
-0.104369119824 0.0516843884114 0.177 9.68125719916e-39
-0.105459889312 0.0525603949947 0.18 6.08562763449e-39
-0.104199570163 0.0522683928003 0.179 8.66710527067e-39
-0.102368433821 0.0516843884114 0.177 1.3461275221e-38
-0.0994031986342 0.0505163796338 0.173 1.30002970716e-38
-0.0976097399949 0.0499323752449 0.171 1.28159058119e-38
-0.0986665995502 0.0508083818282 0.174 1.31846883314e-38
-0.0991375708315 0.051392386217 0.176 1.30002970716e-38
-0.0984744432674 0.051392386217 0.176 1.30924927015e-38
-0.0955883312555 0.0502243774394 0.172 1.2078340773e-38
-0.0960442314559 0.0508083818282 0.174 1.3461275221e-38
-0.0964850605752 0.051392386217 0.176 1.29081014418e-38
-0.0952774902099 0.0511003840226 0.175 1.25393189223e-38
-0.0935367803541 0.0505163796338 0.173 6.91466943715e-39
-0.090737327058 0.0493483708561 0.169 3.68782239194e-39
-0.0906337133761 0.0496403730505 0.17 5.34806259559e-39
-0.0910519358739 0.0502243774394 0.172 1.25393217249e-38
-0.0898782754409 0.0499323752449 0.171 1.26315145522e-38
-0.089233986728 0.0499323752449 0.171 1.30002970716e-38
-0.090661971653 0.0511003840226 0.175 1.27247891819e-38
-0.0910312131375 0.0516843884114 0.177 1.25403979221e-38
-0.0888327191964 0.0508083818282 0.174 1.24471232925e-38
-0.0871635969754 0.0502243774394 0.172 1.32768839612e-38
-0.0865155404923 0.0502243774394 0.172 1.2632593552e-38
-0.0858674840092 0.0502243774394 0.172 1.21716154027e-38
-0.0847239657382 0.0499323752449 0.171 1.30935745039e-38
-0.0840796770253 0.0499323752449 0.171 7.92954023176e-39
-0.0829474620651 0.0496403730505 0.17 4.33319180098e-39
-0.0823069411225 0.0496403730505 0.17 4.14844040755e-39
-0.0840683737146 0.0511003840226 0.175 1.06024974343e-38
-0.0838856368574 0.051392386217 0.176 1.29995838107e-38
-0.0822767989605 0.0508083818282 0.174 1.25386056614e-38
-0.0806830321445 0.0502243774394 0.172 1.27229969211e-38
-0.0795696560355 0.0499323752449 0.171 1.24464100315e-38
-0.0789253673226 0.0499323752449 0.171 1.24464100315e-38
-0.0787388626952 0.0502243774394 0.172 1.25386056614e-38
-0.0767287572666 0.0493483708561 0.169 1.26308012913e-38
-0.0751915070044 0.0487643664673 0.167 1.24489211584e-38
-0.0750087701472 0.0490563686617 0.168 1.2356009465e-38
-0.0774747757762 0.0511003840226 0.175 1.14329741666e-38
-0.0754985802798 0.0502243774394 0.172 4.42610909955e-39
-0.0722394590131 0.0484723642729 0.166 5.16295527235e-39
-0.0720454188452 0.0487643664673 0.167 5.34806259559e-39
-0.0714162012134 0.0487643664673 0.167 1.23549304652e-38
-0.0703631094283 0.0484723642729 0.166 1.20794197728e-38
-0.0697376595668 0.0484723642729 0.166 1.22627320327e-38
-0.0695285483179 0.0487643664673 0.167 1.25393189223e-38
-0.0684867598436 0.0484723642729 0.166 1.1987224143e-38
-0.0694965222707 0.0496403730505 0.17 1.1987224143e-38
-0.0716912484417 0.0516843884114 0.177 1.18950285131e-38
-0.0678142128539 0.0493483708561 0.169 1.18950285131e-38
-0.0663824601587 0.0487643664673 0.167 1.18035517494e-38
-0.0653595105357 0.0484723642729 0.166 1.18035517494e-38
-0.0639541322322 0.047888359884 0.164 9.22027904985e-39
-0.0633362179111 0.047888359884 0.164 3.0431746516e-39
-0.0631007322705 0.0481803620784 0.165 3.22756591133e-39
-0.0628577110893 0.0484723642729 0.166 7.92918710455e-39
-0.061107581808 0.0475963576896 0.163 1.18017594886e-38
-0.0623490621055 0.0490563686617 0.168 1.17095610562e-38
-0.0646549374988 0.051392386217 0.176 1.25393217249e-38
-0.0610830913013 0.0490563686617 0.168 1.18017538834e-38
-0.0590108176635 0.047888359884 0.164 1.18939523159e-38
-0.0576807947651 0.0473043554952 0.162 1.20783435756e-38
-0.0563658429477 0.0467203511064 0.16 1.18939523159e-38
-0.0561115184558 0.0470123533008 0.161 1.21705392055e-38
-0.0561944094013 0.0475963576896 0.163 1.22627348353e-38
-0.0555802628505 0.0475963576896 0.163 1.21705392055e-38
-0.0542916854248 0.0470123533008 0.161 1.06954091277e-38
-0.054685417416 0.047888359884 0.164 5.071475706e-39
-0.0570346221672 0.0505163796338 0.173 4.42539023344e-39
-0.0567087100405 0.0508083818282 0.174 9.86493239538e-39
-0.0544423962348 0.0493483708561 0.169 1.23542144017e-38
-0.0525321367178 0.0481803620784 0.165 1.19854318822e-38
-0.0515958458105 0.047888359884 0.164 1.12485829068e-38
-0.0503562493981 0.0473043554952 0.162 8.39051838108e-39
-0.0497458706175 0.0473043554952 0.162 9.03588779012e-39
-0.0500454083525 0.0481803620784 0.165 1.19861479457e-38
-0.0485251130564 0.0473043554952 0.162 1.17106372534e-38
-0.0476189643111 0.0470123533008 0.161 1.17106372534e-38
-0.047888359884 0.047888359884 0.164 1.16184416235e-38
-0.0498645553804 0.0505163796338 0.173 1.16184416235e-38
-0.0486437978193 0.0499323752449 0.171 1.18028328832e-38
-0.0460346169208 0.047888359884 0.164 9.49794213666e-39
-0.0451397714863 0.0475963576896 0.163 8.11500768871e-39
-0.0445256249354 0.0475963576896 0.163 1.0604289695e-38
-0.0436420828117 0.0473043554952 0.162 1.16184416235e-38
-0.0435629596364 0.047888359884 0.164 1.16173626237e-38
-0.0426831852829 0.0475963576896 0.163 1.07876047575e-38
-0.0415528542078 0.0470123533008 0.161 4.60977869057e-39
-0.0409462431975 0.0470123533008 0.161 3.68782239194e-39
-0.0420935292387 0.0490563686617 0.168 7.65295334217e-39
-0.0431880664965 0.0511003840226 0.175 1.19861451432e-38
-0.0432577702462 0.0519763906058 0.178 1.17106372534e-38
-0.0392375593889 0.047888359884 0.164 1.16184416235e-38
-0.0379131881458 0.0470123533008 0.161 1.18028328832e-38
-0.0373065771355 0.0470123533008 0.161 1.18028328832e-38
-0.0360161158247 0.0461363467175 0.158 1.20794197728e-38
-0.0358691727849 0.0467203511064 0.16 1.23560066624e-38
-0.0352663295448 0.0467203511064 0.16 1.21716154027e-38
-0.0348801330941 0.0470123533008 0.161 1.1987224143e-38
-0.0340606430646 0.0467203511064 0.16 1.15262459937e-38
-0.0340851335713 0.0475963576896 0.163 1.2078340773e-38
-0.0357297652856 0.0508083818282 0.174 6.45441015395e-39
-0.0356789003872 0.0516843884114 0.177 2.67438932955e-39
-0.0328361177332 0.0484723642729 0.166 2.49000087242e-39
-0.0312404670321 0.0470123533008 0.161 6.823195476e-39
-0.0304435836242 0.0467203511064 0.16 1.21705392055e-38
-0.0300272450115 0.0470123533008 0.161 1.17095610562e-38
-0.0297861077154 0.0475963576896 0.163 1.21705364029e-38
-0.0288140229908 0.0470123533008 0.161 1.18028328832e-38
-0.0280322106638 0.0467203511064 0.16 1.18028328832e-38
-0.0279436680629 0.0475963576896 0.163 1.18028328832e-38
-0.0273295215121 0.0475963576896 0.163 1.20794197728e-38
-0.0273709669849 0.0487643664673 0.167 1.1987224143e-38
-0.0281829214738 0.051392386217 0.176 1.18950285131e-38
-0.0275197939098 0.051392386217 0.176 1.18950285131e-38
-0.0253307193942 0.0484723642729 0.166 1.18028328832e-38
-0.0242587887579 0.0475963576896 0.163 6.45369409043e-39
-0.0236446422071 0.0475963576896 0.163 3.87221645426e-39
-0.0231717870407 0.047888359884 0.164 3.87293532037e-39
-0.0226913963337 0.0481803620784 0.165 6.17782606695e-39
-0.0219359583985 0.047888359884 0.164 1.21705392055e-38
-0.0213180440774 0.047888359884 0.164 1.25393217249e-38
-0.0207001297563 0.047888359884 0.164 1.19872269456e-38
-0.0200822154352 0.047888359884 0.164 1.22638138352e-38
-0.0202950944544 0.0499323752449 0.171 1.24482050949e-38
-0.0206850586753 0.0525603949947 0.18 1.21716182053e-38
-0.0200068600302 0.0525603949947 0.18 1.23560066624e-38
-0.0180400839595 0.0490563686617 0.168 1.24482022923e-38
-0.0170962575117 0.0481803620784 0.165 1.23560066624e-38
-0.0162748835971 0.0475963576896 0.163 1.21716154027e-38
-0.0157568151876 0.047888359884 0.164 1.25403965208e-38
-0.0150465904954 0.0475963576896 0.163 1.00511145145e-38
-0.0144324439446 0.0475963576896 0.163 3.31725181564e-39
-0.0141573967163 0.0487643664673 0.167 3.13393815443e-39
-0.0132851579033 0.047888359884 0.164 4.05661051658e-39
-0.0125900042921 0.0475963576896 0.163 1.19861507483e-38
-0.0123432153407 0.0490563686617 0.168 1.25404007247e-38
-0.0126163786838 0.0528523971891 0.181 1.20794225754e-38
-0.0120003482479 0.0531443993835 0.182 1.25393245275e-38
-0.0105685955527 0.0496403730505 0.17 1.19861507483e-38
-0.00969447285457 0.0484723642729 0.166 1.17106372534e-38
-0.00906902299299 0.0484723642729 0.166 1.20794197728e-38
-0.00824011353787 0.0473043554952 0.162 1.18035503481e-38
-0.00767683188542 0.0475963576896 0.163 1.18035503481e-38
-0.00710601469247 0.047888359884 0.164 1.18957459779e-38
-0.00656722354665 0.0484723642729 0.166 1.19879416078e-38
-0.00594177368506 0.0484723642729 0.166 1.23560066624e-38
-0.0053483498706 0.0487643664673 0.167 1.04198984353e-38
-0.00469087396189 0.0484723642729 0.166 5.89872524792e-39
-0.00426134815333 0.0508083818282 0.174 5.16223640623e-39
-0.00377153802076 0.0531443993835 0.182 1.07876019549e-38
-0.00305189390292 0.0525603949947 0.18 1.2541115387e-38
-0.00222863610318 0.0493483708561 0.169 1.20801372376e-38
-0.00155420522834 0.0481803620784 0.165 1.20801386389e-38
-0.000938174792378 0.0484723642729 0.166 8.29832275121e-39
-0.000314608815918 0.0487643664673 0.167 6.17710720084e-39
0.000312724930793 0.0484723642729 0.166 8.39231344441e-39
0.000938174792378 0.0484723642729 0.166 1.24489197571e-38
0.00156362465396 0.0484723642729 0.166 1.16191590883e-38
0.00220226171143 0.0487643664673 0.167 1.22648844272e-38
0.00283147934326 0.0487643664673 0.167 1.19882975376e-38
0.0034606969751 0.0487643664673 0.167 1.18957459779e-38
0.00418787663345 0.0499323752449 0.171 1.22645284974e-38
0.00491694017692 0.0508083818282 0.174 1.22645298987e-38
0.00557253220051 0.0508083818282 0.174 1.13436511986e-38
0.00608494895458 0.0496403730505 0.17 1.11592599388e-38
0.00668590830954 0.0493483708561 0.169 1.18035517494e-38
0.00727933212399 0.0490563686617 0.168 1.21716154027e-38
0.00805360891047 0.0499323752449 0.171 1.18028328832e-38
0.00864703272493 0.0496403730505 0.17 1.21705364029e-38
0.00923292099888 0.0493483708561 0.169 4.05660491139e-39
0.00998647504899 0.0499323752449 0.171 3.22684424262e-39
0.0107551001801 0.0505163796338 0.173 3.41195156586e-39
0.0112750524747 0.0499323752449 0.171 1.03266238056e-38
0.0118496374379 0.0496403730505 0.17 1.22638110326e-38
0.0125636299003 0.0499323752449 0.171 1.23560066624e-38
0.0133623971934 0.0505163796338 0.173 1.24482022923e-38
0.0140952285072 0.0508083818282 0.174 1.24482022923e-38
0.0146660457001 0.0505163796338 0.173 1.22645298987e-38
0.0154064125544 0.0508083818282 0.174 1.20801386389e-38
0.0159696942068 0.0505163796338 0.173 1.24485652286e-38
0.0170058310257 0.0516843884114 0.177 1.26333124181e-38
0.0178724181833 0.0522683928003 0.179 1.21723342688e-38
0.0180287806487 0.0508083818282 0.174 1.20801372376e-38
0.0186843726723 0.0508083818282 0.174 1.1987224143e-38
0.0192288154735 0.0505163796338 0.173 1.25393217249e-38
0.0197657227342 0.0502243774394 0.172 5.80760581528e-39
0.0205324639802 0.0505163796338 0.173 2.76442976238e-39
0.0213067407667 0.0508083818282 0.174 3.13501435166e-39
0.0219623327902 0.0508083818282 0.174 3.59634843078e-39
0.0227479128875 0.0511003840226 0.175 1.18028356858e-38
0.0230060051496 0.0502243774394 0.172 1.22638110326e-38
0.0237915852469 0.0505163796338 0.173 1.18950271118e-38
0.024725992269 0.0511003840226 0.175 1.22638096313e-38
0.0268359436093 0.0540204059667 0.185 1.19879430091e-38
0.0273841541807 0.0537284037723 0.184 1.20801386389e-38
0.0277722345165 0.0531443993835 0.182 1.19882975376e-38
0.0273634314444 0.0511003840226 0.175 1.19879416078e-38
0.0281829214738 0.051392386217 0.176 1.18957459779e-38
0.0290099470438 0.0516843884114 0.177 1.18035517494e-38
0.0298445081543 0.0519763906058 0.178 1.20794197728e-38
0.0305151712589 0.0519763906058 0.178 1.18950313157e-38
0.0311858343635 0.0519763906058 0.178 1.16184444261e-38
0.0318564974681 0.0519763906058 0.178 4.15024247737e-39
0.0321616868584 0.051392386217 0.176 3.6860329338e-39
0.0328248144225 0.051392386217 0.176 3.22684984781e-39
0.0338684867819 0.0519763906058 0.178 5.90231537459e-39
0.0343451097186 0.0516843884114 0.177 1.1896826379e-38
0.0348141971147 0.051392386217 0.176 1.17131525841e-38
0.0358804760956 0.0519763906058 0.178 1.14358468284e-38
0.0363457957216 0.0516843884114 0.177 1.20801372376e-38
0.0365944685581 0.0511003840226 0.175 1.19879416078e-38
0.0374667073711 0.051392386217 0.176 1.19879416078e-38
0.038563128514 0.0519763906058 0.178 1.13425721987e-38
0.0394542061783 0.0522683928003 0.179 1.16184416235e-38
0.0401286370531 0.0522683928003 0.179 1.1987224143e-38
0.0405751178278 0.0519763906058 0.178 1.17106372534e-38
0.0412457809324 0.0519763906058 0.178 1.18950285131e-38
0.0421519296776 0.0522683928003 0.179 1.19861479457e-38
0.0433048673743 0.0528523971891 0.181 1.15251697964e-38
0.0435007914273 0.0522683928003 0.179 6.91395337364e-39
0.0441752223022 0.0522683928003 0.179 3.59562956467e-39
0.0451002098987 0.0525603949947 0.18 3.13465141535e-39
0.0460327330357 0.0528523971891 0.181 7.00758673572e-39
0.0459404226645 0.0519763906058 0.178 1.12485829068e-38
0.0466110857691 0.0519763906058 0.178 1.15262487962e-38
0.0472817488737 0.0519763906058 0.178 1.15262487962e-38
0.0484912031241 0.0525603949947 0.18 1.10656307806e-38
0.0494425651124 0.0528523971891 0.181 9.95748115245e-39
0.0498476004143 0.0525603949947 0.18 9.77345002643e-39
0.0508064979431 0.0528523971891 0.181 1.10652678443e-38
0.0517729310123 0.0531443993835 0.182 1.16184416235e-38
0.0524586651979 0.0531443993835 0.182 1.13425736e-38
0.0534364015779 0.0534364015779 0.183 1.15262459937e-38
0.0532385936398 0.0525603949947 0.18 1.18017538834e-38
0.0542163300198 0.0528523971891 0.181 1.17095582536e-38
0.0545949909299 0.0525603949947 0.18 1.18013937497e-38
0.0555802628505 0.0528523971891 0.181 1.15244509303e-38
0.0562622292658 0.0528523971891 0.181 8.48271401094e-39
0.0572588044971 0.0531443993835 0.182 6.823195476e-39
0.0579445386827 0.0531443993835 0.182 8.94369496285e-39
0.0586302728682 0.0531443993835 0.182 1.15251697964e-38
0.0593160070538 0.0531443993835 0.182 1.11574662768e-38
0.0596720613425 0.0528523971891 0.181 1.14340503638e-38
0.060687475425 0.0531443993835 0.182 1.16173682289e-38
0.0613732096106 0.0531443993835 0.182 6.45441295654e-39
0.0623999270039 0.0534364015779 0.183 4.61050035928e-39
0.0634341799377 0.0537284037723 0.184 5.53353285513e-39
0.0641274496637 0.0537284037723 0.184 1.08808793872e-38
0.0648207193898 0.0537284037723 0.184 1.11581823403e-38
0.0655139891159 0.0537284037723 0.184 1.11581823403e-38
0.0658474367831 0.0534364015779 0.183 1.12503779702e-38
0.066536938739 0.0534364015779 0.183 1.15262459937e-38
0.0675937982942 0.0537284037723 0.184 1.14340503638e-38
0.06865819339 0.0540204059667 0.185 1.17106372534e-38
0.0689803377464 0.0537284037723 0.184 1.17106372534e-38
0.0696736074725 0.0537284037723 0.184 1.14340531664e-38
0.070749305879 0.0540204059667 0.185 1.09730750171e-38
0.0722187362767 0.0546044103556 0.187 1.16184444261e-38
0.0725333450926 0.0543124081612 0.186 1.1710640056e-38
0.0728404183681 0.0540204059667 0.185 1.14344133001e-38
0.0767174539558 0.0563564235221 0.193 1.17095638588e-38
0.0862725193111 0.0627804717992 0.215 8.66639200975e-39
0.0963984018594 0.0694965222707 0.238 2.85735126484e-39
0.10506238955 0.0750445639646 0.257 3.04174252457e-39
0.108918702402 0.0770885793255 0.264 3.7800208244e-39
0.110746070973 0.0776725837143 0.266 9.03588779012e-39
0.11174829786 0.0776725837143 0.266 1.13425721987e-38
0.11190277644 0.0770885793255 0.264 1.13407785367e-38
0.11332510971 0.0773805815199 0.265 1.14329741666e-38
0.113029339745 0.0765045749367 0.262 1.16173654263e-38
0.113146140623 0.0759205705479 0.26 1.16173654263e-38
0.114564706122 0.0762125727423 0.261 1.16173654263e-38
0.115548094158 0.0762125727423 0.261 1.14329741666e-38
0.113852597545 0.0744605595758 0.255 1.1156387277e-38
0.113012384779 0.0732925507981 0.251 1.16173654263e-38
0.118044241949 0.0759205705479 0.26 1.13418575365e-38
0.112607349477 0.0706645310484 0.242 1.13418575365e-38
0.110704625501 0.0689125178819 0.236 1.12496619067e-38
0.111120964113 0.0686205156875 0.235 1.12496619067e-38
0.112959635996 0.0692045200763 0.237 1.12496619067e-38
0.114332988252 0.0694965222707 0.238 1.12496619067e-38
0.115229717571 0.0694965222707 0.238 1.16173654263e-38
0.115638520644 0.0692045200763 0.237 1.16173654263e-38
0.116531482193 0.0692045200763 0.237 1.16173654263e-38
0.11791990553 0.0694965222707 0.238 1.16173654263e-38
0.119315864408 0.0697885244651 0.239 1.15251697964e-38
0.11971336417 0.0694965222707 0.238 1.15251697964e-38
0.119596563292 0.0689125178819 0.236 1.15251697964e-38
0.120485757071 0.0689125178819 0.236 1.15251697964e-38
0.12137495085 0.0689125178819 0.236 1.14329741666e-38
0.122782213039 0.0692045200763 0.237 1.14329741666e-38
0.124197010768 0.0694965222707 0.238 1.14329741666e-38
0.125093740087 0.0694965222707 0.238 1.14329741666e-38
0.125461097687 0.0692045200763 0.237 1.15251697964e-38
0.126354059236 0.0692045200763 0.237 1.15251697964e-38
0.128320835307 0.0697885244651 0.239 1.14329741666e-38
0.127599307304 0.0689125178819 0.236 1.14329741666e-38
0.129032943884 0.0692045200763 0.237 1.14329769692e-38
0.129377694862 0.0689125178819 0.236 1.14329769692e-38
0.130266888641 0.0689125178819 0.236 1.14329769692e-38
0.130600336308 0.0686205156875 0.235 1.13407813393e-38
0.132604790082 0.0692045200763 0.237 1.13400624732e-38
0.132371188326 0.0686205156875 0.235 1.13400624732e-38
0.133256614335 0.0686205156875 0.235 1.13400624732e-38
0.134142040344 0.0686205156875 0.235 1.14322581031e-38
0.133878296426 0.0680365112987 0.233 1.15244537329e-38
0.134177834161 0.0677445091042 0.232 1.15244537329e-38
0.136216197867 0.0683285134931 0.234 1.15244537329e-38
0.13475430301 0.0671605047154 0.23 1.14322581031e-38
0.134441578079 0.0665765003266 0.228 1.14322581031e-38
0.135300629696 0.0665765003266 0.228 1.15244537329e-38
0.135562489728 0.0662844981322 0.227 1.14322581031e-38
-0.104508527324 0.0517597438164 0.175 1.30002970716e-38
-0.104442591344 0.0520555137811 0.176 1.3184691134e-38
-0.104958775869 0.0526470537104 0.178 6.27001889422e-39
-0.10663166586 0.0538301335691 0.182 5.53245385531e-39
-0.104199570163 0.0529428236751 0.179 5.53245385531e-39
-0.102368433821 0.0523512837458 0.177 1.32768839612e-38
-0.098828613671 0.0508724339224 0.172 1.29081014418e-38
-0.097038922802 0.0502808939931 0.17 1.28159058119e-38
-0.0975325007048 0.0508724339224 0.172 1.29081014418e-38
-0.0980110075266 0.0514639738518 0.174 1.30002970716e-38
-0.0979149293852 0.0517597438164 0.175 1.31846883314e-38
-0.0955883312555 0.0508724339224 0.172 1.30002970716e-38
-0.0982521448227 0.0526470537104 0.178 1.30924927015e-38
-0.0959368500037 0.0517597438164 0.175 1.27237101821e-38
-0.0941886046075 0.0511682038871 0.173 1.19861451432e-38
-0.0929961053232 0.0508724339224 0.172 5.16330839956e-39
-0.0918111415794 0.0505766639578 0.171 5.53209091901e-39
-0.091699992357 0.0508724339224 0.172 4.0573209749e-39
-0.0921106793143 0.0514639738518 0.174 1.24471232925e-38
-0.0904038793908 0.0508724339224 0.172 1.22627348353e-38
-0.0902776590874 0.0511682038871 0.173 1.26315173548e-38
-0.0901439032435 0.0514639738518 0.174 1.27247919845e-38
-0.0930884156943 0.0535343636044 0.181 1.24482050949e-38
-0.0893432520653 0.0517597438164 0.175 1.29081014418e-38
-0.0866568318767 0.0505766639578 0.171 1.25393189223e-38
-0.0855095458354 0.0502808939931 0.17 1.25403979221e-38
-0.0843697953346 0.0499851240284 0.169 1.24482022923e-38
-0.0832375803744 0.0496893540638 0.168 1.2356009465e-38
-0.0826045949723 0.0496893540638 0.168 8.29832275121e-39
-0.0819716095702 0.0496893540638 0.168 3.96440928153e-39
-0.0813386241681 0.0496893540638 0.168 4.42502729714e-39
-0.0845487644215 0.0520555137811 0.176 1.09712799537e-38
-0.0824557680474 0.0511682038871 0.173 1.27229969211e-38
-0.0808582334612 0.0505766639578 0.171 1.26308012913e-38
-0.0792757699559 0.0499851240284 0.169 1.29995838107e-38
-0.0781736971577 0.0496893540638 0.168 1.26308012913e-38
-0.0789253673226 0.0505766639578 0.171 1.29073881809e-38
-0.0773655104389 0.0499851240284 0.169 1.25386056614e-38
-0.0762747409514 0.0496893540638 0.168 1.26308012913e-38
-0.0747412584594 0.0490978141344 0.166 1.22638096313e-38
-0.0754552509219 0.0499851240284 0.169 1.27247891819e-38
-0.0788029147895 0.0526470537104 0.178 1.19861479457e-38
-0.0750596350456 0.0505766639578 0.171 6.63808254756e-39
-0.0713691040852 0.0485062742051 0.164 4.0573237775e-39
-0.0707511897642 0.0485062742051 0.164 9.12808341998e-39
-0.0709885592899 0.0490978141344 0.166 1.23560066624e-38
-0.0703631094283 0.0490978141344 0.166 1.14347678286e-38
-0.0693175531838 0.0488020441698 0.165 1.25389587886e-38
-0.0691122097052 0.0490978141344 0.166 9.77345002643e-39
-0.0676616181587 0.0485062742051 0.164 1.03266238056e-38
-0.0703141284151 0.0508724339224 0.172 1.26315145522e-38
-0.0737164249513 0.0538301335691 0.182 1.2078340773e-38
-0.0686167479172 0.0505766639578 0.171 1.1987224143e-38
-0.0663824601587 0.0493935840991 0.167 1.20794197728e-38
-0.0653595105357 0.0490978141344 0.166 1.18950285131e-38
-0.0639541322322 0.0485062742051 0.164 1.19861507483e-38
-0.0637224143618 0.0488020441698 0.165 8.85149653039e-39
-0.0627183035901 0.0485062742051 0.164 8.20612712135e-39
-0.0632363719995 0.0493935840991 0.167 1.20783435756e-38
-0.0618573680878 0.0488020441698 0.165 1.20783435756e-38
-0.0630913128449 0.0502808939931 0.17 1.20783463782e-38
-0.0661243678965 0.0532385936398 0.18 7.65295614477e-39
-0.0614466811305 0.0499851240284 0.169 4.61050035928e-39
-0.0590108176635 0.0485062742051 0.164 6.8231926734e-39
-0.0569686861878 0.0473231943465 0.16 1.1801756686e-38
-0.0560135564293 0.0470274243818 0.159 1.1801756686e-38
-0.0561115184558 0.0476189643111 0.161 1.21705392055e-38
-0.0561944094013 0.0482105042405 0.163 1.20783435756e-38
-0.0552392796428 0.0479147342758 0.162 1.1801756686e-38
-0.0539544699874 0.0473231943465 0.16 1.21705392055e-38
-0.0543519697488 0.0482105042405 0.163 1.18939523159e-38
-0.0586830216518 0.0526470537104 0.178 1.16166465602e-38
-0.0576864464205 0.0523512837458 0.177 1.23542115991e-38
-0.0541202518784 0.0496893540638 0.168 1.16166465602e-38
-0.0515770069593 0.0479147342758 0.162 1.20776275121e-38
-0.0509666281787 0.0479147342758 0.162 4.42539023344e-39
-0.0500454083525 0.0476189643111 0.161 3.31904547768e-39
-0.0494387973421 0.0476189643111 0.161 3.04245858809e-39
-0.0494387973421 0.0482105042405 0.163 1.06021443071e-38
-0.0479260375865 0.0473231943465 0.16 1.17106372534e-38
-0.0473231943465 0.0473231943465 0.16 1.17106372534e-38
-0.0490563686617 0.0496893540638 0.168 1.17106372534e-38
-0.0513057275012 0.0526470537104 0.178 1.17106372534e-38
-0.049497197781 0.0514639738518 0.174 1.14340503638e-38
-0.0460346169208 0.0485062742051 0.164 1.20794197728e-38
-0.0451397714863 0.0482105042405 0.163 1.20794197728e-38
-0.043706134906 0.0473231943465 0.16 1.17106372534e-38
-0.0431032916659 0.0473231943465 0.16 1.17106372534e-38
-0.0430317040311 0.0479147342758 0.162 1.10641888445e-38
-0.0424213252505 0.0479147342758 0.162 9.03588779012e-39
-0.04181094647 0.0479147342758 0.162 3.59562676207e-39
-0.0412005676894 0.0479147342758 0.162 4.05660491139e-39
-0.0418429725171 0.0493935840991 0.167 4.51830192682e-39
-0.0441752223022 0.0529428236751 0.179 1.22627320327e-38
-0.043014749065 0.0523512837458 0.177 1.14340503638e-38
-0.038759052567 0.0479147342758 0.162 1.16184416235e-38
-0.0376777025051 0.0473231943465 0.16 1.1987224143e-38
-0.0370748592651 0.0473231943465 0.16 1.15262459937e-38
-0.0360161158247 0.0467316544171 0.158 1.15262459937e-38
-0.0358691727849 0.0473231943465 0.16 1.14340503638e-38
-0.0354867441045 0.0476189643111 0.161 1.18950285131e-38
-0.0348801330941 0.0476189643111 0.161 1.16184416235e-38
-0.034486401103 0.0479147342758 0.162 1.18950285131e-38
-0.0340851335713 0.0482105042405 0.163 1.18017538834e-38
-0.0363457957216 0.0523512837458 0.177 6.63880141367e-39
-0.0362836275124 0.0532385936398 0.18 3.78073688791e-39
-0.0328361177332 0.0490978141344 0.166 2.95097902174e-39
-0.0310464268642 0.0473231943465 0.16 7.83734740449e-39
-0.0302533112265 0.0470274243818 0.159 1.20783435756e-38
-0.0298407403841 0.0473231943465 0.16 1.1801756686e-38
-0.0294206340011 0.0476189643111 0.161 1.2078340773e-38
-0.0288140229908 0.0476189643111 0.161 1.20794197728e-38
-0.0282074119805 0.0476189643111 0.161 1.24482022923e-38
-0.0277722345165 0.0479147342758 0.162 1.20794197728e-38
-0.0274971872883 0.0485062742051 0.164 1.18028328832e-38
-0.0268792729672 0.0485062742051 0.164 1.18950285131e-38
-0.0283430517095 0.0523512837458 0.177 1.1987224143e-38
-0.0268943440482 0.0508724339224 0.172 1.1987224143e-38
-0.0251781246991 0.0488020441698 0.165 1.1987224143e-38
-0.0239611349081 0.0476189643111 0.161 9.12808341998e-39
-0.0233545238978 0.0476189643111 0.161 3.31975873859e-39
-0.0230304956563 0.0482105042405 0.163 2.48999806982e-39
-0.0224163491054 0.0482105042405 0.163 8.75930090053e-39
-0.0216684467107 0.0479147342758 0.162 1.22627348353e-38
-0.0213180440774 0.0485062742051 0.164 1.18939523159e-38
-0.0207001297563 0.0485062742051 0.164 1.28159086145e-38
-0.0199597629021 0.0482105042405 0.163 1.06954091277e-38
-0.019582985877 0.0488020441698 0.165 1.04199012379e-38
-0.0201104737121 0.0517597438164 0.175 1.21716182053e-38
-0.0192288154735 0.0511682038871 0.173 1.23560066624e-38
-0.017717939603 0.0488020441698 0.165 1.21716154027e-38
-0.0168890301479 0.0482105042405 0.163 1.21716154027e-38
-0.0162748835971 0.0482105042405 0.163 1.22638110326e-38
-0.0159489714704 0.0490978141344 0.166 1.20794183715e-38
-0.0153235216088 0.0490978141344 0.166 1.23560052611e-38
-0.0143439013437 0.0479147342758 0.162 9.5890643719e-39
-0.0139030722244 0.0485062742051 0.164 7.92954023176e-39
-0.0131231437825 0.0479147342758 0.162 1.03277028054e-38
-0.0125900042921 0.0482105042405 0.163 1.29091804416e-38
-0.012122800781 0.0488020441698 0.165 1.1987224143e-38
-0.0118496374379 0.0502808939931 0.17 1.22627348353e-38
-0.011340988454 0.0508724339224 0.172 7.37565038907e-39
-0.0103820909253 0.0493935840991 0.167 3.78002362699e-39
-0.00969447285457 0.0490978141344 0.166 5.07255190322e-39
-0.00895975765572 0.0485062742051 0.164 1.07886809547e-38
-0.00834184333464 0.0485062742051 0.164 1.19879416078e-38
-0.00781812326982 0.0490978141344 0.166 1.18957459779e-38
-0.00714934405035 0.0488020441698 0.165 1.18957459779e-38
-0.00652766195902 0.0488020441698 0.165 1.21723328675e-38
-0.0058701860503 0.0485062742051 0.164 1.18950285131e-38
-0.00525227172922 0.0485062742051 0.164 1.21716154027e-38
-0.00466261568501 0.0488020441698 0.165 1.26308012913e-38
-0.00408991460693 0.0493935840991 0.167 1.25393217249e-38
-0.00352286518423 0.0502808939931 0.17 1.26325921507e-38
-0.00284843430939 0.0496893540638 0.168 1.17113547182e-38
-0.00220226171143 0.0493935840991 0.167 1.20801372376e-38
-0.00154478580271 0.0485062742051 0.164 1.05120968678e-38
-0.00094947810313 0.0496893540638 0.168 3.22684984781e-39
-0.00032967989692 0.0517597438164 0.175 3.2261337843e-39
0.000324028241544 0.0508724339224 0.172 2.76838002275e-39
0.000943826447754 0.0493935840991 0.167 1.01440290105e-38
0.00157304407959 0.0493935840991 0.167 1.21723328675e-38
0.00220226171143 0.0493935840991 0.167 1.19882975376e-38
0.00281452437713 0.0490978141344 0.166 1.20804931675e-38
0.00343997423872 0.0490978141344 0.166 1.19879416078e-38
0.00408991460693 0.0493935840991 0.167 1.21723328675e-38
0.00469087396189 0.0490978141344 0.166 1.18035517494e-38
0.0053483498706 0.0493935840991 0.167 1.16209569543e-38
0.0060491551372 0.0499851240284 0.169 1.17131525841e-38
0.00664634672191 0.0496893540638 0.168 1.1896826379e-38
0.0074959789134 0.0511682038871 0.173 1.20801386389e-38
0.00857167731992 0.0538301335691 0.182 1.24471232925e-38
0.00920654660713 0.0535343636044 0.181 1.13404156004e-38
0.00939681900478 0.0508724339224 0.172 3.13428847905e-39
0.00998647504899 0.0505766639578 0.171 3.96404914782e-39
0.0106307637618 0.0505766639578 0.171 2.95061328284e-39
0.0112750524747 0.0505766639578 0.171 9.12808061739e-39
0.0119193411875 0.0505766639578 0.171 1.25393189223e-38
0.0124166868606 0.0499851240284 0.169 1.2632593552e-38
0.013130679323 0.0502808939931 0.17 1.23560066624e-38
0.0137712002656 0.0502808939931 0.17 1.21723342688e-38
0.0145812708695 0.0508724339224 0.172 1.20801386389e-38
0.0151407847517 0.0505766639578 0.171 1.1896826379e-38
0.0159696942068 0.0511682038871 0.173 1.21723342688e-38
0.0172940654499 0.0532385936398 0.18 1.23567241272e-38
0.0180721100066 0.0535343636044 0.181 1.22645284974e-38
0.0182360080125 0.0520555137811 0.176 1.23567241272e-38
0.0185769912202 0.0511682038871 0.173 1.21723328675e-38
0.0192288154735 0.0511682038871 0.173 1.21716154027e-38
0.0197657227342 0.0508724339224 0.172 7.46856208244e-39
0.0205324639802 0.0511682038871 0.173 3.22684704522e-39
0.0211842882335 0.0511682038871 0.173 2.49072113983e-39
0.0218361124869 0.0511682038871 0.173 4.79596781623e-39
0.0227479128875 0.0517597438164 0.175 1.23560066624e-38
0.0230060051496 0.0508724339224 0.172 1.1987224143e-38
0.0236540616327 0.0508724339224 0.172 1.22638096313e-38
0.024725992269 0.0517597438164 0.175 1.24482022923e-38
0.0266908844546 0.0544216734984 0.184 1.20794197728e-38
0.0278306349554 0.0553089833924 0.187 1.19872269456e-38
0.0277722345165 0.0538301335691 0.182 1.22645284974e-38
0.0275197939098 0.0520555137811 0.176 1.17113547182e-38
0.0281829214738 0.0520555137811 0.176 1.16191604896e-38
0.0288460490379 0.0520555137811 0.176 1.18035517494e-38
0.0298445081543 0.0526470537104 0.178 1.1987224143e-38
0.0303437377125 0.0523512837458 0.177 1.20794197728e-38
0.0308354317302 0.0520555137811 0.176 1.24482050949e-38
0.0316775283812 0.0523512837458 0.177 8.57598864062e-39
0.0319789500012 0.0517597438164 0.175 4.42610909955e-39
0.0330113190499 0.0523512837458 0.177 3.87401151759e-39
0.0336782143842 0.0523512837458 0.177 8.94656622341e-39
0.0341510695507 0.0520555137811 0.176 1.16205996231e-38
0.0348141971147 0.0520555137811 0.176 1.14365656945e-38
0.0358804760956 0.0526470537104 0.178 1.1896826379e-38
0.0361404522429 0.0520555137811 0.176 9.59014056912e-39
0.0365944685581 0.0517597438164 0.175 8.11393149149e-39
0.037253828352 0.0517597438164 0.175 8.11500768871e-39
0.0383464817246 0.0523512837458 0.177 1.11574634742e-38
0.0394542061783 0.0529428236751 0.179 1.18950285131e-38
0.0399044547232 0.0526470537104 0.178 1.18950285131e-38
0.0405751178278 0.0526470537104 0.178 1.17106372534e-38
0.0414774988028 0.0529428236751 0.179 1.18028328832e-38
0.0423874153183 0.0532385936398 0.18 1.16184416235e-38
0.0428263605525 0.0529428236751 0.179 1.17106372534e-38
0.0437438126085 0.0532385936398 0.18 1.18010378199e-38
0.0441752223022 0.0529428236751 0.179 9.68053833305e-39
0.0453507666203 0.0535343636044 0.181 9.40467030957e-39
0.0462870575276 0.0538301335691 0.182 1.13407785367e-38
0.0461985149267 0.0529428236751 0.179 1.17095638588e-38
0.0468729458015 0.0529428236751 0.179 1.18017594886e-38
0.0475473766764 0.0529428236751 0.179 1.1802479756e-38
0.0482218075512 0.0529428236751 0.179 7.65367641218e-39
0.0491694017692 0.0532385936398 0.18 3.77930195828e-39
0.0501245315277 0.0535343636044 0.181 3.41123830494e-39
0.0505257990594 0.0532385936398 0.18 6.17782326436e-39
0.0512039977045 0.0532385936398 0.18 1.15262487962e-38
0.0524586651979 0.0538301335691 0.182 1.13425736e-38
0.0531443993835 0.0538301335691 0.182 1.14347692299e-38
0.0538301335691 0.0538301335691 0.182 1.15262459937e-38
0.0548154054896 0.0541259035338 0.183 1.14340503638e-38
0.0548982964351 0.0535343636044 0.181 1.17106358521e-38
0.0558873361259 0.0538301335691 0.182 1.14340503638e-38
0.0565730703115 0.0538301335691 0.182 1.16184444261e-38
0.057573413313 0.0541259035338 0.183 1.16184444261e-38
0.0582629152688 0.0541259035338 0.183 1.16184444261e-38
0.0586302728682 0.0538301335691 0.182 1.15262487962e-38
0.0593160070538 0.0538301335691 0.182 1.15251669938e-38
0.0600017412394 0.0538301335691 0.182 1.16177199548e-38
0.0610209230922 0.0541259035338 0.183 9.67982787473e-39
0.061710425048 0.0541259035338 0.183 3.41124110754e-39
0.0623999270039 0.0541259035338 0.183 3.31904547768e-39
0.0634341799377 0.0544216734984 0.184 2.21341398283e-39
0.0641274496637 0.0544216734984 0.184 7.3774454524e-39
0.0648207193898 0.0544216734984 0.184 1.12496619067e-38
0.0658700434046 0.0547174434631 0.185 1.11581823403e-38
0.0658474367831 0.0541259035338 0.183 1.13425736e-38
0.0669005285681 0.0544216734984 0.184 1.11574662768e-38
0.0675937982942 0.0544216734984 0.184 1.13418575365e-38
0.0679159426506 0.0541259035338 0.183 1.14340531664e-38
0.0686054446065 0.0541259035338 0.183 1.12496619067e-38
0.0700522683827 0.0547174434631 0.185 1.13418547339e-38
0.070749305879 0.0547174434631 0.185 1.12496591041e-38
0.0722187362767 0.0553089833924 0.187 1.12496591041e-38
0.0717534166508 0.0544216734984 0.184 1.13418547339e-38
0.0740216143416 0.0556047533571 0.188 1.12496591041e-38
0.0791024525244 0.0588582229684 0.199 1.17095610562e-38
0.0898839270963 0.066252472085 0.224 8.85006440336e-39
0.0996386842748 0.0727594113077 0.246 4.05481545325e-39
0.105471192623 0.0763086508837 0.258 3.77822856366e-39
0.108918702402 0.0780832706717 0.264 2.58076157266e-39
0.110329732361 0.0783790406363 0.265 7.37636925518e-39
0.11174829786 0.078674810601 0.266 1.18950313157e-38
0.111478902287 0.077787500707 0.263 1.16173654263e-38
0.11204218394 0.0774917307423 0.262 1.14329741666e-38
0.112597930051 0.0771959607777 0.261 1.12485829068e-38
0.113581318087 0.0771959607777 0.261 1.12485829068e-38
0.115442596591 0.077787500707 0.263 1.09719960173e-38
0.114662668149 0.0766044208483 0.259 1.12485829068e-38
0.11340611677 0.075125571025 0.254 1.14329741666e-38
0.110310893509 0.072463641343 0.245 1.15251697964e-38
0.112596046166 0.073350951237 0.248 1.13418575365e-38
0.111676710225 0.0709847915197 0.24 1.13418575365e-38
0.111173712897 0.0700974816257 0.237 1.14340531664e-38
0.112539529613 0.0703932515904 0.238 1.14340531664e-38
0.113912881869 0.070689021555 0.239 1.13418575365e-38
0.113852597545 0.0700974816257 0.237 1.13418575365e-38
0.114745559094 0.0700974816257 0.237 1.15251697964e-38
0.115638520644 0.0700974816257 0.237 1.15251697964e-38
0.116039788175 0.069801711661 0.236 1.15251697964e-38
0.117424443742 0.0700974816257 0.237 1.15251697964e-38
0.11881663485 0.0703932515904 0.238 1.16173654263e-38
0.11971336417 0.0703932515904 0.238 1.16173654263e-38
0.119596563292 0.069801711661 0.236 1.16173654263e-38
0.120485757071 0.069801711661 0.236 1.16173654263e-38
0.121889251489 0.0700974816257 0.237 1.14329741666e-38
0.122782213039 0.0700974816257 0.237 1.14329741666e-38
0.123153338408 0.069801711661 0.236 1.14329741666e-38
0.125093740087 0.0703932515904 0.238 1.14329741666e-38
0.125461097687 0.0700974816257 0.237 1.14329741666e-38
0.125820919746 0.069801711661 0.236 1.14329741666e-38
0.127247020785 0.0700974816257 0.237 1.15251697964e-38
0.127599307304 0.069801711661 0.236 1.15251697964e-38
0.129032943884 0.0700974816257 0.237 1.14329741666e-38
0.128829484291 0.0695059416964 0.235 1.14329741666e-38
0.1297149103 0.0695059416964 0.235 1.14329741666e-38
0.130600336308 0.0695059416964 0.235 1.13407785367e-38
0.130926248435 0.0692101717317 0.234 1.15244509303e-38
0.132934469979 0.069801711661 0.236 1.14322553005e-38
0.133823663758 0.069801711661 0.236 1.14322553005e-38
0.133000405958 0.068914401767 0.233 1.14322553005e-38
0.133303711463 0.0686186318024 0.232 1.15244537329e-38
0.134756186895 0.068914401767 0.233 1.15244537329e-38
0.133305595348 0.0677313219084 0.229 1.14322581031e-38
0.134168414736 0.0677313219084 0.229 1.14322581031e-38
0.133851922035 0.067139781979 0.227 1.14322581031e-38
0.134113782067 0.0668440120144 0.226 1.14322581031e-38
0.134965298144 0.0668440120144 0.226 1.14322581031e-38
-0.105105718908 0.0527186413452 0.176 1.29081014418e-38
-0.104442591344 0.0527186413452 0.176 1.32768867638e-38
-0.10377946378 0.0527186413452 0.176 6.17782326436e-39
-0.104874001038 0.0536172545499 0.179 5.16367133586e-39
-0.103617449659 0.053317716815 0.178 7.37636645258e-39
-0.101211728354 0.0524191036103 0.175 1.31846883314e-38
-0.10227612345 0.053317716815 0.178 1.24471232925e-38
-0.0986665995502 0.0521195658754 0.174 1.25393189223e-38
-0.0980110075266 0.0521195658754 0.174 1.33690795911e-38
-0.0979149293852 0.0524191036103 0.175 1.31846883314e-38
-0.0961440773675 0.0518200281404 0.173 1.32768839612e-38
-0.0943882964308 0.0512209526706 0.171 1.30924927015e-38
-0.0931957971465 0.0509214149357 0.17 1.30924927015e-38
-0.0920108334027 0.0506218772008 0.169 1.25393189223e-38
-0.0929961053232 0.0515204904055 0.172 7.74478463443e-39
-0.0934218633615 0.0521195658754 0.174 4.79452588011e-39
-0.0938325503188 0.0527186413452 0.176 8.29831994862e-39
-0.0931694227547 0.0527186413452 0.176 1.28159058119e-38
-0.0914550872907 0.0521195658754 0.174 1.27237129847e-38
-0.0897558229077 0.0515204904055 0.172 1.16173654263e-38
-0.0901439032435 0.0521195658754 0.174 9.1291624198e-39
-0.0884597099416 0.0515204904055 0.172 1.08805234574e-38
-0.0862800548516 0.0506218772008 0.169 1.25393189223e-38
-0.0846297714819 0.0500228017309 0.167 1.26315145522e-38
-0.0875215351492 0.0521195658754 0.174 1.23560066624e-38
-0.0848690248928 0.0509214149357 0.17 1.25403979221e-38
