VERSION .7
FIELDS x y z rgb
SIZE 4 4 4 4
TYPE F F F F
COUNT 1 1 1 1
WIDTH 843
HEIGHT 1
VIEWPOINT 0 0 0 1 0 0 0
POINTS 843
DATA ascii
0.154798840742 -0.0947556540302 0.498 2.4889288791e-39
0.156675190327 -0.0947556540302 0.498 2.58112450896e-39
0.15791478674 -0.0943751092349 0.496 2.67332013882e-39
0.157850734645 -0.093233474849 0.49 2.67332013882e-39
0.159696942068 -0.093233474849 0.49 2.67332013882e-39
0.161213469594 -0.0930432024513 0.489 2.67332013882e-39
0.161388670911 -0.0920918404631 0.484 2.58184057248e-39
0.162537840837 -0.0917112956678 0.482 2.67403620234e-39
0.165717838928 -0.0924723852584 0.486 2.67403620234e-39
0.168927979182 -0.093233474849 0.49 2.67403620234e-39
0.16972863036 -0.092662657656 0.487 2.58184057248e-39
0.171563534472 -0.092662657656 0.487 2.58184057248e-39
0.173754492873 -0.0928529300537 0.488 2.58184057248e-39
0.178471741226 -0.0943751092349 0.496 2.58184057248e-39
0.182158504416 -0.0953264712231 0.501 2.58184057248e-39
0.185882945309 -0.0962778332114 0.506 2.58184057248e-39
0.187418311686 -0.0960875608137 0.505 2.58184057248e-39
0.190445715082 -0.0966583780067 0.508 2.58184057248e-39
0.190466437819 -0.0957070160184 0.503 2.58184057248e-39
0.19656834174 -0.0978000123926 0.514 2.67403620234e-39
0.197732582747 -0.0974194675973 0.512 2.7662318322e-39
0.199661681115 -0.0974194675973 0.512 2.67403620234e-39
0.205528099395 -0.0993221915738 0.522 2.7658716985e-39
0.207494875466 -0.0993221915738 0.522 2.7658716985e-39
0.209060384005 -0.0991319191761 0.521 2.7658716985e-39
0.214668710023 -0.100844370755 0.53 2.7658716985e-39
0.222388871266 -0.103508184322 0.544 2.95026295822e-39
0.221137971543 -0.101986005141 0.536 3.04245858809e-39
0.226488205299 -0.103508184322 0.544 3.13465421795e-39
0.23063840423 -0.10445954631 0.549 3.13465421795e-39
0.244575386386 -0.109787173445 0.577 3.31797208305e-39
0.257551587129 -0.113592621398 0.597 3.31868954787e-39
0.264587898072 -0.115685617772 0.608 3.41160404384e-39
0.283997566518 -0.12310624128 0.647 3.59599530357e-39
0.294846860954 -0.126721416836 0.666 3.50487867352e-39
0.304499888336 -0.129765775198 0.682 3.59707150079e-39
0.31922621836 -0.134903129935 0.709 3.68998599676e-39
0.335518056923 -0.140611301864 0.739 4.05697345289e-39
0.344711416334 -0.143275115431 0.753 4.24136471261e-39
0.35539492888 -0.146509746191 0.77 4.33355753988e-39
0.361088029728 -0.147651380577 0.776 4.33355753988e-39
0.366357256424 -0.148602742565 0.781 4.42575316974e-39
0.371191305655 -0.149363832156 0.785 4.61014442947e-39
0.373195759428 -0.148983287361 0.783 4.88708724887e-39
0.374704751414 -0.148412470168 0.78 5.07147850859e-39
0.376675295255 -0.148031925372 0.778 5.16367413846e-39
0.380094546757 -0.14822219777 0.779 5.44026102805e-39
0.385488109871 -0.149173559758 0.784 5.53245665791e-39
0.382001038504 -0.146700018589 0.771 5.8090435475e-39
0.384905989367 -0.146700018589 0.771 6.17782326436e-39
0.387307942902 -0.146509746191 0.77 6.63880141367e-39
0.391222656192 -0.146890290987 0.772 6.8231926734e-39
0.392599776218 -0.146319473794 0.769 7.00758393313e-39
0.394468590263 -0.145938928998 0.767 7.00902306665e-39
0.394768127998 -0.14498756701 0.762 7.10121869651e-39
0.397117332749 -0.144797294612 0.761 7.46964108226e-39
0.39840779406 -0.144226477419 0.758 7.65403234199e-39
0.401263763909 -0.144226477419 0.758 7.74622797185e-39
0.419047639492 -0.149554104554 0.786 7.83842360172e-39
0.492765948328 -0.165346713559 0.869 9.49794493926e-39
0.490902785939 -0.16363426198 0.86 1.04199012379e-38
0.531476019882 -0.173718699055 0.913 7.2834547592e-39
0.526713558285 -0.171054885488 0.899 6.63808815276e-39
0.519486974945 -0.16762998233 0.881 3.2261309817e-39
-0.108091676832 -0.0337573375595 0.181 1.41981241964e-38
-0.104442591344 -0.0328248144225 0.176 1.43825154561e-38
-0.102010495648 -0.0322653005403 0.173 1.44747110859e-38
-0.102530447942 -0.0326383097951 0.175 1.40137329366e-38
-0.104199570163 -0.0333843283047 0.179 1.43825154561e-38
-0.106995255689 -0.0345033560691 0.185 1.41981241964e-38
-0.10399987834 -0.0337573375595 0.181 1.43825154561e-38
-0.102176277539 -0.0333843283047 0.179 1.45669067158e-38
-0.100934797241 -0.0331978236773 0.178 1.45669067158e-38
-0.102517260746 -0.0339438421869 0.182 1.46591023457e-38
-0.104629095972 -0.0348763653239 0.187 1.46591023457e-38
-0.105591761271 -0.0354358792061 0.19 1.49356892353e-38
-0.102115993215 -0.0345033560691 0.185 1.43825154561e-38
-0.0981296922895 -0.0333843283047 0.179 1.41981241964e-38
-0.0969108186135 -0.0331978236773 0.178 1.44747110859e-38
-0.0962401555089 -0.0331978236773 0.178 1.43825154561e-38
-0.0955694924043 -0.0331978236773 0.178 1.47512979755e-38
-0.0959651082806 -0.0335708329321 0.18 1.46591023457e-38
-0.0947575379153 -0.0333843283047 0.179 1.44747110859e-38
-0.0940831070405 -0.0333843283047 0.179 1.38296976067e-38
-0.0923650038062 -0.0330113190499 0.177 1.43828713859e-38
-0.0922161768813 -0.0331978236773 0.178 1.46594582755e-38
-0.0930884156943 -0.0337573375595 0.181 1.47516539053e-38
-0.09189591641 -0.0335708329321 0.18 1.45676255819e-38
-0.0917244828636 -0.0337573375595 0.181 1.45676255819e-38
-0.0910425164483 -0.0337573375595 0.181 1.42910386923e-38
-0.0893620909166 -0.0333843283047 0.179 1.42910386923e-38
-0.0896785836176 -0.0337573375595 0.181 1.42910386923e-38
-0.08948831122 -0.0339438421869 0.182 1.41988430625e-38
-0.0897784295292 -0.0343168514417 0.184 1.41066474326e-38
-0.0881168428488 -0.0339438421869 0.182 1.43832343222e-38
-0.0874311086632 -0.0339438421869 0.182 1.4752014039e-38
-0.0881752432877 -0.0345033560691 0.185 1.43832315196e-38
-0.0865324954584 -0.0341303468143 0.183 1.48442096689e-38
-0.0863120808988 -0.0343168514417 0.184 1.46598184092e-38
-0.0860841307986 -0.0345033560691 0.185 1.48442096689e-38
-0.0849255414466 -0.0343168514417 0.184 1.45676227793e-38
-0.0860634080622 -0.0350628699513 0.188 1.44754271495e-38
-0.0853550672551 -0.0350628699513 0.188 1.44754271495e-38
-0.0828457322683 -0.0343168514417 0.184 1.45676255819e-38
-0.0834919048663 -0.0348763653239 0.187 1.50286037312e-38
-0.0836727578383 -0.0352493745787 0.189 1.40137329366e-38
-0.0838385397293 -0.0356223838335 0.191 1.35523946536e-38
-0.0839892505393 -0.0359953930883 0.193 1.38289815432e-38
-0.083262070881 -0.0359953930883 0.193 1.41981241964e-38
-0.0825348912226 -0.0359953930883 0.193 1.40144518027e-38
-0.0818077115643 -0.0359953930883 0.193 1.46598212118e-38
-0.0836011702035 -0.0371144208527 0.199 1.39211771731e-38
-0.083684061149 -0.0374874301075 0.201 8.75822190071e-39
-0.0800387434317 -0.0361818977157 0.194 1.01415164824e-38
-0.0801254021474 -0.0365549069705 0.196 1.36449504172e-38
-0.0797919544803 -0.0367414115979 0.197 1.42903198262e-38
-0.0850687167161 -0.0395389810089 0.212 1.39222561729e-38
-0.0826799503773 -0.0387929624993 0.208 1.34612808262e-38
-0.0795338622181 -0.0376739347349 0.202 7.00758673572e-39
-0.0776028799647 -0.0371144208527 0.199 4.70018486229e-39
-0.0849632191491 -0.0410310180281 0.22 8.38908625405e-39
-0.0871937391374 -0.0425230550473 0.228 1.4198126999e-38
-0.0787614693167 -0.0387929624993 0.208 1.38293444795e-38
-0.0772279868248 -0.0384199532445 0.206 1.36449532198e-38
-0.0768229515229 -0.0386064578719 0.207 5.90052031125e-39
-0.0811860294729 -0.0412175226555 0.221 2.30417468307e-39
-0.0778082234434 -0.0399119902637 0.214 3.6860329338e-39
-0.0734037000205 -0.0380469439897 0.204 1.34612780236e-38
-0.0719229663121 -0.0376739347349 0.202 1.37378649132e-38
-0.0729233093136 -0.0386064578719 0.207 1.40144518027e-38
-0.0721433808717 -0.0386064578719 0.207 6.91538830326e-39
-0.0686054446065 -0.0371144208527 0.199 3.87221365166e-39
-0.0688786079496 -0.0376739347349 0.202 2.58147483358e-39
-0.0684547337965 -0.0378604393623 0.203 1.0418103372e-38
-0.0693571147715 -0.0387929624993 0.208 1.3737146047e-38
-0.0665953391778 -0.0376739347349 0.202 1.46591023457e-38
-0.0668119859672 -0.0382334486171 0.205 7.83662573579e-39
-0.0663617374223 -0.0384199532445 0.206 2.7658660933e-39
-0.0668590830954 -0.0391659717541 0.21 3.13464861276e-39
-0.0648094160791 -0.0384199532445 0.206 1.170884219e-38
-0.0643440964532 -0.0386064578719 0.207 1.38293416769e-38
-0.0635641680113 -0.0386064578719 0.207 1.33690823937e-38
-0.0639974615901 -0.0393524763815 0.211 8.5749096408e-39
-0.0635019998022 -0.0395389810089 0.212 3.04245578549e-39
-0.0618159226151 -0.0389794671267 0.209 5.34734653207e-39
-0.0607364564383 -0.0387929624993 0.208 1.34612780236e-38
-0.0622586356195 -0.0402849995185 0.216 1.31857673312e-38
-0.0605913972836 -0.0397254856363 0.213 1.35545498506e-38
-0.0595081633366 -0.0395389810089 0.212 9.68125719916e-39
-0.0589863271569 -0.0397254856363 0.213 8.48199794743e-39
-0.0614617522115 -0.0419635411651 0.225 1.24464100315e-38
-0.0587282348948 -0.0406580087733 0.218 1.30013788741e-38
-0.0573756053748 -0.0402849995185 0.216 1.30013788741e-38
-0.0576092071304 -0.0410310180281 0.22 1.36467482831e-38
-0.0634906964914 -0.0458801383405 0.246 1.28169848117e-38
-0.0584946331392 -0.0428960643021 0.23 1.30013760715e-38
-0.0561247056517 -0.0417770365377 0.224 1.37389411104e-38
-0.0577486146296 -0.0436420828117 0.234 1.30013746702e-38
-0.0622134223765 -0.0477451846145 0.256 1.30013746702e-38
-0.0559852981524 -0.0436420828117 0.234 1.39222561729e-38
-0.0539262117105 -0.0427095596747 0.229 1.40144518027e-38
-0.0579294676017 -0.0466261568501 0.25 1.35534736534e-38
-0.0567595749389 -0.0464396522227 0.249 1.33690823937e-38
-0.052234482868 -0.0434555781843 0.233 1.34612780236e-38
-0.0506953487207 -0.0428960643021 0.23 1.30924955041e-38
-0.0519952294571 -0.0447611105761 0.24 1.34612780236e-38
-0.0491750534246 -0.0430825689295 0.231 1.33690823937e-38
-0.0474682535011 -0.0423365504199 0.227 1.3461275221e-38
-0.0468183131329 -0.0425230550473 0.228 1.36456664807e-38
-0.0471687157662 -0.0436420828117 0.234 1.3461275221e-38
-0.0460892495894 -0.0434555781843 0.233 1.32768839612e-38
-0.0450173189531 -0.0432690735569 0.232 1.39222533703e-38
-0.0445237410503 -0.0436420828117 0.234 1.3461275221e-38
-0.0436420828117 -0.0436420828117 0.234 1.30924927015e-38
-0.0431258982874 -0.0440150920665 0.236 1.42910358897e-38
-0.0425946426821 -0.0443881013213 0.238 1.4015528e-38
-0.0422235173124 -0.0449476152035 0.241 1.38311367402e-38
-0.0408011840428 -0.0443881013213 0.238 1.30935717013e-38
-0.039736788947 -0.0442015966939 0.237 1.39233323701e-38
-0.0396633174272 -0.0451341198309 0.242 1.38311367402e-38
-0.0377907356127 -0.0440150920665 0.236 1.20794197728e-38
-0.0370579042989 -0.0442015966939 0.237 1.37389411104e-38
-0.0363175374447 -0.0443881013213 0.238 1.33701585909e-38
-0.0370579042989 -0.0464396522227 0.249 1.56732542742e-38
-0.035539492888 -0.0456936337131 0.245 9.3117558136e-39
-0.0358880116361 -0.0473721753597 0.254 8.66638640456e-39
-0.0371313758188 -0.0503562493981 0.27 1.40137329366e-38
-0.0341077401928 -0.0475586799871 0.255 1.43825154561e-38
-0.0337968991471 -0.0484912031241 0.26 1.18010378199e-38
-0.0349630240396 -0.0516617817899 0.277 2.7658660933e-39
-0.0314703010174 -0.0479316892419 0.257 7.46784321633e-39
-0.0306206688259 -0.0481181938693 0.258 1.3830060543e-38
-0.0309126710203 -0.0501697447707 0.269 1.41066474326e-38
-0.0284542009319 -0.0477451846145 0.256 4.42610629695e-39
-0.0270601259392 -0.0469991661049 0.252 8.30476732285e-40
-0.0264214888817 -0.0475586799871 0.255 1.28159086145e-38
-0.0252610156446 -0.0471856707323 0.253 1.41988430625e-38
-0.0245960041954 -0.0477451846145 0.256 9.95784408875e-39
-0.0237237653824 -0.0479316892419 0.257 8.30476732285e-40
-0.0228439910289 -0.0481181938693 0.258 5.90123357217e-39
-0.0218719063042 -0.0481181938693 0.258 1.45676227793e-38
-0.0212238498211 -0.0488642123789 0.262 1.39222533703e-38
-0.0203911725958 -0.0492372216337 0.264 2.12121274777e-39
-0.0196903673292 -0.0499832401433 0.268 2.67438652695e-39
-0.018680604902 -0.0499832401433 0.268 1.410664463e-38
-0.0178686504131 -0.0505427540255 0.271 1.42910358897e-38
-0.0180287806487 -0.0540863419461 0.29 6.45440735135e-39
-0.0161185211317 -0.0514752771625 0.276 4.33390786449e-39
-0.0152425145485 -0.0520347910447 0.279 1.36456664807e-38
-0.0150051450227 -0.0550188650831 0.295 1.38300577404e-38
-0.0132813901331 -0.0525943049269 0.282 1.16173626237e-38
-0.0126955018591 -0.0546458558283 0.293 7.92953742916e-39
-0.011235490887 -0.0529673141817 0.284 1.40144490001e-38
-0.00998647504899 -0.0520347910447 0.279 1.34623542208e-38
-0.009159449479 -0.0533403234365 0.286 1.34623542208e-38
-0.00794057580296 -0.0524078002995 0.281 1.22638110326e-38
-0.00693081337582 -0.0527808095543 0.283 1.4015528e-38
-0.0058852571313 -0.0529673141817 0.284 1.30935717013e-38
-0.00484912031241 -0.0533403234365 0.286 1.41077236298e-38
-0.00378472521664 -0.0535268280639 0.287 1.42921148896e-38
-0.00270337515474 -0.0535268280639 0.287 1.42921134883e-38
-0.00163898005897 -0.0540863419461 0.29 1.31857659299e-38
-0.0005519783417 -0.0546458558283 0.293 1.36467440792e-38
0.000544442801199 -0.0538998373187 0.289 1.34623528195e-38
0.0016333284036 -0.0538998373187 0.289 1.28169834104e-38
0.00273163343162 -0.0540863419461 0.29 1.31857659299e-38
0.00389022278366 -0.0550188650831 0.295 1.31857659299e-38
0.00501866997368 -0.0552053697105 0.296 1.26325921507e-38
0.0062582663861 -0.0563243974749 0.302 1.30935703e-38
0.0073471519885 -0.0559513882201 0.3 1.39233309688e-38
0.00844922478678 -0.0557648835927 0.299 1.35545484493e-38
0.0097038922802 -0.0565109021023 0.303 1.30013760715e-38
0.0108813204835 -0.0566974067297 0.304 1.33701585909e-38
0.0123036537531 -0.0580029391215 0.311 1.37389411104e-38
0.0132587835116 -0.0570704159845 0.306 1.18028328832e-38
0.0146472068489 -0.0580029391215 0.311 1.2632593552e-38
0.0177009846369 -0.0649036103354 0.348 1.41999192597e-38
0.0198862913822 -0.0678876843738 0.364 8.66818146789e-39
0.0214913615089 -0.0686337028834 0.368 1.22638110326e-38
0.0228779009611 -0.0686337028834 0.368 1.36467440792e-38
0.0244622483515 -0.0691932167656 0.371 7.65402813809e-39
0.0254418686166 -0.0680741890012 0.365 5.34913739151e-39
0.0271844623575 -0.0690067121382 0.37 1.36467440792e-38
0.0284240587699 -0.0686337028834 0.368 1.01433101444e-38
0.0295675770409 -0.0680741890012 0.365 5.54964638617e-40
0.0307732635211 -0.0677011797464 0.363 1.26325921507e-38
0.0317867937185 -0.0669551612368 0.359 1.19872227417e-38
0.0334163543518 -0.067514675119 0.362 2.78379150326e-40
0.0346842090411 -0.0673281704916 0.361 9.86672465611e-39
0.0362440659248 -0.0677011797464 0.363 1.4015528e-38
0.0376117665258 -0.0677011797464 0.363 2.76766115664e-39
0.0388720856746 -0.067514675119 0.362 1.00511159158e-38
0.0409029138396 -0.0686337028834 0.368 1.35545498506e-38
0.0427491212623 -0.069379721393 0.372 8.66818146789e-39
0.0440320470326 -0.0691932167656 0.371 1.03277028054e-38
0.0460421524613 -0.0701257399026 0.376 1.32779615598e-38
0.0560418147061 -0.0828080545658 0.444 1.31857659299e-38
0.0610943946121 -0.0876571748782 0.47 1.30935703e-38
0.0646040726004 -0.0900817350344 0.483 1.31857659299e-38
0.0675240945446 -0.0915737720536 0.491 1.31857659299e-38
0.069515361122 -0.091760276681 0.492 1.31857659299e-38
0.0722394590131 -0.0928793044454 0.498 1.31857659299e-38
0.0745622893725 -0.0934388183276 0.501 1.31857659299e-38
0.0764499422681 -0.0934388183276 0.501 1.32779629611e-38
0.0786503200944 -0.0938118275824 0.503 1.32779629611e-38
0.0810258992373 -0.0943713414646 0.506 1.32779629611e-38
0.08309628899 -0.094557846092 0.507 1.32779629611e-38
0.085006548507 -0.094557846092 0.507 1.32779629611e-38
0.0874311086632 -0.0951173599742 0.51 1.32779629611e-38
0.0891774701743 -0.0949308553468 0.509 1.32779629611e-38
0.0916321724925 -0.095490369229 0.512 1.30935717013e-38
0.0941094814322 -0.0960498831112 0.515 1.30935717013e-38
0.096422892366 -0.096422892366 0.517 1.30013760715e-38
0.0987513743808 -0.0967959016208 0.519 1.30013760715e-38
0.0999306864693 -0.0960498831112 0.515 1.30013760715e-38
0.102464511963 -0.0966093969934 0.518 1.29091804416e-38
0.104013065536 -0.0962363877386 0.516 1.28169848117e-38
0.106983952378 -0.0971689108756 0.521 1.2632593552e-38
0.108946960679 -0.0971689108756 0.521 1.24482022923e-38
0.110484210941 -0.0967959016208 0.519 1.30006544028e-38
0.11287297728 -0.0971689108756 0.521 7.74514616944e-39
0.114395156461 -0.0967959016208 0.519 5.07075683989e-39
0.116798993881 -0.0971689108756 0.521 4.79417555549e-39
0.118762002181 -0.0971689108756 0.521 4.24100177631e-39
0.120493292611 -0.0969824062482 0.52 4.2406458465e-39
0.122688018782 -0.0971689108756 0.521 4.14880614645e-39
0.124172520261 -0.0967959016208 0.519 3.96441488672e-39
0.126614035383 -0.0971689108756 0.521 3.9633414921e-39
0.12783667683 -0.0966093969934 0.518 3.9636988232e-39
0.130289495263 -0.0969824062482 0.52 4.05625458677e-39
0.131231437825 -0.0962363877386 0.516 4.2406458465e-39
0.13136896144 -0.0949308553468 0.509 4.42539303604e-39
0.133548616529 -0.0951173599742 0.51 5.80832748399e-39
0.136267062765 -0.0956768738564 0.513 6.5462526566e-39
0.138469324477 -0.0958633784838 0.514 6.08563043709e-39
0.142864428474 -0.0975419201304 0.523 6.17711000344e-39
0.144834972315 -0.0975419201304 0.523 6.08563043709e-39
0.146244118389 -0.0971689108756 0.521 6.0856248319e-39
0.148207126689 -0.0971689108756 0.521 5.99450680055e-39
0.149017197293 -0.096422892366 0.517 6.08670243042e-39
0.150089127929 -0.0958633784838 0.514 6.0856248319e-39
0.151729991873 -0.0956768738564 0.513 4.42610909955e-39
0.154561471217 -0.0962363877386 0.516 2.58148043877e-39
0.157718862687 -0.0969824062482 0.52 2.58112450896e-39
0.158756883391 -0.096422892366 0.517 2.4889288791e-39
0.159150615382 -0.095490369229 0.512 2.4889288791e-39
0.160765104934 -0.0953038646016 0.511 2.58112450896e-39
0.163008812118 -0.095490369229 0.512 2.76551576869e-39
0.162682899992 -0.0941848368372 0.505 2.76551576869e-39
0.163281975461 -0.0934388183276 0.501 2.67332013882e-39
0.165828988151 -0.0938118275824 0.503 2.67332013882e-39
0.166723833585 -0.0932523137002 0.5 2.58184057248e-39
0.166584426086 -0.0921332859358 0.494 2.67403620234e-39
0.167763738174 -0.091760276681 0.492 2.67403620234e-39
0.16927273016 -0.0915737720536 0.491 2.67403620234e-39
0.172168261597 -0.0921332859358 0.494 2.67403620234e-39
0.173324967064 -0.091760276681 0.492 2.67403620234e-39
0.178383198625 -0.0934388183276 0.501 2.67403620234e-39
0.182069961816 -0.0943713414646 0.506 2.67403620234e-39
0.185794402708 -0.0953038646016 0.511 2.67403620234e-39
0.188821806105 -0.0958633784838 0.514 2.67403620234e-39
0.190387314644 -0.0956768738564 0.513 2.67403620234e-39
0.192320180782 -0.0956768738564 0.513 2.67403620234e-39
0.194253046921 -0.0956768738564 0.513 2.58184057248e-39
0.198862913822 -0.0969824062482 0.52 2.67403620234e-39
0.201980743704 -0.0975419201304 0.523 2.7662318322e-39
0.208240893976 -0.0995934710318 0.534 2.67403620234e-39
0.206709295369 -0.0979149293852 0.525 2.85806732836e-39
0.205109876897 -0.0962363877386 0.516 2.85806732836e-39
0.209461651537 -0.097355415503 0.522 2.85806732836e-39
0.213858639419 -0.0984744432674 0.528 2.85806732836e-39
0.222797674339 -0.101645021933 0.545 3.04245858809e-39
0.226088821652 -0.102204535815 0.548 3.13465421795e-39
0.226488205299 -0.101458517306 0.544 3.13465421795e-39
0.229378085081 -0.101831526561 0.546 3.04245858809e-39
0.24161768674 -0.105375114481 0.565 3.41016771292e-39
0.245040706012 -0.105934628363 0.568 3.50308220889e-39
0.256319526257 -0.109851225539 0.589 3.50379967371e-39
0.2747797166 -0.116751896753 0.626 3.68819093343e-39
0.281122757816 -0.118430438399 0.635 3.41268024106e-39
0.331431910086 -0.136148378002 0.73 4.24136471261e-39
0.339675791395 -0.138386433531 0.742 4.33356034248e-39
0.350779410323 -0.141743516824 0.76 4.42575316974e-39
0.358296111973 -0.143608563098 0.77 4.42575316974e-39
0.364949994235 -0.145100600118 0.778 4.51794879961e-39
0.369299884989 -0.145660114 0.781 4.70234005933e-39
0.371289267682 -0.145287104745 0.779 5.07147850859e-39
0.374704751414 -0.145473609372 0.78 5.16367413846e-39
0.376191136777 -0.14491409549 0.777 5.34770946837e-39
0.379118694262 -0.14491409549 0.777 5.62465228777e-39
0.381062863711 -0.144541086235 0.775 5.8090435475e-39
0.38299196208 -0.144168076981 0.773 6.08563043709e-39
0.383408300692 -0.143235553844 0.768 6.27001889422e-39
0.386804945573 -0.143422058471 0.769 6.63880141367e-39
0.391729421291 -0.144168076981 0.773 6.8231926734e-39
0.392599776218 -0.143422058471 0.769 7.00758113053e-39
0.389325583871 -0.141184002942 0.757 7.10121869651e-39
0.397358470045 -0.143049049216 0.767 7.19341432638e-39
0.398161005108 -0.142303030707 0.763 7.46964108226e-39
0.39840779406 -0.14137050757 0.758 7.65403234199e-39
0.400205020469 -0.140997498315 0.756 7.83842360172e-39
0.534386622401 -0.171211247954 0.918 7.65295334217e-39
0.551906754066 -0.175687359011 0.942 7.46784601893e-39
-0.103314144154 -0.0316134762869 0.173 1.41981241964e-38
-0.10384916753 -0.0319789500012 0.175 1.43825154561e-38
-0.102600151692 -0.0317962131441 0.174 1.42903198262e-38
-0.101358671394 -0.0316134762869 0.173 1.41981241964e-38
-0.101871088148 -0.0319789500012 0.175 1.170884219e-38
-0.103525139288 -0.0327098974298 0.179 1.08790815213e-38
-0.102850708413 -0.0327098974298 0.179 1.26307984887e-38
-0.101034643153 -0.0323444237155 0.177 1.44747110859e-38
-0.100934797241 -0.0325271605727 0.178 1.44747110859e-38
-0.103080542399 -0.0334408448584 0.183 1.45669067158e-38
-0.104629095972 -0.034171792287 0.187 1.45669067158e-38
-0.105591761271 -0.0347200028585 0.19 1.44747110859e-38
-0.10377192824 -0.0343545291442 0.188 1.3737146047e-38
-0.100322534575 -0.0334408448584 0.183 1.38293416769e-38
-0.0990885898183 -0.0332581080013 0.182 1.45669067158e-38
-0.100024880726 -0.0338063185727 0.185 1.41059285665e-38
-0.102549286793 -0.0349027397156 0.191 1.45669067158e-38
-0.100763363695 -0.0345372660013 0.189 1.47512979755e-38
-0.0974043965163 -0.0336235817156 0.184 1.45669067158e-38
-0.0951343149404 -0.0330753711441 0.181 1.48438495352e-38
-0.0939305123453 -0.032892634287 0.18 1.46594582755e-38
-0.0963607241569 -0.0339890554299 0.186 1.46594582755e-38
-0.0992600233647 -0.0352682134299 0.193 1.45672626456e-38
-0.0975117779684 -0.0349027397156 0.191 1.43828713859e-38
-0.0937515432584 -0.0338063185727 0.185 1.45672626456e-38
-0.0930545057621 -0.0338063185727 0.185 1.45672626456e-38
-0.0923574682657 -0.0338063185727 0.185 1.42910358897e-38
-0.0941377397091 -0.0347200028585 0.19 1.41988402599e-38
-0.0934218633615 -0.0347200028585 0.19 1.41999192597e-38
-0.0912422082716 -0.034171792287 0.187 1.39233323701e-38
-0.0890851598032 -0.0336235817156 0.184 1.41999192597e-38
-0.0869507179562 -0.0330753711441 0.181 1.43835888507e-38
-0.0881752432877 -0.0338063185727 0.185 1.45679801104e-38
-0.0879510609577 -0.0339890554299 0.186 1.44757844806e-38
-0.0863120808988 -0.0336235817156 0.184 1.43835888507e-38
-0.0856188111727 -0.0336235817156 0.184 1.43835888507e-38
-0.0844639895909 -0.0334408448584 0.183 1.4199197591e-38
-0.0846900558059 -0.0338063185727 0.185 1.43835888507e-38
-0.0839930183096 -0.0338063185727 0.185 1.44757844806e-38
-0.0823954837234 -0.0334408448584 0.183 1.47530958415e-38
-0.0830454240916 -0.0339890554299 0.186 1.39222561729e-38
-0.0836727578383 -0.0345372660013 0.189 1.41981241964e-38
-0.0833995944951 -0.0347200028585 0.19 1.43825154561e-38
-0.0822485406836 -0.0345372660013 0.189 1.40137329366e-38
-0.0819678417999 -0.0347200028585 0.19 1.40137329366e-38
-0.0821072492992 -0.0350854765728 0.192 1.43832343222e-38
-0.0809599632579 -0.0349027397156 0.191 1.39233351727e-38
-0.0810805319059 -0.0352682134299 0.193 1.3645306347e-38
-0.0807696908603 -0.0354509502871 0.194 1.44750670158e-38
-0.0792136017468 -0.0350854765728 0.192 1.43828713859e-38
-0.0797165990752 -0.0356336871442 0.195 1.39222561729e-38
-0.0773617426687 -0.0349027397156 0.191 1.34612780236e-38
-0.0794509712726 -0.0361818977157 0.198 1.36456692833e-38
-0.0783074530016 -0.0359991608585 0.197 1.40144546053e-38
-0.0775652022622 -0.0359991608585 0.197 1.44761530221e-38
-0.0764329873019 -0.0358164240014 0.196 1.41059313691e-38
-0.0776254865862 -0.0367301082871 0.201 1.40144518027e-38
-0.0776330221267 -0.0370955820014 0.203 1.34623542208e-38
-0.0745961993048 -0.0359991608585 0.197 1.38311367402e-38
-0.0742288417054 -0.0361818977157 0.198 1.37389411104e-38
-0.0731116978261 -0.0359991608585 0.197 1.45687017791e-38
-0.0793492414758 -0.0394711611444 0.216 1.17095610562e-38
-0.0796261725892 -0.0400193717158 0.219 1.06946930641e-38
-0.0748429882562 -0.0380092662872 0.208 1.34612780236e-38
-0.0729911291781 -0.0374610557157 0.205 1.36456692833e-38
-0.0785598936083 -0.0407503191444 0.223 1.40144518027e-38
-0.0801593120797 -0.0420294771445 0.23 1.25393217249e-38
-0.0723977053636 -0.0383747400015 0.21 5.34734372948e-39
-0.0712654904033 -0.0381920031443 0.209 6.17710439825e-39
-0.0731757499204 -0.0396538980015 0.217 1.21698203394e-38
-0.076359515782 -0.0418467402873 0.229 1.39215373068e-38
-0.069892138147 -0.0387402137158 0.212 1.35523946536e-38
-0.0674638102206 -0.03782652943 0.207 1.15240907966e-38
-0.0663617374223 -0.0376437925729 0.206 3.77965788809e-39
-0.0697244723709 -0.0400193717158 0.219 3.04245298289e-39
-0.0660678513428 -0.0383747400015 0.21 1.07868858914e-38
-0.0643440964532 -0.03782652943 0.207 1.35527547873e-38
-0.0629500214605 -0.0374610557157 0.205 1.34612780236e-38
-0.0639974615901 -0.0385574768586 0.211 9.03588779012e-39
-0.0629029243323 -0.0383747400015 0.21 3.22505198188e-39
-0.0612243826857 -0.03782652943 0.207 2.76515002979e-39
-0.0607364564383 -0.0380092662872 0.208 1.12485829068e-38
-0.0616821667712 -0.0391056874301 0.214 1.32783258974e-38
-0.0597379973219 -0.0383747400015 0.21 1.25407608585e-38
-0.0595081633366 -0.0387402137158 0.212 4.24171503723e-39
-0.0587093960435 -0.0387402137158 0.212 2.85734565965e-39
-0.0587301187799 -0.0392884242872 0.215 5.89872524792e-39
-0.0573812570302 -0.0389229505729 0.213 1.41066502352e-38
-0.0565787219668 -0.0389229505729 0.213 1.33690823937e-38
-0.0562999069683 -0.0392884242872 0.215 1.06954091277e-38
-0.0578126667239 -0.0409330560016 0.224 2.95097621914e-39
-0.0559513882201 -0.040202108573 0.22 4.0573237775e-39
-0.0548719220434 -0.0400193717158 0.219 1.23549276626e-38
-0.0540467803585 -0.0400193717158 0.219 1.31846883314e-38
-0.0556518504852 -0.0418467402873 0.229 1.33690795911e-38
-0.0531142572215 -0.0405675822873 0.222 8.38979951497e-39
-0.0522778122259 -0.0405675822873 0.222 6.82247380729e-39
-0.0528316744527 -0.0416640034302 0.228 1.26307984887e-38
-0.0551639242378 -0.0442223194303 0.242 1.36456692833e-38
-0.0517861182082 -0.0422122140016 0.231 1.34612780236e-38
-0.050474934161 -0.0418467402873 0.229 1.24482050949e-38
-0.0543783441405 -0.0458669511446 0.251 1.02355099782e-38
-0.053858391846 -0.0462324248589 0.253 1.30013788741e-38
-0.0495593659901 -0.0433086351445 0.237 1.32779615598e-38
-0.0490770913981 -0.0436741088588 0.239 1.30935703e-38
-0.0528128356015 -0.0478770565733 0.262 1.32779615598e-38
-0.0486607527854 -0.0449532668589 0.246 1.34623528195e-38
-0.0463756001285 -0.0436741088588 0.239 1.34623528195e-38
-0.0475680994127 -0.0456842142875 0.25 1.33701571896e-38
-0.0460666429679 -0.045136003716 0.247 1.37389397091e-38
-0.0436741088588 -0.0436741088588 0.239 1.33701571896e-38
-0.0422367045083 -0.0431258982874 0.236 1.33701585909e-38
-0.042398718629 -0.0442223194303 0.242 1.34623542208e-38
-0.0402868834036 -0.0429431614302 0.235 1.34623542208e-38
-0.0392337916186 -0.0427604245731 0.234 1.35545498506e-38
-0.0391716234095 -0.0436741088588 0.239 1.31857673312e-38
-0.0379508658483 -0.0433086351445 0.237 1.32779629611e-38
-0.0373706292297 -0.0436741088588 0.239 1.30935717013e-38
-0.0361649427496 -0.0433086351445 0.237 1.36467454805e-38
-0.0358672888998 -0.0440395825731 0.241 1.34612780236e-38
-0.035104315424 -0.0442223194303 0.242 1.40144518027e-38
-0.0350402633298 -0.0453187405732 0.248 1.39222561729e-38
-0.0343809035359 -0.0456842142875 0.25 1.43832343222e-38
-0.0327701817538 -0.0447705300017 0.245 1.3830060543e-38
-0.0319770661161 -0.0449532668589 0.246 1.48442124715e-38
-0.0325648382752 -0.0471461091447 0.258 1.41988430625e-38
-0.0306131332854 -0.0456842142875 0.25 1.33690823937e-38
-0.0300272450115 -0.0462324248589 0.253 1.38311367402e-38
-0.0317170899688 -0.0504353725734 0.276 1.37389411104e-38
-0.0288987978214 -0.047511582859 0.26 1.39233323701e-38
-0.027704414652 -0.0471461091447 0.258 1.0604289695e-38
-0.0294262856565 -0.0518972674306 0.284 1.36467454805e-38
-0.026259474761 -0.0480597934304 0.263 1.38311367402e-38
-0.0251724730437 -0.0478770565733 0.262 1.35545498506e-38
-0.0258469039185 -0.051166320002 0.28 6.73207324076e-39
-0.0234637892351 -0.0484252671447 0.265 8.94368935766e-39
-0.0221262307961 -0.0476943197161 0.261 1.45676227793e-38
-0.0219529133646 -0.0495216882876 0.271 1.39222533703e-38
-0.0204684118859 -0.0484252671447 0.265 6.91538550067e-39
-0.0195434242894 -0.0486080040019 0.266 2.67438652695e-39
-0.0185411974028 -0.0486080040019 0.266 1.35534708508e-38
-0.0177367784543 -0.0491562145733 0.269 1.40144490001e-38
-0.0166610800478 -0.0489734777162 0.268 7.00758113053e-39
-0.0156513176206 -0.0489734777162 0.268 1.38293164535e-39
-0.0147508205308 -0.0493389514305 0.27 1.07868858914e-38
-0.0140387119534 -0.0504353725734 0.276 1.40137329366e-38
-0.0128104188517 -0.0497044251448 0.272 9.03588779012e-39
-0.0119155734173 -0.0502526357162 0.275 3.69498582969e-40
-0.0111168061241 -0.0513490568591 0.281 8.94369216026e-39
-0.00984329977947 -0.0502526357162 0.275 1.42921176921e-38
-0.00960781413881 -0.054821057145 0.3 1.01433143483e-38
-0.00813838374111 -0.0526282148592 0.288 7.39357299642e-40
-0.00693081337582 -0.0517145305734 0.283 9.49794213666e-39
-0.00590597986768 -0.0520800042877 0.285 1.39233323701e-38
-0.00481521038016 -0.0518972674306 0.284 1.09730722145e-38
-0.00377153802076 -0.0522627411449 0.286 3.78181308513e-39
-0.00271279458037 -0.0526282148592 0.288 1.13418547339e-38
-0.00164463171435 -0.0531764254306 0.291 1.35545498506e-38
-0.00054821057145 -0.0531764254306 0.291 1.2632593552e-38
0.000542558916074 -0.0526282148592 0.288 8.66818006659e-39
0.0016333284036 -0.0528109517163 0.289 1.41077222285e-38
0.00275047228288 -0.0533591622878 0.292 1.30013746702e-38
0.00387703558778 -0.0537246360021 0.294 1.33708760557e-38
0.0049678050753 -0.0535418991449 0.293 1.23567241272e-38
0.00621682091335 -0.054821057145 0.3 1.39240498349e-38
0.00737164249513 -0.0550037940021 0.301 1.35563463153e-38
0.00850574134054 -0.0550037940021 0.301 1.30031725361e-38
0.00976794437446 -0.0557347414307 0.305 1.30020949376e-38
0.0109171143009 -0.0557347414307 0.305 1.30020949376e-38
0.0121454074025 -0.056100215145 0.307 1.24489211584e-38
0.0132154541537 -0.0557347414307 0.305 1.3370877457e-38
0.0146001097207 -0.0566484257165 0.31 1.26333124181e-38
0.0172432005515 -0.0619477945738 0.339 1.2725508048e-38
0.0196131280391 -0.0656025317168 0.359 1.35552687168e-38
0.02143296107 -0.067064426574 0.367 1.32786818272e-38
0.0228779009611 -0.0672471634312 0.368 1.30013746702e-38
0.0245941203102 -0.0681608477169 0.373 1.34623528195e-38
0.0256509798655 -0.0672471634312 0.368 1.39233309688e-38
0.0271109908376 -0.0674299002883 0.369 1.27247877806e-38
0.0283468194797 -0.067064426574 0.367 1.43843091181e-38
0.0297295911617 -0.067064426574 0.367 1.11574620729e-38
0.0312819125049 -0.0674299002883 0.369 1.31857659299e-38
0.0322295067229 -0.0665162160026 0.364 1.37389397091e-38
0.0334163543518 -0.0661507422883 0.362 6.82426887062e-39
0.0349724434653 -0.0665162160026 0.364 9.95892028597e-39
0.0358446822783 -0.0656025317168 0.359 1.37389411104e-38
0.037404539162 -0.0659680054311 0.361 6.82426887062e-39
0.0389794671267 -0.0663334791454 0.363 5.99450820185e-39
0.0411252122844 -0.0676126371455 0.37 1.36467454805e-38
0.0421745362991 -0.067064426574 0.367 6.27109509144e-39
0.0437946775068 -0.0674299002883 0.369 3.13644367609e-39
0.0454298897956 -0.0677953740026 0.371 1.32779615598e-38
0.055663153796 -0.0805869540031 0.441 1.30935703e-38
0.0612243826857 -0.0860690597176 0.471 1.30935703e-38
0.0652728518199 -0.0891755862892 0.488 1.32779615598e-38
0.0683492362294 -0.0908202180035 0.497 1.31857659299e-38
0.0703631094283 -0.0910029548607 0.498 1.31857659299e-38
0.0728196956317 -0.0917339022893 0.502 1.31857659299e-38
0.0751575970721 -0.0922821128607 0.505 1.31857659299e-38
0.0769077263535 -0.0920993760036 0.504 1.31857673312e-38
0.0792757699559 -0.092647586575 0.507 1.31857673312e-38
0.0816664201799 -0.0931957971465 0.51 1.31857673312e-38
0.0837518810135 -0.0933785340036 0.511 1.31857673312e-38
0.0858448773877 -0.0935612708608 0.512 1.31857673312e-38
0.0881168428488 -0.0939267445751 0.514 1.31857673312e-38
0.0904038793908 -0.0942922182894 0.516 1.31857673312e-38
0.092527017927 -0.0944749551465 0.517 1.30935717013e-38
0.095023165718 -0.095023165718 0.52 1.30935717013e-38
0.0969824062482 -0.095023165718 0.52 1.30013760715e-38
0.0991319191761 -0.0952059025751 0.521 1.30013760715e-38
0.100900887309 -0.095023165718 0.52 1.30013760715e-38
0.103057935777 -0.0952059025751 0.521 1.29091804416e-38
0.105222519786 -0.0953886394323 0.522 1.28169848117e-38
0.107394639336 -0.0955713762894 0.523 1.2632593552e-38
0.110410739421 -0.0964850605752 0.528 1.24482022923e-38
0.112400122113 -0.0964850605752 0.528 1.25396734508e-38
0.114389504806 -0.0964850605752 0.528 1.08801549159e-38
0.116158472938 -0.096302323718 0.527 4.05660491139e-39
0.11814408786 -0.096302323718 0.527 4.79417275289e-39
0.120357652882 -0.0964850605752 0.528 4.33284147636e-39
0.122578753445 -0.0966677974323 0.529 4.42467697252e-39
0.124336418267 -0.0964850605752 0.528 4.33248134266e-39
0.126325800959 -0.0964850605752 0.528 4.14809008293e-39
0.128315183652 -0.0964850605752 0.528 4.05553712196e-39
0.130057777392 -0.096302323718 0.527 4.05553712196e-39
0.131291722149 -0.0957541131466 0.524 4.05625598807e-39
0.132757384777 -0.0953886394323 0.522 4.14845021664e-39
0.133691791799 -0.0946576920037 0.518 4.33319740617e-39
0.135643496789 -0.0946576920037 0.518 5.25515090221e-39
0.137329573976 -0.0944749551465 0.517 6.17782606695e-39
0.141163280206 -0.0957541131466 0.524 6.27002169682e-39
0.142591265131 -0.0953886394323 0.522 6.17710720084e-39
0.144004178975 -0.095023165718 0.52 6.08562763449e-39
0.145963419505 -0.095023165718 0.52 6.08598216301e-39
0.147638193381 -0.0948404288608 0.519 5.99486273036e-39
0.149881900565 -0.095023165718 0.52 6.17925399009e-39
0.15213314329 -0.0952059025751 0.521 6.3625690526e-39
0.15468769152 -0.0955713762894 0.523 5.071475706e-39
0.156658235361 -0.0955713762894 0.523 2.67367326604e-39
0.158932084707 -0.0957541131466 0.524 2.67332013882e-39
0.159985176492 -0.0952059025751 0.521 2.58112450896e-39
0.162569866884 -0.0955713762894 0.523 2.58112450896e-39
0.163596584277 -0.095023165718 0.52 2.58112450896e-39
0.164919071635 -0.0946576920037 0.518 2.76551576869e-39
0.167192920981 -0.0948404288608 0.519 2.76551576869e-39
0.166867008855 -0.0935612708608 0.512 2.76551576869e-39
0.168796107223 -0.0935612708608 0.512 2.76551576869e-39
0.168391071921 -0.0922821128607 0.505 2.58184057248e-39
0.170968226772 -0.092647586575 0.507 2.67403620234e-39
0.171514553459 -0.0919166391464 0.503 2.67403620234e-39
0.172375488961 -0.091368428575 0.5 2.67403620234e-39
0.175653449079 -0.0920993760036 0.504 2.7662318322e-39
0.178961551359 -0.0928303234322 0.508 2.7662318322e-39
0.184080067244 -0.0944749551465 0.517 2.67403620234e-39
0.188906580935 -0.0959368500037 0.525 2.67403620234e-39
0.193066199292 -0.0970332711466 0.531 2.67403620234e-39
0.195801600494 -0.0973987448609 0.533 2.67403620234e-39
0.195954195189 -0.0964850605752 0.528 2.67403620234e-39
0.195694219041 -0.0953886394323 0.522 2.67403620234e-39
0.197282334202 -0.0952059025751 0.521 2.58184057248e-39
0.202687200626 -0.0968505342895 0.53 2.67403620234e-39
0.203911725958 -0.0964850605752 0.528 2.7662318322e-39
0.204341251766 -0.0957541131466 0.524 2.67403620234e-39
0.203165707448 -0.0942922182894 0.516 2.85806732836e-39
0.209482374273 -0.096302323718 0.527 2.85806732836e-39
0.214668710023 -0.0968505342895 0.53 2.85806732836e-39
0.216665628256 -0.0968505342895 0.53 3.13465421795e-39
0.219900259016 -0.0973987448609 0.533 3.13465421795e-39
0.222741157785 -0.0977642185752 0.535 3.13465421795e-39
0.226437340401 -0.0984951660038 0.539 3.04245858809e-39
0.238196551352 -0.101784429433 0.557 3.31940561138e-39
0.2459035254 -0.104160008575 0.57 3.50379967371e-39
0.25327328401 -0.106352850861 0.582 3.50379967371e-39
0.265561866682 -0.110555798576 0.605 3.59599530357e-39
0.283336322839 -0.116951588576 0.64 3.59599530357e-39
0.277711041855 -0.113662325147 0.622 3.78038796459e-39
0.339702165786 -0.134494326862 0.736 4.42575316974e-39
0.345267162446 -0.135590748005 0.742 4.42575316974e-39
0.354630071519 -0.138149064005 0.756 4.61014442947e-39
0.362679912659 -0.140159169434 0.767 4.7945356892e-39
0.366999661251 -0.140707380005 0.77 5.16367413846e-39
0.371822407172 -0.141438327434 0.774 5.25586976832e-39
0.374738661346 -0.141438327434 0.774 5.62429635796e-39
0.377166989272 -0.141255590577 0.773 5.90088324755e-39
0.380571169694 -0.141438327434 0.774 5.99307887742e-39
0.381010114928 -0.140524643148 0.769 6.27002169682e-39
0.38141138246 -0.139610958863 0.764 6.54660578381e-39
0.385295953588 -0.139976432577 0.766 6.91538550067e-39
0.388688830698 -0.140159169434 0.767 7.00758113053e-39
0.390047111874 -0.139610958863 0.764 7.28416802012e-39
0.391382786428 -0.139062748291 0.761 7.10121869651e-39
0.39269585436 -0.13851453772 0.758 7.28560995624e-39
0.392942643311 -0.137600853434 0.753 7.56183671213e-39
0.39052373481 -0.135773484862 0.743 7.74622797185e-39
-0.103314144154 -0.0309616520336 0.173 1.4473274755e-38
-0.103255743715 -0.0311406211205 0.174 1.42899596925e-38
-0.101420839603 -0.0307826829467 0.172 1.41055684328e-38
-0.101358671394 -0.0309616520336 0.173 1.11553082772e-38
-0.101288967645 -0.0311406211205 0.174 5.06932050896e-39
-0.100633375621 -0.0311406211205 0.174 4.14664814681e-39
-0.0994031986342 -0.0309616520336 0.173 4.23740884705e-39
-0.0987513743808 -0.0309616520336 0.173 1.14329769692e-38
-0.0986665995502 -0.0311406211205 0.174 1.46598240144e-38
-0.0991375708315 -0.0314985592943 0.176 1.40144518027e-38
-0.0995934710318 -0.0318564974681 0.178 1.40144518027e-38
-0.0989228079272 -0.0318564974681 0.178 1.12485829068e-38
-0.0993561015061 -0.0322144356419 0.18 5.53101892569e-39
-0.0992261134324 -0.0323934047288 0.181 4.23920391038e-39
-0.0979997042159 -0.0322144356419 0.18 8.29509556085e-39
-0.0978621806017 -0.0323934047288 0.181 1.44754299521e-38
-0.0977171214471 -0.0325723738157 0.182 1.39222561729e-38
-0.0975645267519 -0.0327513429026 0.183 1.42910358897e-38
-0.0963456530759 -0.0325723738157 0.182 1.410664463e-38
-0.0956599188903 -0.0325723738157 0.182 1.11563844744e-38
-0.094452348525 -0.0323934047288 0.181 7.2830918229e-39
-0.0958426557474 -0.0331092810764 0.185 8.75714570349e-39
-0.0992600233647 -0.0345410337716 0.193 1.41959718019e-38
-0.0970012450995 -0.0340041265109 0.19 1.38311367402e-38
-0.0942583083571 -0.0332882501633 0.186 1.42921148896e-38
-0.094060500419 -0.0334672192502 0.187 1.43832343222e-38
-0.0943543864985 -0.033825157424 0.189 1.39222561729e-38
-0.100083281164 -0.0361517555537 0.202 1.26315173548e-38
-0.0993221915738 -0.0361517555537 0.202 1.18932362524e-38
-0.0951456182511 -0.0348989719454 0.195 1.4198126999e-38
-0.0919901106663 -0.0340041265109 0.19 1.46591051483e-38
-0.0903134529048 -0.0336461883371 0.188 1.4105212503e-38
-0.0943713414646 -0.0354358792061 0.198 1.45669067158e-38
-0.0969353091201 -0.0366886628144 0.205 1.47516539053e-38
-0.0905338674645 -0.0345410337716 0.193 1.43835888507e-38
-0.0874800896764 -0.0336461883371 0.188 1.41077222285e-38
-0.0863101970136 -0.0334672192502 0.187 1.40155265987e-38
-0.0906412489166 -0.0354358792061 0.198 1.39233309688e-38
-0.0903492467222 -0.035614848293 0.199 1.4199197591e-38
-0.0859974720829 -0.0341830955978 0.191 1.40144518027e-38
-0.0848313471903 -0.0340041265109 0.19 1.42910386923e-38
-0.0845581838472 -0.0341830955978 0.191 1.33690823937e-38
-0.0860332659002 -0.0350779410323 0.196 1.43832343222e-38
-0.0852947829311 -0.0350779410323 0.196 1.41066474326e-38
-0.0828306611873 -0.0343620646847 0.192 1.40144518027e-38
-0.0821072492992 -0.0343620646847 0.192 1.41066474326e-38
-0.0801122149516 -0.033825157424 0.189 1.39222561729e-38
-0.0802403191401 -0.0341830955978 0.191 1.35552687168e-38
-0.0799370136349 -0.0343620646847 0.192 1.34623542208e-38
-0.0783884600619 -0.0340041265109 0.19 1.36467454805e-38
-0.0788989929309 -0.0345410337716 0.193 1.31857701338e-38
-0.0765516720648 -0.033825157424 0.189 1.36456692833e-38
-0.0782471686775 -0.0348989719454 0.195 1.35534736534e-38
-0.0767174539558 -0.0345410337716 0.193 1.3737146047e-38
-0.077171470271 -0.0350779410323 0.196 1.36449504172e-38
-0.0764329873019 -0.0350779410323 0.196 1.37396585752e-38
-0.0760807007835 -0.0352569101192 0.197 1.39233323701e-38
-0.0741911640029 -0.0347200028585 0.194 1.34612780236e-38
-0.0734602165743 -0.0347200028585 0.194 1.4198126999e-38
-0.0731041622856 -0.0348989719454 0.195 1.41059313691e-38
-0.0727405724564 -0.0350779410323 0.196 1.40144518027e-38
-0.0742062350839 -0.0361517555537 0.202 1.36467454805e-38
-0.0738087353224 -0.0363307246406 0.203 1.34630716856e-38
-0.0719644117848 -0.0357938173799 0.2 1.37378621106e-38
-0.0712108577347 -0.0357938173799 0.2 1.38300577404e-38
-0.0704573036846 -0.0357938173799 0.2 1.37378621106e-38
-0.0721433808717 -0.0370466009882 0.207 1.40144490001e-38
-0.0689501955844 -0.0357938173799 0.2 1.36456664807e-38
-0.0702425407803 -0.0368676319013 0.206 1.39222533703e-38
-0.0694663801087 -0.0368676319013 0.206 1.39222533703e-38
-0.0750257251134 -0.0402680445524 0.225 1.3461275221e-38
-0.0705514979409 -0.0382993845965 0.214 1.38300577404e-38
-0.0681156344739 -0.037404539162 0.209 1.40144490001e-38
-0.0666838817787 -0.0370466009882 0.207 1.38300577404e-38
-0.0735449914049 -0.0413418590738 0.231 1.40144490001e-38
-0.0720454188452 -0.0409839209 0.229 1.37378621106e-38
-0.0671416658642 -0.0386573227703 0.216 1.37378621106e-38
-0.064792461113 -0.0377624773358 0.211 1.33690795911e-38
-0.0712767937141 -0.0420577354214 0.235 1.36456664807e-38
-0.0706909054401 -0.0422367045083 0.236 7.19197239026e-39
-0.0647736222617 -0.039194230031 0.219 6.8231898708e-39
-0.0621964674104 -0.0381204155096 0.213 1.19861451432e-38
-0.0660056831336 -0.0409839209 0.229 1.32768839612e-38
-0.0637205304767 -0.0400890754655 0.224 1.410664463e-38
-0.0606309588713 -0.0386573227703 0.216 9.22027624725e-39
-0.0587093960435 -0.0379414464227 0.212 1.66023459846e-39
-0.0592764454662 -0.0388362918572 0.217 5.99342920203e-39
-0.0576506526031 -0.0382993845965 0.214 1.41988430625e-38
-0.0565787219668 -0.0381204155096 0.213 1.30002998742e-38
-0.0568236270331 -0.0388362918572 0.217 1.1156387277e-38
-0.0567802976752 -0.0393731991179 0.22 2.39780243996e-39
-0.0554427392363 -0.0390152609441 0.218 1.56804177119e-39
-0.0548719220434 -0.039194230031 0.219 9.40467030957e-39
-0.0540467803585 -0.039194230031 0.219 1.3830060543e-38
-0.0539507022171 -0.0397311372917 0.222 1.24471260951e-38
-0.0521572435779 -0.0390152609441 0.218 3.87150039074e-39
-0.0518068409446 -0.0393731991179 0.22 3.04173972197e-39
-0.0514413672303 -0.0397311372917 0.222 6.54517365678e-39
-0.051060822435 -0.0400890754655 0.224 1.33676502667e-38
-0.0502168418989 -0.0400890754655 0.224 1.30910633771e-38
-0.0491524468031 -0.0399101063786 0.223 7.28273869569e-39
-0.0489621744054 -0.0404470136393 0.226 2.48856594279e-39
-0.0493879324437 -0.0415208281607 0.232 4.51686979979e-39
-0.0480955872478 -0.0411628899869 0.23 1.35534708508e-38
-0.0468183131329 -0.0408049518131 0.228 1.31846883314e-38
-0.0477734428914 -0.0424156735952 0.237 1.1432971364e-38
-0.0462870575276 -0.0418787663345 0.234 3.50414719572e-39
-0.0454053992889 -0.0418787663345 0.234 8.75929809793e-39
-0.0462361926292 -0.0434894881166 0.243 1.4752014039e-38
-0.0486777077515 -0.0467109316807 0.261 1.31846883314e-38
-0.0445877931446 -0.0436684572035 0.244 1.38300577404e-38
-0.0433105190297 -0.0433105190297 0.242 1.01433115457e-38
-0.0467787515453 -0.0477847462021 0.267 1.29091804416e-38
-0.0425155195068 -0.0443843335511 0.248 1.35545498506e-38
-0.0409104493801 -0.0436684572035 0.244 1.36467454805e-38
-0.0432690735569 -0.0472478389414 0.264 1.34623542208e-38
-0.0416338612682 -0.0465319625938 0.26 1.41077236298e-38
-0.0386215289529 -0.0442053644642 0.247 1.41999192597e-38
-0.0370805109204 -0.0434894881166 0.243 1.27247891819e-38
-0.0375043850736 -0.0451002098987 0.252 1.30013760715e-38
-0.0356845520426 -0.0440263953773 0.246 1.4015528e-38
-0.0346163891766 -0.0438474262904 0.245 1.41999192597e-38
-0.0341058563077 -0.0443843335511 0.248 1.31857673312e-38
-0.0325026700661 -0.0434894881166 0.243 1.32779629611e-38
-0.0319770661161 -0.0440263953773 0.246 1.38311367402e-38
-0.0318075164548 -0.0451002098987 0.252 1.39233323701e-38
-0.0304906807523 -0.044563302638 0.249 1.36467454805e-38
-0.029433821197 -0.0443843335511 0.248 1.3831854205e-38
-0.0291889161307 -0.0454581480725 0.254 1.37396585752e-38
-0.0278984548199 -0.0449212408118 0.251 1.3831854205e-38
-0.0269527444871 -0.0449212408118 0.251 1.32786804259e-38
-0.0270431709731 -0.0467109316807 0.261 1.33708760557e-38
-0.0255605533795 -0.0458160862462 0.256 1.34630716856e-38
-0.0247881604781 -0.04617402442 0.258 1.35552673155e-38
-0.0252930416917 -0.0490375298104 0.274 1.33708760557e-38
-0.023552331836 -0.0476057771152 0.266 1.42006367245e-38
-0.0222957804574 -0.0470688698545 0.263 1.35552673155e-38
-0.0235730545723 -0.0520800042877 0.291 1.36474629453e-38
-0.0211635654971 -0.0490375298104 0.274 1.36474629453e-38
-0.0206454970877 -0.0502903134187 0.281 1.32786804259e-38
-0.0200049761451 -0.0513641279401 0.287 1.32786804259e-38
-0.0181323943306 -0.0492164988973 0.275 1.33708760557e-38
-0.0170340893026 -0.0490375298104 0.274 1.37396585752e-38
-0.0158265189373 -0.0485006225497 0.271 1.03277028054e-38
-0.0146415551935 -0.047963715289 0.268 1.36467454805e-38
-0.0137843874615 -0.0485006225497 0.271 1.32786818272e-38
-0.0127633217236 -0.0485006225497 0.271 1.30020949376e-38
-0.0118722440594 -0.0490375298104 0.274 5.07327076933e-39
-0.010918998186 -0.0493954679842 0.276 1.03284216715e-38
-0.00980750596209 -0.0490375298104 0.274 1.30013760715e-38
-0.00887121505484 -0.0495744370711 0.277 1.25403979221e-38
-0.00782754269544 -0.0495744370711 0.277 1.38472951128e-39
-0.00683285134931 -0.0499323752449 0.279 7.00866293295e-39
-0.00586453439492 -0.0506482515925 0.283 1.39233351727e-38
-0.00481521038016 -0.0508272206794 0.284 1.13418575365e-38
-0.00375835082489 -0.0510061897663 0.285 7.39360102239e-40
-0.00267511687786 -0.0508272206794 0.284 6.54768478363e-39
-0.00162202509285 -0.0513641279401 0.287 1.38311395428e-38
-0.000546326686325 -0.0519010352008 0.29 9.77453182885e-39
0.00054821057145 -0.0520800042877 0.291 1.66131219698e-39
0.00164463171435 -0.0520800042877 0.291 9.12915821591e-39
0.0027598917085 -0.0524379424615 0.293 1.43843091181e-38
0.00389022278366 -0.0527958806353 0.295 7.65402813809e-39
0.00498476004143 -0.0526169115484 0.294 1.47692093725e-39
0.00623754364973 -0.0538696951567 0.301 1.27247877806e-38
0.0073471519885 -0.0536907260698 0.3 1.40155265987e-38
0.0084209665099 -0.053332787896 0.298 5.07255050192e-39
0.00960781413881 -0.0536907260698 0.3 8.20720612117e-39
0.0108813204835 -0.0544066024174 0.304 1.40155308026e-38
0.0120662842273 -0.0545855715043 0.305 1.38311367402e-38
0.0132587835116 -0.0547645405912 0.306 8.66818146789e-39
0.0145530125926 -0.0553014478519 0.309 1.38311353389e-38
0.0164293621774 -0.0578070150685 0.323 1.22638096313e-38
0.0193399646959 -0.0633550567624 0.354 1.33705131194e-38
0.02143296107 -0.0656816548921 0.367 1.31861218597e-38
0.0230022373794 -0.0662185621528 0.37 1.30024494661e-38
0.0245941203102 -0.0667554694135 0.373 1.2541115387e-38
0.0257206836151 -0.0660395930659 0.369 1.37396599765e-38
0.0271844623575 -0.0662185621528 0.37 1.29098993077e-38
0.0283468194797 -0.0656816548921 0.367 1.30020949376e-38
0.0297295911617 -0.0656816548921 0.367 1.28177036778e-38
0.0311123628436 -0.0656816548921 0.367 1.28177022766e-38
0.032140964122 -0.0649657785445 0.363 1.25414713168e-38
0.0336932854652 -0.0653237167183 0.365 1.2541115387e-38
0.0349724434653 -0.0651447476314 0.364 1.28177022766e-38
0.0361442200132 -0.0647868094576 0.362 1.33708760557e-38
