VERSION .7
FIELDS x y z rgb
SIZE 4 4 4 4
TYPE F F F F
COUNT 1 1 1 1
WIDTH 851
HEIGHT 1
VIEWPOINT 0 0 0 1 0 0 0
POINTS 851
DATA ascii
0.0202950944544 0.0715669120234 0.189 6.73099704354e-39
0.0210072030317 0.0715669120234 0.189 2.39708637645e-39
0.0216043946164 0.0711882511132 0.188 2.95026295822e-39
0.0221940506607 0.070809590203 0.187 3.5034367374e-39
0.0230210762306 0.0711882511132 0.188 1.03291447415e-38
0.0239818576445 0.0719455729336 0.19 1.03280685443e-38
0.0245677459185 0.0715669120234 0.189 1.04188250407e-38
0.0252798544958 0.0715669120234 0.189 9.03445566309e-39
0.0261294866873 0.0719455729336 0.19 3.40944604421e-39
0.0264214888817 0.070809590203 0.187 2.76407803646e-39
0.0272711210732 0.0711882511132 0.188 2.9491895636e-39
0.0282771157301 0.0719455729336 0.19 8.85042874096e-39
0.0291455867729 0.0723242338437 0.191 1.00511159158e-38
0.0295525059599 0.0715669120234 0.189 1.04198984353e-38
0.0309051354798 0.0730815556641 0.193 1.02344309783e-38
0.0313045191264 0.0723242338437 0.191 4.70269318654e-39
0.0320241632442 0.0723242338437 0.191 2.7658688959e-39
0.0329152409085 0.0727028947539 0.192 1.7517169674e-39
0.0334634514799 0.0723242338437 0.191 7.46712995541e-39
0.0341830955978 0.0723242338437 0.191 1.07861726305e-38
0.0349027397156 0.0723242338437 0.191 1.0510304607e-38
0.0359953930883 0.0730815556641 0.193 1.02337177174e-38
0.0367225727466 0.0730815556641 0.193 6.54589252289e-39
0.037449752405 0.0730815556641 0.193 2.58148043877e-39
0.0387703558778 0.0742175383946 0.196 1.75171977e-39
0.0391056874301 0.0734602165743 0.194 6.45369689303e-39
0.0404526652946 0.0745961993048 0.197 1.03259133473e-38
0.041194916034 0.0745961993048 0.197 1.0510304607e-38
0.04278868285 0.0761108429455 0.201 1.05103018044e-38
0.0426794175127 0.0745961993048 0.197 8.85078046688e-39
0.0429808391327 0.0738388774844 0.195 3.50343393481e-39
0.0441639189914 0.0745961993048 0.197 2.67367326604e-39
0.0451341198309 0.074974860215 0.198 7.46784601893e-39
0.0461118562109 0.0753535211252 0.199 1.04181061746e-38
0.0470971281314 0.0757321820353 0.2 1.06024974343e-38
0.0478506821815 0.0757321820353 0.2 1.06024974343e-38
0.0488472574128 0.0761108429455 0.201 9.58834550579e-39
0.0493577902817 0.0757321820353 0.2 4.97856401262e-39
0.0496102308885 0.074974860215 0.198 3.50343393481e-39
0.0508648983819 0.0757321820353 0.2 7.2834547592e-39
0.0518765446942 0.0761108429455 0.201 1.05103018044e-38
0.0534194466118 0.077246825676 0.204 1.06024974343e-38
0.0547193273482 0.0780041474964 0.206 1.05103018044e-38
0.0541485101553 0.0761108429455 0.201 1.0141519285e-38
0.0551789953188 0.0764895038557 0.202 7.2834575618e-39
0.0559400849094 0.0764895038557 0.202 5.99271874371e-39
0.058385367802 0.0787614693167 0.208 8.48200075002e-39
0.0600224639758 0.0798974520473 0.211 9.95712802524e-39
0.0593762913778 0.0780041474964 0.206 1.02337149148e-38
0.0595684476606 0.077246825676 0.204 1.02337121122e-38
0.0618159226151 0.0791401302269 0.209 9.95712522264e-39
0.0655987639466 0.0829267393287 0.219 8.85077766428e-39
0.0652106836108 0.081412095688 0.215 7.92882416825e-39
0.0632570947359 0.0780041474964 0.206 8.94297609674e-39
0.0649657785445 0.0791401302269 0.209 1.03259105447e-38
0.0673262866064 0.0810334347778 0.214 1.0141519285e-38
0.0694060957847 0.0825480784185 0.218 1.0141519285e-38
0.0686167479172 0.0806547738676 0.213 9.95712802524e-39
0.0677897223472 0.0787614693167 0.208 9.58834550579e-39
0.0685734185594 0.0787614693167 0.208 8.85078046688e-39
0.0710243531073 0.0806547738676 0.213 9.77273676551e-39
0.0718268881707 0.0806547738676 0.213 1.04181061746e-38
0.0719474568187 0.0798974520473 0.211 1.06024974343e-38
0.0727424563415 0.0798974520473 0.211 1.03259105447e-38
0.0742344933608 0.0806547738676 0.213 1.0141519285e-38
0.0764461744978 0.0821694175083 0.217 9.95712802524e-39
0.0769077263535 0.0817907565982 0.216 9.40395424606e-39
0.0770019206098 0.0810334347778 0.214 9.86493239538e-39
0.0796261725892 0.0829267393287 0.219 1.0141519285e-38
0.0922067574557 0.0950438884543 0.251 1.03259105447e-38
0.15333129423 0.154872312262 0.409 1.00493236551e-38
0.160930886825 0.160930886825 0.425 1.02337149148e-38
-0.0529673141817 0.0504805858164 0.132 1.02337149148e-38
-0.0520724687472 0.050098157136 0.131 1.06025002369e-38
-0.0515788908444 0.050098157136 0.131 1.04181089772e-38
-0.0506953487207 0.0497157284555 0.13 1.03266238056e-38
-0.0517503243908 0.0512454431772 0.134 1.05110150653e-38
-0.0520103005381 0.0520103005381 0.136 1.02344281757e-38
-0.0518765446942 0.0523927292185 0.137 1.04188222381e-38
-0.05098546703 0.0520103005381 0.136 1.07876047575e-38
-0.0508441756456 0.0523927292185 0.137 1.01422353485e-38
-0.0506953487207 0.0527751578989 0.138 1.01422353485e-38
-0.0505389862553 0.0531575865794 0.139 1.06032134978e-38
-0.0500152661904 0.0531575865794 0.139 1.03277014041e-38
-0.050203654703 0.0539224439402 0.141 1.05120940652e-38
-0.0493201125792 0.0535400152598 0.14 1.03277028054e-38
-0.048444105996 0.0531575865794 0.139 1.01433143483e-38
-0.048609887887 0.0539224439402 0.141 1.00500397186e-38
-0.048760598697 0.0546873013011 0.143 8.85149933299e-39
-0.0482218075512 0.0546873013011 0.143 9.5890643719e-39
-0.0483499117397 0.0554521586619 0.145 1.00496865914e-38
-0.0487926247442 0.0565994447032 0.148 1.02344337809e-38
-0.0488868190004 0.0573643020641 0.15 1.03266294108e-38
-0.0489659421757 0.0581291594249 0.152 1.02344337809e-38
-0.0480748645114 0.0577467307445 0.151 1.02344337809e-38
-0.0475059312036 0.0577467307445 0.151 8.85149933299e-39
-0.0469369978958 0.0577467307445 0.151 8.20612992395e-39
-0.0466751378634 0.0581291594249 0.152 9.22028185244e-39
-0.0464057422905 0.0585115881054 0.153 1.05110206705e-38
-0.0458292734421 0.0585115881054 0.153 1.01433143483e-38
-0.0449570346291 0.0581291594249 0.152 1.0327705608e-38
-0.0438003291622 0.0573643020641 0.15 1.04188222381e-38
-0.0435233980488 0.0577467307445 0.151 9.95712522264e-39
-0.0435233980488 0.0585115881054 0.153 7.46712715282e-39
-0.0440697247351 0.0600413028271 0.157 7.37565038907e-39
-0.0440320470326 0.0608061601879 0.159 9.68054113565e-39
-0.0426134815333 0.0596588741466 0.156 1.06032163004e-38
-0.0420257093742 0.0596588741466 0.156 1.04188222381e-38
-0.0411723094125 0.0592764454662 0.155 1.07868858914e-38
-0.0426831852829 0.0623358749096 0.163 1.04181061746e-38
-0.0431014077808 0.0638655896313 0.167 8.94226003323e-39
-0.0401832697217 0.0604237315075 0.158 6.54517365678e-39
-0.0393374053005 0.0600413028271 0.157 7.09906630207e-39
-0.0387458653712 0.0600413028271 0.157 9.77273676551e-39
-0.038397346623 0.0604237315075 0.158 1.05110178679e-38
-0.0394768127998 0.0631007322705 0.165 1.06972027897e-38
-0.0388551307084 0.0631007322705 0.165 1.01433115457e-38
-0.0368431413947 0.0608061601879 0.159 1.05110178679e-38
-0.0362440659248 0.0608061601879 0.159 6.82247660989e-39
-0.0351966257952 0.0600413028271 0.157 5.90052031125e-39
-0.037690889701 0.065395304353 0.171 6.91467223975e-39
-0.037479894567 0.0661601617139 0.173 1.06954091277e-38
-0.0357636752179 0.0642480183118 0.168 1.04188222381e-38
-0.0338760223224 0.0619534462292 0.162 1.07883278275e-38
-0.0330603000631 0.0615710175488 0.161 1.07876075601e-38
-0.0324536890528 0.0615710175488 0.161 9.21956298633e-39
-0.0334295415477 0.0646304469922 0.169 4.88564951664e-39
-0.0341510695507 0.0673074477552 0.176 4.79345388678e-39
-0.0315852180101 0.0634831609509 0.166 7.83662853838e-39
-0.0304002542663 0.0623358749096 0.163 1.05110206705e-38
-0.0294206340011 0.0615710175488 0.161 1.01429584185e-38
-0.0300668065991 0.0642480183118 0.168 1.06946902615e-38
-0.0303098277803 0.0661601617139 0.173 1.09712799537e-38
-0.0293151364341 0.065395304353 0.171 5.80832468139e-39
-0.027161855736 0.0619534462292 0.162 3.22684984781e-39
-0.0263875789495 0.0615710175488 0.161 4.79417555549e-39
-0.0262613586461 0.0627183035901 0.164 9.40395424606e-39
-0.027207068979 0.0665425903943 0.174 1.03259105447e-38
-0.0274670451262 0.0688371624769 0.18 1.09712771511e-38
-0.0247052695326 0.0634831609509 0.166 1.04198984353e-38
-0.0239347605164 0.0631007322705 0.165 9.12808341998e-39
-0.0233130784251 0.0631007322705 0.165 3.50271787129e-39
-0.0233790144044 0.0650128756726 0.17 2.39529411571e-39
-0.0234072726813 0.0669250190748 0.175 4.05589445307e-39
-0.0219679844456 0.0646304469922 0.169 1.04181089772e-38
-0.0205739094529 0.0623358749096 0.163 1.02355099782e-38
-0.0200822154352 0.0627183035901 0.164 1.06050085611e-38
-0.019582985877 0.0631007322705 0.165 1.05110206705e-38
-0.0202253907048 0.0673074477552 0.176 5.80832468139e-39
-0.0197845615854 0.068072305116 0.178 2.21269791932e-39
-0.0178253210552 0.0634831609509 0.166 3.13393535184e-39
-0.0170962575117 0.0631007322705 0.165 5.43954496453e-39
-0.016574421332 0.0634831609509 0.166 1.087980319e-38
-0.0167175966015 0.0665425903943 0.174 1.05120968678e-38
-0.0165235564336 0.0684547337965 0.179 1.04198984353e-38
-0.0151407847517 0.065395304353 0.171 9.77273956811e-39
-0.0142421715469 0.0642480183118 0.168 1.65952414014e-39
-0.0136901932052 0.0646304469922 0.169 2.11978342334e-39
-0.0130534400329 0.0646304469922 0.169 2.67295720252e-39
-0.0130779305395 0.068072305116 0.178 9.772020702e-39
-0.0124769711846 0.0684547337965 0.179 1.0418103372e-38
-0.0112091164953 0.0650128756726 0.17 1.04188194355e-38
-0.0104442591344 0.0642480183118 0.168 1.00511145145e-38
-0.0099280746101 0.0650128756726 0.17 3.6860329338e-39
-0.00939681900478 0.0657777330335 0.172 2.76407663516e-39
-0.00879962742008 0.0661601617139 0.173 2.85734846225e-39
-0.00791231752608 0.0642480183118 0.168 3.2261309817e-39
-0.00719267340823 0.0634831609509 0.166 1.04181061746e-38
-0.00652766195902 0.0631007322705 0.165 1.05103018044e-38
-0.00590597986768 0.0631007322705 0.165 1.04188222381e-38
-0.00538037591773 0.0642480183118 0.168 8.39051838108e-39
-0.00474739051565 0.0642480183118 0.168 3.31653154823e-39
-0.0040654241003 0.0634831609509 0.166 2.21090285598e-39
-0.00348141971147 0.0642480183118 0.168 1.93539216361e-39
-0.00284843430939 0.0642480183118 0.168 9.58834830838e-39
-0.00226819769081 0.0657777330335 0.172 1.03259133473e-38
-0.00162014120772 0.0657777330335 0.172 1.04181061746e-38
-0.000966433069257 0.065395304353 0.171 1.03251916786e-38
-0.000325912126669 0.0661601617139 0.173 4.33247573746e-39
0.000324028241544 0.0657777330335 0.172 2.57968677674e-39
0.000977736380008 0.0661601617139 0.173 1.29002555717e-39
0.00165781891023 0.0673074477552 0.176 6.63808535016e-39
0.00233413367019 0.0676898764356 0.177 1.03266266082e-38
0.00296711907228 0.0669250190748 0.175 1.04188222381e-38
0.00362647886612 0.0669250190748 0.175 1.06024974343e-38
0.00431032916659 0.0673074477552 0.176 7.83591527746e-39
0.00502997328444 0.068072305116 0.178 2.94846929619e-39
0.00570063638903 0.068072305116 0.178 2.39637311553e-39
0.006407093311 0.0684547337965 0.179 4.79417555549e-39
0.00712108577347 0.0688371624769 0.18 1.07876075601e-38
0.00775595506068 0.0684547337965 0.179 1.00511187184e-38
0.00847748306366 0.0688371624769 0.18 1.00511187184e-38
0.00920654660713 0.0692195911573 0.181 9.86493239538e-39
0.00988851302247 0.0692195911573 0.181 5.34555146874e-39
0.0104536785601 0.0684547337965 0.179 3.96190095727e-39
0.0112524458532 0.0692195911573 0.181 4.42467697252e-39
0.0119344122685 0.0692195911573 0.181 1.03251944812e-38
0.012964897432 0.0711317345595 0.186 1.0693974198e-38
0.0135187596588 0.0703668771986 0.184 1.01408004189e-38
0.0142120293849 0.0703668771986 0.184 1.01408004189e-38
0.0149863061714 0.070749305879 0.185 7.74371404241e-39
0.0154290191759 0.0696020198377 0.182 4.51686979979e-39
0.0162032959623 0.0699844485182 0.183 4.33248134266e-39
0.0168927979182 0.0699844485182 0.183 8.76037569645e-39
0.0176783780154 0.0703668771986 0.184 1.03277028054e-38
0.0185713395648 0.0711317345595 0.186 1.05110150653e-38
0.0194793721952 0.0718965919203 0.188 1.01422353485e-38
0.0201877130023 0.0718965919203 0.188 9.77345282903e-39
0.0206737553646 0.0711317345595 0.186 4.61050035928e-39
0.0213745606312 0.0711317345595 0.186 4.42539023344e-39
0.0220753658978 0.0711317345595 0.186 7.65224008125e-39
0.0226537186312 0.070749305879 0.185 1.01440304118e-38
0.0232245358242 0.0703668771986 0.184 1.04198984353e-38
0.0241777816975 0.0711317345595 0.186 1.03266266082e-38
0.0248785869641 0.0711317345595 0.186 1.05102990018e-38
0.025854439459 0.0718965919203 0.188 7.0061490035e-39
0.0262801974973 0.0711317345595 0.186 6.08419270487e-39
0.0271260619186 0.0715141632399 0.187 7.37565319166e-39
0.0281282888052 0.0722790206007 0.189 1.03259133473e-38
0.0288403973826 0.0722790206007 0.189 1.05110178679e-38
0.0297088684253 0.0726614492812 0.19 1.04188222381e-38
0.0307450052442 0.073426306642 0.192 1.05110178679e-38
0.0313045191264 0.0730438779616 0.191 8.75930090053e-39
0.0321918290204 0.073426306642 0.192 7.19125912934e-39
0.0327438073621 0.0730438779616 0.191 8.11321542797e-39
0.0334634514799 0.0730438779616 0.191 1.02337149148e-38
0.0340041265109 0.0726614492812 0.19 1.06024974343e-38
0.0347200028585 0.0726614492812 0.19 1.06024974343e-38
0.0365549069705 0.0749560213637 0.196 1.05103018044e-38
0.0374836623372 0.0753384500442 0.197 1.0141519285e-38
0.0378378327408 0.0745735926833 0.195 8.38980231756e-39
0.0389681638159 0.0753384500442 0.197 9.12736735647e-39
0.0393072631385 0.0745735926833 0.195 1.00493236551e-38
0.0414793826879 0.0772505934463 0.202 1.05103018044e-38
0.0424495835274 0.0776330221267 0.203 1.05103018044e-38
0.0425758038308 0.0764857360854 0.2 1.06024974343e-38
0.0424627707233 0.0749560213637 0.196 1.06946930641e-38
0.0427604245731 0.0741911640029 0.194 9.49614987592e-39
0.0459573776306 0.0783978794876 0.205 9.86493239538e-39
0.0474136208325 0.0795451655289 0.208 1.00493236551e-38
0.0465752919517 0.0768681647659 0.201 1.09712799537e-38
0.0473326137721 0.0768681647659 0.201 1.05103018044e-38
0.0478506821815 0.0764857360854 0.2 1.06024974343e-38
0.0507914268621 0.0799275942093 0.209 1.09712799537e-38
0.0520724687472 0.0806924515701 0.211 1.05103018044e-38
0.0506124577752 0.0772505934463 0.202 1.06946930641e-38
0.0513735473658 0.0772505934463 0.202 1.06024974343e-38
0.0521346369564 0.0772505934463 0.202 1.05103018044e-38
0.0560380469359 0.0818397376114 0.214 1.05103018044e-38
0.0565787219668 0.081457308931 0.213 1.05103018044e-38
0.0554954880198 0.078780308168 0.206 1.04181061746e-38
0.0557253220051 0.0780154508071 0.204 1.07868914966e-38
0.057047809363 0.078780308168 0.206 1.01415220876e-38
0.0603502599876 0.0822221662918 0.215 1.02337149148e-38
0.0605913972836 0.081457308931 0.213 9.95712802524e-39
0.0602409946503 0.0799275942093 0.209 1.02337149148e-38
0.0601524520495 0.078780308168 0.206 1.02337149148e-38
0.0612243826857 0.0791627368484 0.207 1.01415164824e-38
0.064101075272 0.0818397376114 0.214 1.03259077421e-38
0.0639974615901 0.0806924515701 0.211 1.04181061746e-38
0.0635641680113 0.0791627368484 0.207 1.02337149148e-38
0.0646549374988 0.0795451655289 0.208 1.02337149148e-38
0.0657532425268 0.0799275942093 0.209 1.03259105447e-38
0.0674958362677 0.0810748802506 0.212 1.00493236551e-38
0.0679724592044 0.0806924515701 0.211 1.03259105447e-38
0.0674638102206 0.0791627368484 0.207 1.05103018044e-38
0.0685734185594 0.0795451655289 0.208 1.04181061746e-38
0.070357457773 0.0806924515701 0.211 1.06024974343e-38
0.0711524572958 0.0806924515701 0.211 1.04181061746e-38
0.071606473611 0.0803100228897 0.21 1.04181061746e-38
0.0720529543857 0.0799275942093 0.209 1.04181061746e-38
0.0742344933608 0.081457308931 0.213 1.04181061746e-38
0.0750370284241 0.081457308931 0.213 1.02337149148e-38
0.0761956177761 0.0818397376114 0.214 9.95712802524e-39
0.0770019206098 0.0818397376114 0.214 1.02337149148e-38
0.0792625827601 0.0833694523331 0.218 1.02337149148e-38
0.09588033345 0.0998138855915 0.261 1.04181061746e-38
0.15333129423 0.156413330295 0.409 1.00493236551e-38
0.163202852286 0.164826761264 0.431 9.86493239538e-39
-0.0507405619637 0.0517503243908 0.134 1.01415164824e-38
-0.0502356807501 0.0517503243908 0.134 7.37493152295e-39
-0.0504730502759 0.0525227172922 0.136 3.68710913102e-39
-0.0523569354011 0.0556122888976 0.144 9.12665409555e-39
-0.0500152661904 0.0536813066442 0.139 1.03266238056e-38
-0.0494915461256 0.0536813066442 0.139 1.05110150653e-38
-0.048263253024 0.0529089137428 0.137 1.02344309783e-38
-0.0473985497515 0.0525227172922 0.136 1.00493208525e-38
-0.0484196154894 0.0548398959962 0.142 2.48928480891e-39
-0.0478845921138 0.0548398959962 0.142 4.60906542965e-39
-0.0476830164054 0.0552260924469 0.143 8.20469499432e-39
-0.0474739051565 0.0556122888976 0.144 1.00500397186e-38
-0.0485609068737 0.057543271151 0.149 1.02344309783e-38
-0.0477564879253 0.0579294676017 0.15 8.11393429408e-39
-0.0465621047559 0.0571570747003 0.148 2.39708637645e-39
-0.0456936337131 0.0567708782496 0.147 2.02830665959e-39
-0.0460609913125 0.0579294676017 0.15 4.79345668938e-39
-0.046428348912 0.059860449855 0.155 1.01433143483e-38
-0.0452528045938 0.0590880569537 0.153 1.02344309783e-38
-0.0438003291622 0.0579294676017 0.15 1.05103018044e-38
-0.0429469292005 0.057543271151 0.149 6.72956211391e-39
-0.0432389313949 0.058701860503 0.152 2.67295439992e-39
-0.0451397714863 0.0629500214605 0.163 4.9778479491e-39
-0.0426134815333 0.0602466463057 0.156 1.06025002369e-38
-0.0417563138013 0.059860449855 0.155 1.05110150653e-38
-0.0411723094125 0.059860449855 0.155 1.06946902615e-38
-0.0418976051857 0.0617914321084 0.16 1.03259105447e-38
-0.0420690387321 0.0629500214605 0.163 3.77930476088e-39
-0.0401832697217 0.0610190392071 0.158 1.93539216361e-39
-0.0385857351355 0.0594742534044 0.154 2.12050228945e-39
-0.0380054985169 0.0594742534044 0.154 6.73028378262e-39
-0.0381543254418 0.0606328427564 0.157 1.06032163004e-38
-0.0392375593889 0.0633362179111 0.164 1.00518333807e-38
-0.0386196450678 0.0633362179111 0.164 1.06032134978e-38
-0.0368431413947 0.0614052356578 0.159 8.66567314364e-39
-0.0357881657245 0.0606328427564 0.157 2.76407663516e-39
-0.035644990455 0.0614052356578 0.159 2.3945766509e-39
-0.0379113042607 0.0664257895166 0.172 3.22505478448e-39
-0.0379131881458 0.0675843788686 0.175 8.66638920715e-39
-0.0349121591413 0.0633362179111 0.164 1.09719960173e-38
-0.0336669110735 0.0621776285591 0.161 1.02355099782e-38
-0.0326496131058 0.0614052356578 0.159 1.09719988198e-38
-0.032050537636 0.0614052356578 0.159 5.34663046856e-39
-0.0332317336095 0.0648810037139 0.168 2.21090285598e-39
-0.0324047080395 0.0644948072632 0.167 2.6718810053e-39
-0.0308241284195 0.0625638250098 0.162 3.59491350115e-39
-0.0302137496389 0.0625638250098 0.162 1.03266294108e-38
-0.029237897144 0.0617914321084 0.16 1.02355099782e-38
-0.0288140229908 0.0621776285591 0.161 1.05110178679e-38
-0.0287330159304 0.0633362179111 0.164 1.02344337809e-38
-0.0276008009701 0.0621776285591 0.161 2.39636751033e-39
-0.0268265241837 0.0617914321084 0.16 2.85734846225e-39
-0.0265514769554 0.0625638250098 0.162 2.39637031293e-39
-0.0257809679391 0.0621776285591 0.161 6.36077959446e-39
-0.0257998067904 0.0637224143618 0.165 1.087980319e-38
-0.0256359087845 0.0648810037139 0.168 1.06954091277e-38
-0.024109961833 0.0625638250098 0.162 1.01433115457e-38
-0.0237897013617 0.0633362179111 0.164 7.46856208244e-39
-0.0230304956563 0.0629500214605 0.163 2.39637031293e-39
-0.0225538727196 0.0633362179111 0.164 2.39529411571e-39
-0.0222034700863 0.0641086108125 0.166 2.02759059607e-39
-0.0211880560038 0.0629500214605 0.163 9.31176141879e-39
-0.0204476891495 0.0625638250098 0.162 1.06964881275e-38
-0.0199597629021 0.0629500214605 0.163 1.03284216715e-38
-0.0194643011142 0.0633362179111 0.164 1.07876075601e-38
-0.0190762207784 0.0641086108125 0.166 2.67367606863e-39
-0.0184507709168 0.0641086108125 0.166 3.04245858809e-39
-0.0175031766988 0.0629500214605 0.163 2.58076437525e-39
-0.0168890301479 0.0629500214605 0.163 3.78002362699e-39
-0.0163747295087 0.0633362179111 0.164 1.11563900796e-38
-0.0159489714704 0.0641086108125 0.166 1.06042924976e-38
-0.0155081423511 0.0648810037139 0.168 1.02355099782e-38
-0.0147866143481 0.0644948072632 0.167 8.85078326948e-39
-0.013987847055 0.0637224143618 0.165 2.02830665959e-39
-0.0134471720241 0.0641086108125 0.166 2.48856594279e-39
-0.0127444828724 0.0637224143618 0.165 2.67295720252e-39
-0.0125636299003 0.0660395930659 0.171 9.772020702e-39
-0.0118496374379 0.0656533966152 0.17 1.03259077421e-38
-0.0111431805159 0.0652672001645 0.169 1.03266238056e-38
-0.0104442591344 0.0648810037139 0.168 9.77452762495e-39
-0.00986967417122 0.0652672001645 0.169 5.89872805052e-39
-0.00934218633615 0.0660395930659 0.171 2.11978342334e-39
-0.00859616782655 0.0652672001645 0.169 1.84319653375e-39
-0.00772392901355 0.0633362179111 0.164 5.71612905153e-39
-0.00710601469247 0.0633362179111 0.164 9.77345282903e-39
-0.00636941560849 0.0621776285591 0.161 1.03266266082e-38
-0.00558383551126 0.0602466463057 0.156 1.03277028054e-38
-0.00489998521079 0.0590880569537 0.153 9.1291596172e-39
-0.00432351636246 0.0590880569537 0.153 4.23920391038e-39
-0.00377153802076 0.0594742534044 0.154 3.04173691938e-39
-0.00325346961132 0.0606328427564 0.157 5.34734653207e-39
-0.00271279458037 0.0617914321084 0.16 1.05110206705e-38
-0.0021627001238 0.0633362179111 0.164 1.03266266082e-38
-0.00155420522834 0.0637224143618 0.165 1.06032134978e-38
-0.00094947810313 0.0648810037139 0.168 1.05110178679e-38
-0.000318376586168 0.0652672001645 0.169 8.20540825524e-39
0.000322144356419 0.0660395930659 0.171 6.45369409043e-39
0.000972084724633 0.0664257895166 0.172 6.91467223975e-39
0.00162956063335 0.0668119859672 0.173 1.00493208525e-38
0.00229457208256 0.0671981824179 0.174 1.02344309783e-38
0.00296711907228 0.0675843788686 0.175 1.03266266082e-38
0.00362647886612 0.0675843788686 0.175 1.05102990018e-38
0.00426134815333 0.0671981824179 0.174 1.00493236551e-38
0.00497345673068 0.0679705753193 0.176 8.2976066877e-39
0.00557253220051 0.0671981824179 0.174 8.5749124434e-39
0.00629971185886 0.0679705753193 0.176 1.01422381511e-38
0.00704196259821 0.0687429682206 0.178 1.03266294108e-38
0.00766929634492 0.0683567717699 0.177 9.86672745871e-39
0.00828909455113 0.0679705753193 0.176 1.05110178679e-38
0.00905395191199 0.0687429682206 0.178 1.06024974343e-38
0.00972461501658 0.0687429682206 0.178 1.0141519285e-38
0.0104536785601 0.0691291646713 0.179 9.67982226954e-39
0.0112524458532 0.0699015575727 0.181 1.00493236551e-38
0.0118025403097 0.0691291646713 0.179 1.06024946317e-38
0.0126163786838 0.0699015575727 0.181 1.0234068042e-38
0.0132248735793 0.069515361122 0.18 1.03262636719e-38
0.0140575508047 0.0702877540233 0.182 1.03262636719e-38
0.0147432849903 0.0702877540233 0.182 1.05106549316e-38
0.0151746946839 0.0691291646713 0.179 1.05102990018e-38
0.0162032959623 0.070673950474 0.183 1.05103018044e-38
0.0167081771759 0.0699015575727 0.181 1.04188194355e-38
0.0174862217326 0.0702877540233 0.182 1.02344281757e-38
0.0183716477415 0.0710601469247 0.184 1.02344309783e-38
0.0192721448314 0.071832539826 0.186 9.86564845889e-39
0.0206172388108 0.0741497185301 0.192 1.04188222381e-38
0.0210072030317 0.0729911291781 0.189 1.02344309783e-38
0.0211447266459 0.0710601469247 0.184 1.07876075601e-38
0.0219566811349 0.0714463433754 0.185 1.03266294108e-38
0.0228986236975 0.0722187362767 0.187 1.06032106952e-38
0.0242342982513 0.0741497185301 0.192 1.03277028054e-38
0.0252176862867 0.0749221114315 0.194 1.03277028054e-38
0.0252798544958 0.0729911291781 0.189 1.04198984353e-38
0.0257169158449 0.0722187362767 0.187 9.95784128616e-39
0.0261389061129 0.0714463433754 0.185 1.05110178679e-38
0.0277062985372 0.0737635220794 0.191 1.06032134978e-38
0.0294677311293 0.0764668972342 0.198 1.06024946317e-38
0.0302137496389 0.0764668972342 0.198 1.0786888694e-38
0.0300215933561 0.0741497185301 0.192 1.06024974343e-38
0.0307450052442 0.0741497185301 0.192 1.04181061746e-38
0.0322879071618 0.0760807007835 0.197 1.05103018044e-38
0.0338684867819 0.0780116830369 0.202 1.03266266082e-38
0.0341152757333 0.0768530936849 0.199 1.03266266082e-38
0.0336386527966 0.0741497185301 0.192 1.02344309783e-38
0.0341830955978 0.0737635220794 0.191 1.03266266082e-38
0.0358164240014 0.0756945043328 0.196 1.03266238056e-38
0.0386064578719 0.0799426652903 0.207 1.04188194355e-38
0.0391961139161 0.0795564688396 0.206 1.04188194355e-38
0.0380318729087 0.0756945043328 0.196 1.04188194355e-38
0.0389681638159 0.0760807007835 0.197 1.06032106952e-38
0.0395088388469 0.0756945043328 0.196 1.05110150653e-38
0.0433274739958 0.081487451093 0.211 1.03266238056e-38
0.0434951397719 0.080328861741 0.208 1.05110150653e-38
0.04278868285 0.0776254865862 0.201 1.05103018044e-38
0.0428960643021 0.0764668972342 0.198 1.05103018044e-38
0.043421668252 0.0760807007835 0.197 1.06024974343e-38
0.0470782892802 0.0811012546423 0.21 1.02337149148e-38
0.0478695210328 0.0811012546423 0.21 1.04181061746e-38
0.0472704455629 0.0787840759382 0.204 1.05103018044e-38
0.0475680994127 0.0780116830369 0.202 1.06024974343e-38
0.0485684424143 0.0783978794876 0.203 1.06946930641e-38
0.0512774692244 0.081487451093 0.211 1.05103018044e-38
0.051332101893 0.080328861741 0.208 1.04181061746e-38
0.0501113443318 0.0772392901355 0.2 1.05103018044e-38
0.0511192228738 0.0776254865862 0.201 1.06024974343e-38
0.051618452432 0.0772392901355 0.2 1.05103018044e-38
0.0544668867414 0.080328861741 0.208 1.05103018044e-38
0.0544536995456 0.0791702723889 0.205 1.05103018044e-38
0.0544179057282 0.0780116830369 0.202 1.06024974343e-38
0.0557253220051 0.0787840759382 0.204 9.95712802524e-39
0.057047809363 0.0795564688396 0.206 1.02337149148e-38
0.058385367802 0.080328861741 0.208 1.0141519285e-38
0.059453530668 0.0807150581916 0.209 9.95712802524e-39
0.0599527602262 0.080328861741 0.208 1.02337149148e-38
0.0595684476606 0.0787840759382 0.204 1.02337149148e-38
0.0615201526504 0.080328861741 0.208 1.0141519285e-38
0.0626033865974 0.0807150581916 0.209 1.03259105447e-38
0.0633908505798 0.0807150581916 0.209 1.00493236551e-38
0.0638712412867 0.080328861741 0.208 1.02337149148e-38
0.0649657785445 0.0807150581916 0.209 1.03259105447e-38
0.0657532425268 0.0807150581916 0.209 1.03259105447e-38
0.0668590830954 0.0811012546423 0.21 1.0786888694e-38
0.067650314848 0.0811012546423 0.21 1.04181061746e-38
0.0684415466006 0.0811012546423 0.21 1.05103018044e-38
0.0695624582501 0.081487451093 0.211 9.95712802524e-39
0.0710243531073 0.0822598439943 0.213 1.02337149148e-38
0.0711524572958 0.081487451093 0.211 1.02337149148e-38
0.0719474568187 0.081487451093 0.211 1.04181061746e-38
0.0727424563415 0.081487451093 0.211 1.04181061746e-38
0.0749315308571 0.0830322368957 0.215 1.03259105447e-38
0.0760938879794 0.0834184333464 0.216 1.00493236551e-38
0.0761956177761 0.082646040445 0.214 9.86493239538e-39
0.0770019206098 0.082646040445 0.214 9.86493239538e-39
0.0814441217351 0.0865080049518 0.224 1.0141519285e-38
0.139914264368 0.145596061905 0.377 9.95712802524e-39
0.157455118769 0.162202509285 0.42 1.00493236551e-38
0.167746783208 0.17108502765 0.443 1.0141519285e-38
0.162532189182 0.164133491538 0.425 9.49614987592e-39
-0.0496554441315 0.0538150624881 0.138 1.03266266082e-38
-0.0484233832596 0.0530351340462 0.136 1.03266266082e-38
-0.0486155395424 0.0538150624881 0.138 1.00493208525e-38
-0.047737649074 0.0545949909299 0.14 2.6718782027e-39
-0.0468729458015 0.054205026709 0.139 2.57896650932e-39
-0.0460157780695 0.0538150624881 0.138 6.81996548304e-39
-0.045166145878 0.0534250982672 0.137 9.77452762495e-39
-0.0472572583671 0.0565448120346 0.145 1.02344281757e-38
-0.0452094752359 0.0553749193718 0.142 7.00686506702e-39
-0.0446744518603 0.0553749193718 0.142 3.04173972197e-39
-0.0441394284848 0.0553749193718 0.142 2.67296000512e-39
-0.0439114783846 0.0557648835927 0.143 3.13285915462e-39
-0.0430693817336 0.0553749193718 0.142 8.38801145812e-39
-0.0437325092977 0.0569347762555 0.146 1.05110178679e-38
-0.0425908749118 0.0561548478137 0.144 1.02337121122e-38
-0.0423403181902 0.0565448120346 0.145 1.05095829383e-38
-0.042082225928 0.0569347762555 0.146 5.53029865828e-39
-0.0418165981253 0.0573247404764 0.147 2.30309568325e-39
-0.0415434347822 0.0577147046974 0.148 2.21090285598e-39
-0.0415396670119 0.0584946331392 0.15 2.94954689471e-39
-0.0409745014743 0.0584946331392 0.15 1.04170355825e-38
-0.0401399403639 0.0581046689183 0.149 1.04191767666e-38
-0.0398441703992 0.0584946331392 0.15 1.04184593018e-38
-0.0400645849588 0.059664525802 0.153 1.00493208525e-38
-0.0397462083727 0.0600544900229 0.154 3.41052224143e-39
-0.0386573227703 0.0592745615811 0.152 2.48856594279e-39
-0.0380846216922 0.0592745615811 0.152 2.02830665959e-39
-0.0367715537599 0.0581046689183 0.149 5.99271874371e-39
-0.0364531771737 0.0584946331392 0.15 1.097164289e-38
-0.0370842786907 0.0604444542439 0.155 1.04206159001e-38
-0.0367357599425 0.0608344184648 0.156 1.04188222381e-38
-0.0366114235242 0.0616143469067 0.158 8.48020568669e-39
-0.0353322655242 0.0604444542439 0.155 3.68352320825e-39
-0.0347482611354 0.0604444542439 0.155 2.94595816934e-39
-0.0352663295448 0.0623942753485 0.16 2.85555480021e-39
-0.0346634863047 0.0623942753485 0.16 8.7578687735e-39
-0.0334220060072 0.0612243826857 0.157 1.07876047575e-38
-0.0328304660779 0.0612243826857 0.157 1.06954091277e-38
-0.0320335826699 0.0608344184648 0.156 1.09712799537e-38
-0.031042659094 0.0600544900229 0.154 6.08311931024e-39
-0.0316492701043 0.0623942753485 0.16 2.30202509122e-39
-0.0310464268642 0.0623942753485 0.16 2.57861198081e-39
-0.0302533112265 0.0620043111276 0.159 4.23920671298e-39
-0.0300272450115 0.0627842395694 0.161 1.05103018044e-38
-0.0290551602868 0.0620043111276 0.159 1.01422353485e-38
-0.0282771157301 0.0616143469067 0.158 1.05120968678e-38
-0.0280322106638 0.0623942753485 0.16 1.02344337809e-38
-0.0272579338773 0.0620043111276 0.159 3.68710632842e-39
-0.0266588584075 0.0620043111276 0.159 3.22505198188e-39
-0.0263875789495 0.0627842395694 0.161 2.48748694298e-39
-0.0256208377035 0.0623942753485 0.16 7.19054026323e-39
-0.0250179944634 0.0623942753485 0.16 1.06032163004e-38
-0.0245677459185 0.0627842395694 0.161 1.05120968678e-38
-0.0238123079832 0.0623942753485 0.16 1.08808765846e-38
-0.0233545238978 0.0627842395694 0.161 8.39051838108e-39
-0.0227479128875 0.0627842395694 0.161 2.85734846225e-39
-0.022003778263 0.0623942753485 0.16 3.13285915462e-39
-0.0216684467107 0.0631742037904 0.162 3.68711193361e-39
-0.0207980917828 0.0623942753485 0.16 9.31176141879e-39
-0.0204476891495 0.0631742037904 0.162 1.01433143483e-38
-0.0197148578358 0.0627842395694 0.161 1.01440304118e-38
-0.0191082468255 0.0627842395694 0.161 1.04188222381e-38
-0.0188463867931 0.0639541322322 0.164 6.91466943715e-39
-0.0180061740272 0.0631742037904 0.162 2.95026015563e-39
-0.0173957952466 0.0631742037904 0.162 2.85734565965e-39
-0.0168890301479 0.0635641680113 0.163 7.92882416825e-39
-0.0162748835971 0.0635641680113 0.163 1.06954091277e-38
-0.015852893329 0.0643440964532 0.165 1.05120940652e-38
-0.01541583198 0.065124024895 0.167 1.05120926639e-38
-0.0145209865455 0.0639541322322 0.164 1.09712827563e-38
-0.013987847055 0.0643440964532 0.165 5.62393622426e-39
-0.0134471720241 0.0647340606741 0.166 4.88565231924e-39
-0.0125900042921 0.0635641680113 0.163 6.54517365678e-39
-0.012122800781 0.0643440964532 0.165 1.0417390111e-38
-0.0115011186897 0.0643440964532 0.165 1.06024946317e-38
-0.0109453725777 0.0647340606741 0.166 1.03266238056e-38
-0.0103199227162 0.0647340606741 0.166 1.00511145145e-38
-0.00981127373234 0.0655139891159 0.168 9.86421633186e-39
-0.00906902299299 0.0647340606741 0.166 7.743716845e-39
-0.00834184333464 0.0639541322322 0.164 7.65223727866e-39
-0.00753554050103 0.0623942753485 0.16 9.68054113565e-39
-0.00684603854518 0.0616143469067 0.158 1.01422353485e-38
-0.00605292290745 0.059664525802 0.153 1.02355071756e-38
-0.0051543097027 0.0561548478137 0.144 1.03277028054e-38
-0.00445162055098 0.054205026709 0.139 1.05120940652e-38
-0.0038713839324 0.0534250982672 0.137 1.02337121122e-38
-0.00337968991471 0.0538150624881 0.138 1.01415164824e-38
-0.0029011830929 0.0545949909299 0.14 1.03266266082e-38
-0.00242456015621 0.0557648835927 0.143 1.01433143483e-38
-0.00196489218564 0.0581046689183 0.149 1.02362260417e-38
-0.00146001097207 0.0604444542439 0.155 1.02355071756e-38
-0.000904264860123 0.0623942753485 0.16 1.01433115457e-38
-0.000308957160542 0.0639541322322 0.164 1.07876019549e-38
0.000310841045667 0.0643440964532 0.165 1.05110150653e-38
0.00094947810313 0.0655139891159 0.168 1.03266238056e-38
0.00160130235647 0.0662939175578 0.17 1.04188222381e-38
0.00224182329906 0.0662939175578 0.17 9.95712522264e-39
0.00289929920777 0.0666838817787 0.171 1.0418103372e-38
0.00358503339336 0.0674638102206 0.173 1.02344309783e-38
0.00418787663345 0.0666838817787 0.171 1.02344281757e-38
0.00500171500756 0.0690236671043 0.177 1.02344281757e-38
0.00563658429477 0.0686337028834 0.176 1.00511187184e-38
0.0062281242241 0.0678537744415 0.174 9.95892308857e-39
0.00700240101058 0.0690236671043 0.177 1.05120968678e-38
0.00758263762916 0.0682437386624 0.175 1.05110206705e-38
0.00843038593553 0.0698035955461 0.179 1.05110206705e-38
0.00910481681037 0.0698035955461 0.179 1.01422353485e-38
0.00961534967931 0.0686337028834 0.176 1.01422353485e-38
0.0102784772434 0.0686337028834 0.176 1.03266266082e-38
0.0109416048075 0.0686337028834 0.176 1.02344337809e-38
0.011670668351 0.0690236671043 0.177 1.00500397186e-38
0.0125466749342 0.0701935597671 0.18 1.06032134978e-38
0.0132983450992 0.070583523988 0.181 1.06032106952e-38
0.0138258329343 0.0698035955461 0.179 1.04188194355e-38
0.0145002638091 0.0698035955461 0.179 1.03266266082e-38
0.0151746946839 0.0698035955461 0.179 1.06032134978e-38
0.016468923765 0.0725333450926 0.186 1.00500425212e-38
0.0173543497739 0.0733132735345 0.188 1.0418103372e-38
0.0174862217326 0.0709734882089 0.182 1.0418103372e-38
0.0182718018299 0.0713634524299 0.183 1.02337121122e-38
0.0191685311495 0.0721433808717 0.185 1.05110178679e-38
0.020724620263 0.0752630946391 0.193 1.04188222381e-38
0.0213406506989 0.0748731304182 0.192 9.95892308857e-39
0.0212596436385 0.0721433808717 0.185 9.86672745871e-39
0.0219566811349 0.0721433808717 0.185 1.0327705608e-38
0.0226537186312 0.0721433808717 0.185 1.0418103372e-38
0.0244867388581 0.0756530588601 0.194 1.06032134978e-38
0.0249577101394 0.0748731304182 0.192 1.0327705608e-38
0.0251460986519 0.0733132735345 0.188 9.95928322228e-39
0.0255793922307 0.0725333450926 0.186 1.04202613716e-38
0.0259976147285 0.0717534166508 0.184 1.02355099782e-38
0.0278513576918 0.0748731304182 0.192 1.01422353485e-38
0.0290212503546 0.076043023081 0.195 1.04188222381e-38
0.029298181468 0.0748731304182 0.192 1.06939770006e-38
0.0293961434945 0.0733132735345 0.188 1.05103018044e-38
0.0302646145373 0.0737032377554 0.189 1.03259105447e-38
0.0313045191264 0.0744831661973 0.191 1.00493236551e-38
0.0333654894534 0.0776028799647 0.199 1.00500397186e-38
0.0329152409085 0.0748731304182 0.192 1.00500397186e-38
0.03293784753 0.0733132735345 0.188 1.02344309783e-38
0.033825157424 0.0737032377554 0.189 1.00511159158e-38
0.0350854765728 0.0748731304182 0.192 1.0327705608e-38
0.0371144208527 0.0776028799647 0.199 1.00511187184e-38
0.0376739347349 0.0772129157438 0.198 9.77453182885e-39
0.037449752405 0.0752630946391 0.193 1.02355099782e-38
0.0381769320633 0.0752630946391 0.193 1.00511187184e-38
0.0385009603049 0.0744831661973 0.191 9.95892308857e-39
0.0406580087733 0.0772129157438 0.198 1.00511187184e-38
0.0407766935362 0.076043023081 0.195 1.01433143483e-38
0.0417242877542 0.0764329873019 0.196 1.06024974343e-38
0.0424627707233 0.0764329873019 0.196 1.0141519285e-38
0.0429808391327 0.076043023081 0.195 1.02337149148e-38
0.0448364659811 0.0779928441856 0.2 1.04181061746e-38
0.0458179701314 0.0783828084066 0.201 1.04181061746e-38
0.0458801383405 0.0772129157438 0.198 1.06024974343e-38
0.0468616424908 0.0776028799647 0.199 1.0786888694e-38
0.0476114287706 0.0776028799647 0.199 1.05103018044e-38
0.0493332997751 0.0791627368484 0.203 1.02337149148e-38
0.0496045792331 0.0783828084066 0.201 1.02337149148e-38
0.0498607876102 0.0776028799647 0.199 1.02337149148e-38
0.0511192228738 0.0783828084066 0.201 1.03259105447e-38
0.0518765446942 0.0783828084066 0.201 1.05103018044e-38
0.0534194466118 0.0795527010694 0.204 1.05103018044e-38
0.0541880717429 0.0795527010694 0.204 1.05103018044e-38
0.0541485101553 0.0783828084066 0.201 1.03259105447e-38
0.0551789953188 0.0787727726275 0.202 1.05102990018e-38
0.0567708782496 0.0799426652903 0.205 9.49614707333e-39
0.0572625722673 0.0795527010694 0.204 1.01415164824e-38
0.0583156640523 0.0799426652903 0.205 1.04181061746e-38
0.059664525802 0.0807225937321 0.207 1.02337149148e-38
0.0604444542439 0.0807225937321 0.207 1.01415220876e-38
0.0615201526504 0.0811125579531 0.208 1.01415220876e-38
0.0632024620672 0.0822824506158 0.211 9.68054393825e-39
0.0627842395694 0.0807225937321 0.207 8.94297609674e-39
0.0638712412867 0.0811125579531 0.208 9.68054113565e-39
0.0646549374988 0.0811125579531 0.208 1.02337149148e-38
0.0657532425268 0.081502522174 0.209 1.06024974343e-38
0.0671774596815 0.0822824506158 0.211 1.02337149148e-38
0.0666838817787 0.0807225937321 0.207 1.06024974343e-38
0.0674638102206 0.0807225937321 0.207 9.3117586162e-39
0.0695624582501 0.0822824506158 0.211 8.48199794743e-39
0.0733584867775 0.0857921286042 0.22 9.03517172661e-39
0.0714896727333 0.0826724148368 0.212 1.00493236551e-38
0.0719474568187 0.0822824506158 0.211 1.02337149148e-38
0.0730872073195 0.0826724148368 0.212 1.03259105447e-38
0.076674124598 0.0857921286042 0.22 1.06946930641e-38
0.0771507475346 0.0854021643833 0.219 8.02101979811e-39
0.0765516720648 0.0838423074996 0.215 6.63808535016e-39
0.0770019206098 0.0834523432786 0.214 7.74443290852e-39
0.0807169420768 0.0865720570461 0.222 9.86493239538e-39
0.142512141955 0.149746260836 0.384 1.00493236551e-38
0.160079370748 0.166514722336 0.427 9.40395424606e-39
0.170018748669 0.175093935197 0.449 5.99271594112e-39
0.164444332584 0.167684614999 0.43 5.16295527235e-39
-0.0463737162433 0.0535475508003 0.136 2.58076157266e-39
-0.0455240840518 0.0531538188091 0.135 2.30417468307e-39
-0.0453488827352 0.0535475508003 0.136 7.83591247487e-39
-0.0448364659811 0.0535475508003 0.136 1.0141519285e-38
-0.044324049227 0.0535475508003 0.136 1.04181061746e-38
-0.0451002098987 0.055122478765 0.14 1.03259105447e-38
-0.0436175923051 0.0539412827915 0.137 8.02101979811e-39
-0.0434160165967 0.0543350147827 0.138 3.7800208244e-39
-0.0432069053478 0.0547287467738 0.139 1.65952133754e-39
-0.0423761120075 0.0543350147827 0.138 3.87221645426e-39
-0.0424627707233 0.055122478765 0.14 9.3117586162e-39
-0.0425343583581 0.0559099427474 0.142 1.06024974343e-38
-0.0419993349825 0.0559099427474 0.142 1.05103018044e-38
-0.0411723094125 0.0555162107562 0.141 1.0141519285e-38
-0.0412175226555 0.0563036747386 0.143 7.56004164879e-39
-0.0403942648558 0.0559099427474 0.142 3.31904267508e-39
-0.0401399403639 0.0563036747386 0.143 2.21269511672e-39
-0.0401550114449 0.0570911387209 0.145 6.45369409043e-39
-0.0396086847585 0.0570911387209 0.145 1.02337149148e-38
-0.0387929624993 0.0566974067297 0.144 1.06032163004e-38
-0.0385160313859 0.0570911387209 0.145 1.05110206705e-38
-0.0379697046996 0.0570911387209 0.145 1.01422381511e-38
-0.0376814702754 0.0574848707121 0.146 5.8090435475e-39
-0.0373857003107 0.0578786027033 0.147 3.0431746516e-39
-0.0365812813622 0.0574848707121 0.146 3.59634843078e-39
-0.0357843979543 0.0570911387209 0.145 8.48271681354e-39
-0.0352380712679 0.0570911387209 0.145 1.06954119303e-38
-0.0358880116361 0.0590597986768 0.15 1.08790815213e-38
-0.0355583317392 0.059453530668 0.151 1.1063472781e-38
-0.0349893984314 0.059453530668 0.151 9.58834270319e-39
-0.0346484152237 0.0598472626592 0.152 5.80832187879e-39
-0.0340757141456 0.0598472626592 0.152 3.59562676207e-39
-0.0343846713062 0.0614221906239 0.156 6.82247380729e-39
-0.0335802523577 0.0610284586327 0.155 1.0418103372e-38
-0.0327833689497 0.0606347266415 0.154 1.06946902615e-38
-0.0322031323311 0.0606347266415 0.154 1.05110178679e-38
-0.0314175522339 0.0602409946503 0.153 1.07876047575e-38
-0.0306395076772 0.0598472626592 0.152 9.31247467971e-39
-0.0304624224754 0.0606347266415 0.154 5.99343200463e-39
-0.0298821858568 0.0606347266415 0.154 5.99343200463e-39
-0.0296824940335 0.0614221906239 0.156 9.03588779012e-39
-0.0292812265019 0.0618159226151 0.157 1.05110178679e-38
-0.0285069497154 0.0614221906239 0.156 1.06032134978e-38
-0.0277402084694 0.0610284586327 0.155 1.06032134978e-38
-0.0269810027639 0.0606347266415 0.154 1.02344309783e-38
-0.0264007661454 0.0606347266415 0.154 8.85149653039e-39
-0.0261558610791 0.0614221906239 0.156 7.00758393313e-39
-0.0257319869259 0.0618159226151 0.157 8.66710527067e-39
-0.0249803167609 0.0614221906239 0.156 1.02344309783e-38
-0.0245489070672 0.0618159226151 0.157 1.04188222381e-38
-0.0239573671379 0.0618159226151 0.157 1.06032134978e-38
-0.0233658272086 0.0618159226151 0.157 1.02344337809e-38
-0.0229193464339 0.0622096546062 0.158 1.03266294108e-38
-0.0224653301187 0.0626033865974 0.159 9.31247748231e-39
-0.0215912074206 0.0618159226151 0.157 9.22028185244e-39
-0.021267179179 0.0626033865974 0.159 9.86565126149e-39
-0.0202781394883 0.0614221906239 0.156 1.02344337809e-38
-0.0198165876326 0.0618159226151 0.157 1.05110206705e-38
-0.0193475002364 0.0622096546062 0.158 1.05110206705e-38
-0.0186335077739 0.0618159226151 0.157 1.07876047575e-38
-0.0182718018299 0.0626033865974 0.159 1.02344309783e-38
-0.0177838755824 0.0629971185886 0.16 9.95784408875e-39
-0.0170736508902 0.0626033865974 0.159 1.02344309783e-38
-0.0164745754204 0.0626033865974 0.159 1.06032134978e-38
-0.0158754999505 0.0626033865974 0.159 1.06954091277e-38
-0.0153725026221 0.0629971185886 0.16 1.06954091277e-38
-0.0149542801243 0.063784582571 0.162 1.05110178679e-38
-0.0141668161419 0.0629971185886 0.16 1.05120926639e-38
-0.0135639729019 0.0629971185886 0.16 1.03277014041e-38
-0.0130421367222 0.0633908505798 0.161 1.00511145145e-38
-0.0123582864217 0.0629971185886 0.16 1.03277028054e-38
-0.0119023862214 0.063784582571 0.162 1.04198984353e-38
-0.0115011186897 0.0649657785445 0.165 1.0327705608e-38
-0.0107475646396 0.0641783145621 0.163 1.0327705608e-38
-0.0101334180888 0.0641783145621 0.163 1.04199012379e-38
-0.00963607241569 0.0649657785445 0.165 1.04188222381e-38
-0.00885049231846 0.063784582571 0.162 1.02344309783e-38
-0.00824011353787 0.063784582571 0.162 1.03266266082e-38
-0.0073471519885 0.0614221906239 0.156 1.03266266082e-38
-0.00636941560849 0.0578786027033 0.147 1.02344309783e-38
-0.00557818385589 0.0555162107562 0.141 1.06032134978e-38
-0.00476057771152 0.0523663548268 0.133 1.01422353485e-38
-0.0040352819383 0.0496102308885 0.126 1.05110178679e-38
-0.00344750977922 0.0480353029238 0.122 1.06954119303e-38
-0.00301233231529 0.048429034915 0.123 1.01422381511e-38
-0.00261106478361 0.0496102308885 0.126 1.05110206705e-38
-0.00215328069817 0.0500039628797 0.127 9.95712802524e-39
-0.00176708424749 0.0527600868179 0.134 1.03259105447e-38
-0.00132813901331 0.0555162107562 0.141 1.02344337809e-38
-0.000836444995614 0.0582723346944 0.148 1.06032163004e-38
-0.000292002194415 0.0610284586327 0.155 1.02344337809e-38
0.000295769964665 0.0618159226151 0.157 1.04188194355e-38
0.000926871481626 0.0645720465533 0.164 1.01422325459e-38
0.00157304407959 0.0657532425268 0.167 1.00500397186e-38
0.0022154489073 0.066146974518 0.168 1.0418103372e-38
0.00283147934326 0.0657532425268 0.167 1.01415164824e-38
0.00350214244785 0.0665407065092 0.169 1.01422353485e-38
0.00411440511356 0.066146974518 0.168 1.01422325459e-38
0.00486042362316 0.0677219024827 0.172 1.0050036916e-38
0.00554050615338 0.0681156344739 0.173 9.95712522264e-39
0.00608494895458 0.0669344385004 0.17 1.03259077421e-38
0.00680459307243 0.0677219024827 0.172 1.02344309783e-38
0.00736599083975 0.0669344385004 0.17 1.03273496782e-38
0.00814780316674 0.0681156344739 0.173 1.05117409379e-38
0.00864703272493 0.0669344385004 0.17 1.02344309783e-38
0.00923292099888 0.0665407065092 0.169 1.02337121122e-38
0.00998647504899 0.0673281704916 0.171 1.0418103372e-38
0.0105685955527 0.0669344385004 0.17 1.02355099782e-38
0.0112750524747 0.0673281704916 0.171 1.01433143483e-38
0.0120587486868 0.0681156344739 0.173 1.03266238056e-38
0.0127105729401 0.0681156344739 0.173 1.06032106952e-38
0.0132851579033 0.0677219024827 0.172 1.02344281757e-38
0.0139332143864 0.0677219024827 0.172 1.03259077421e-38
0.0144964960389 0.0673281704916 0.171 1.04181061746e-38
0.015672040357 0.0696905624386 0.177 1.03259133473e-38
0.0164312460625 0.0700842944298 0.178 9.95784689135e-39
0.0169097528843 0.0692968304475 0.176 9.95784689135e-39
0.0177725722717 0.0700842944298 0.178 1.05110206705e-38
0.0184432353763 0.0700842944298 0.178 1.05110206705e-38
0.0196508057416 0.0720529543857 0.183 9.95784689135e-39
0.020229158475 0.0716592223945 0.182 1.04188250407e-38
0.0206850586753 0.0708717584122 0.18 1.04188250407e-38
0.0212445725575 0.070478026421 0.179 1.02344337809e-38
0.0220414559655 0.0708717584122 0.18 1.00511187184e-38
0.0229720952174 0.0716592223945 0.182 1.05110178679e-38
0.023657829403 0.0716592223945 0.182 9.95712802524e-39
0.0242098077447 0.0712654904033 0.181 1.06017785682e-38
0.0251668213883 0.0720529543857 0.183 1.04173873084e-38
0.025432449191 0.0708717584122 0.18 1.06017785682e-38
0.0266908844546 0.0724466863769 0.184 1.02337177174e-38
0.0273841541807 0.0724466863769 0.184 1.03259133473e-38
0.028230018602 0.0728404183681 0.185 9.86672465611e-39
0.0286143311675 0.0720529543857 0.183 1.04188222381e-38
0.029463963359 0.0724466863769 0.184 1.07865257577e-38
0.030321131091 0.0728404183681 0.185 1.03244714112e-38
0.0315211659158 0.0740216143416 0.188 9.86349326185e-39
0.0320580731765 0.0736278823504 0.187 9.58798256948e-39
0.0325874448967 0.0732341503592 0.186 9.77345282903e-39
0.0332882501633 0.0732341503592 0.186 9.95892028597e-39
0.0339890554299 0.0732341503592 0.186 1.01433101444e-38
0.0354358792061 0.074809078324 0.19 1.02344281757e-38
0.0363420279513 0.0752028103151 0.191 1.04188222381e-38
0.0366735917334 0.0744153463328 0.189 8.94297889934e-39
0.0381769320633 0.0759902742975 0.193 8.85078326948e-39
0.0385009603049 0.0752028103151 0.191 1.01422353485e-38
0.0394259479014 0.0755965423063 0.192 1.0050036916e-38
0.0401493597895 0.0755965423063 0.192 1.00511145145e-38
0.041511408735 0.0767777382798 0.195 1.03251916786e-38
0.0424627707233 0.077171470271 0.196 1.06017785682e-38
0.0429808391327 0.0767777382798 0.195 8.94297889934e-39
0.0441639189914 0.0775652022622 0.197 8.38980512016e-39
0.0449061697308 0.0775652022622 0.197 9.77273956811e-39
0.0451849847293 0.0767777382798 0.195 1.05103018044e-38
0.0463906712095 0.0775652022622 0.197 1.04188222381e-38
0.0473721753597 0.0779589342534 0.198 1.04188194355e-38
0.0486042362316 0.0787463982357 0.2 1.09694848904e-38
0.0491110013303 0.0783526662446 0.199 6.26858676719e-39
0.0498607876102 0.0783526662446 0.199 5.90052311385e-39
0.0508648983819 0.0787463982357 0.2 8.11393429408e-39
0.0521346369564 0.0795338622181 0.202 1.01433143483e-38
0.0531575865794 0.0799275942093 0.203 1.01433143483e-38
0.0541880717429 0.0803213262005 0.204 1.03277028054e-38
0.0541485101553 0.0791401302269 0.201 9.49686313684e-39
0.0551789953188 0.0795338622181 0.202 4.42252457808e-39
0.0567708782496 0.0807150581916 0.205 3.04174252457e-39
0.057543271151 0.0807150581916 0.205 6.17890226418e-39
0.0580311973984 0.0803213262005 0.204 9.68412986102e-39
0.0590880569537 0.0807150581916 0.205 9.77632549088e-39
0.0604444542439 0.081502522174 0.207 9.86672745871e-39
0.0621116925797 0.0826837181475 0.21 9.77202350459e-39
0.064101075272 0.0842586461122 0.214 3.59276390931e-39
0.0627842395694 0.081502522174 0.207 4.14594049109e-39
0.0635641680113 0.081502522174 0.207 4.05553712196e-39
0.0649657785445 0.0822899861564 0.209 1.04188250407e-38
0.0676408954224 0.0846523781034 0.215 1.02355071756e-38
0.0684509660262 0.0846523781034 0.215 9.86672465611e-39
0.0679724592044 0.0830774501387 0.211 9.58834550579e-39
0.0677897223472 0.0818962541652 0.208 3.96190235857e-39
0.069892138147 0.0834711821299 0.212 3.68388334195e-39
0.074358829779 0.0878022340329 0.223 2.85806732836e-39
0.0718268881707 0.0838649141211 0.213 9.49615267852e-39
