VERSION .7
FIELDS x y z rgb
SIZE 4 4 4 4
TYPE F F F F
COUNT 1 1 1 1
WIDTH 869
HEIGHT 1
VIEWPOINT 0 0 0 1 0 0 0
POINTS 869
DATA ascii
0.0219661005605 0.0675561205917 0.22 1.24482050949e-38
0.0228986236975 0.0678631938671 0.221 1.26325963546e-38
0.0239460638271 0.068477340418 0.223 1.31857701338e-38
0.0245639781482 0.0678631938671 0.221 6.73207604336e-39
0.0257414063515 0.0687844136934 0.224 2.39888143978e-39
0.026229332599 0.0678631938671 0.221 1.66131640087e-39
0.0296335130203 0.0743117326509 0.242 1.27247891819e-38
0.0403904970855 0.0982634481334 0.32 1.31857673312e-38
0.0466657184377 0.110239305875 0.359 1.28169848117e-38
0.0500246856161 0.114845405006 0.374 1.30935745039e-38
0.0532216386736 0.118837357586 0.387 1.22638138352e-38
0.0560926796045 0.121908090341 0.397 1.11574662768e-38
0.0586038984765 0.124057603268 0.404 2.5829167697e-39
0.0610190392071 0.125900042921 0.41 2.30632988011e-39
0.0631742037904 0.127128336023 0.414 1.11574662768e-38
0.0658285979319 0.129277848951 0.421 1.32779657637e-38
0.0690161315638 0.132348581705 0.431 1.29091832442e-38
0.0719512245889 0.134805167908 0.439 1.24482050949e-38
0.0756172650427 0.138490047213 0.451 1.28169876143e-38
0.0786879977969 0.140946633416 0.459 1.33701613935e-38
0.081819014875 0.14340321962 0.467 9.1291624198e-39
0.0844734090165 0.144938585997 0.472 6.45548915377e-39
0.0871654808605 0.146473952374 0.477 1.12496591041e-38
0.0891492118974 0.146781025649 0.478 1.30935717013e-38
0.0907599336795 0.146473952374 0.477 1.25403979221e-38
0.0927512002569 0.146781025649 0.478 1.28169848117e-38
0.0945521944366 0.146781025649 0.478 1.2632593552e-38
0.0963531886164 0.146781025649 0.478 1.22638110326e-38
0.0987702132321 0.147702245476 0.481 1.30935717013e-38
0.100582510723 0.147702245476 0.481 1.09730722145e-38
0.104097840366 0.150158831679 0.489 1.18946753859e-38
0.107023513966 0.151694198056 0.494 1.28166316845e-38
0.109766450708 0.152922491158 0.498 1.23556535352e-38
0.112315347283 0.153843710984 0.501 1.27244360547e-38
0.115570700779 0.155686150636 0.507 1.17102841262e-38
0.117249242426 0.155379077361 0.506 1.22634579053e-38
0.119862191094 0.156300297187 0.509 1.17102841262e-38
0.122019239563 0.156607370463 0.51 1.25400447949e-38
0.123454760028 0.155993223912 0.508 1.29091832442e-38
0.125368787316 0.155993223912 0.508 1.18028356858e-38
0.127282814603 0.155993223912 0.508 1.28169876143e-38
0.128942517398 0.155686150636 0.507 1.21716182053e-38
0.131627053702 0.156607370463 0.51 1.02355099782e-38
0.133548616529 0.156607370463 0.51 1.13418575365e-38
0.136001434963 0.157221517013 0.512 1.22638138352e-38
0.138469324477 0.157835663564 0.514 1.21716182053e-38
0.139859631699 0.157221517013 0.512 1.21716182053e-38
0.142065661181 0.157528590289 0.513 1.22638138352e-38
0.144279226203 0.157835663564 0.514 1.18028356858e-38
0.145931393458 0.157528590289 0.513 1.22638138352e-38
0.14815249402 0.157835663564 0.514 5.71792411486e-39
0.150965134512 0.158756883391 0.517 5.53353285513e-39
0.153800381626 0.159678103217 0.52 1.12496619067e-38
0.155460084421 0.159371029941 0.519 1.16184444261e-38
0.157112251676 0.159063956666 0.518 1.18028356858e-38
0.159063956666 0.159063956666 0.518 1.20794225754e-38
0.161326502701 0.159371029941 0.519 1.18950313157e-38
0.162967366645 0.159063956666 0.518 1.21716182053e-38
0.165555824808 0.159678103217 0.52 3.78181588773e-39
0.167837209694 0.159985176492 0.521 1.56912077101e-39
0.168822481615 0.159063956666 0.518 4.79596781623e-39
0.171763226295 0.159985176492 0.521 1.26325963546e-38
0.172725891594 0.159063956666 0.518 1.23549304652e-38
0.174677596584 0.159063956666 0.518 1.22627348353e-38
0.177311267989 0.159678103217 0.52 1.20783435756e-38
0.179615259497 0.159985176492 0.521 1.22627348353e-38
0.181926786546 0.160292249768 0.522 6.17782326436e-39
0.183893562617 0.160292249768 0.522 1.56804177119e-39
0.187284555842 0.161520542869 0.526 1.66023740106e-39
0.189626225053 0.161827616145 0.527 8.20612712135e-39
0.190884660317 0.161213469594 0.525 1.14340531664e-38
0.1917606669 0.160292249768 0.522 1.14340531664e-38
0.196696445928 0.162748835971 0.53 1.14340531664e-38
0.197193791601 0.161520542869 0.526 1.12496619067e-38
0.198796977843 0.161213469594 0.525 1.12496619067e-38
0.200010199863 0.160599323043 0.523 1.10652706469e-38
0.202366940155 0.160906396318 0.524 1.09730750171e-38
0.205121180208 0.161520542869 0.526 1.08808793872e-38
0.206709295369 0.161213469594 0.525 1.03273496782e-38
0.209482374273 0.161827616145 0.527 1.05117409379e-38
0.211066721664 0.161520542869 0.526 1.087980319e-38
0.212643533513 0.161213469594 0.525 1.11563900796e-38
0.215439219039 0.161827616145 0.527 3.31904267508e-39
0.217012263119 0.161520542869 0.526 1.84391259727e-39
0.218994110271 0.161520542869 0.526 2.02830385699e-39
0.221816170188 0.16213468942 0.528 1.7517169674e-39
0.223381678727 0.161827616145 0.527 1.93610822713e-39
0.224512009803 0.161213469594 0.525 1.93610822713e-39
0.22605867949 0.160906396318 0.524 1.84391259727e-39
0.228032991102 0.160906396318 0.524 1.84391259727e-39
0.233079919352 0.163055909246 0.531 1.93610822713e-39
0.235080605355 0.163055909246 0.531 1.93610822713e-39
0.238420733682 0.163977129073 0.534 1.93610822713e-39
0.240432722996 0.163977129073 0.534 1.93610822713e-39
0.241990695995 0.163670055797 0.533 1.84391539986e-39
0.243998917538 0.163670055797 0.533 1.84391539986e-39
0.246468690937 0.163977129073 0.534 1.84391539986e-39
0.247084721373 0.163055909246 0.531 1.84391539986e-39
0.249085407376 0.163055909246 0.531 1.84391539986e-39
0.251086093379 0.163055909246 0.531 1.84391539986e-39
0.253086779382 0.163055909246 0.531 1.84391539986e-39
0.254607074678 0.162748835971 0.53 1.84391539986e-39
0.254667359002 0.161520542869 0.526 1.84391539986e-39
0.258112984897 0.162441762696 0.529 1.84391539986e-39
0.258139359288 0.161213469594 0.525 1.84391539986e-39
0.259621976882 0.160906396318 0.524 1.84391539986e-39
0.261097058935 0.160599323043 0.523 1.75171977e-39
0.263570600104 0.160906396318 0.524 1.75171977e-39
0.266558441913 0.161520542869 0.526 1.75171977e-39
0.268540289065 0.161520542869 0.526 1.75171977e-39
0.267950633021 0.159985176492 0.521 1.84391259727e-39
0.267841367683 0.158756883391 0.517 1.84391259727e-39
0.269789304903 0.158756883391 0.517 1.84391259727e-39
0.271211638172 0.158449810115 0.516 1.84391259727e-39
0.271567692461 0.157528590289 0.513 1.7517169674e-39
0.272967419109 0.157221517013 0.512 1.7517169674e-39
0.271138166653 0.155072004086 0.505 1.7517169674e-39
0.270337515474 0.153536637708 0.5 1.7517169674e-39
0.273854729003 0.154457857535 0.503 1.75171977e-39
0.272460654011 0.152615417882 0.497 1.75171977e-39
0.272125322458 0.151387124781 0.493 1.75171977e-39
0.269536864296 0.148930538577 0.485 1.75171977e-39
0.27192374675 0.149237611853 0.486 1.75171977e-39
0.276008009701 0.150465904954 0.49 1.75171977e-39
0.276720118279 0.149851758403 0.488 1.75171977e-39
0.27456306981 0.147702245476 0.481 1.75171977e-39
0.276949952264 0.148009318751 0.482 1.7517169674e-39
0.275295901124 0.146166879098 0.476 1.7517169674e-39
0.275925118756 0.145552732548 0.474 1.7517169674e-39
0.280640483224 0.147088098925 0.479 1.7517169674e-39
0.279496964953 0.145552732548 0.474 1.7517169674e-39
0.27831576898 0.144017366171 0.469 1.7517169674e-39
0.281277236397 0.144631512721 0.471 1.7517169674e-39
-0.125410232788 0.0652766195902 0.21 1.39222589755e-38
-0.12521242485 0.0655874606358 0.211 1.36456664807e-38
-0.124417425327 0.0655874606358 0.211 1.410664463e-38
-0.123036537531 0.0652766195902 0.21 1.3461275221e-38
-0.123409546785 0.0658983016815 0.212 1.39222533703e-38
-0.122032426759 0.0655874606358 0.211 1.13407813393e-38
-0.123535767089 0.0668308248185 0.215 4.794891619e-39
-0.121013244906 0.0658983016815 0.212 9.03588498752e-39
-0.119080378767 0.0652766195902 0.21 1.43832315196e-38
-0.117725865362 0.0649657785445 0.209 1.38300577404e-38
-0.118057429144 0.0655874606358 0.211 1.41988402599e-38
-0.117262429622 0.0655874606358 0.211 1.37378621106e-38
-0.115915451757 0.0652766195902 0.21 1.38300577404e-38
-0.114576009433 0.0649657785445 0.209 4.79488601381e-39
-0.114332988252 0.0652766195902 0.21 3.50414719572e-39
-0.111919731406 0.0643440964532 0.207 1.22620159692e-38
-0.111139802965 0.0643440964532 0.207 1.49356892353e-38
-0.110359874523 0.0643440964532 0.207 1.39215373068e-38
-0.109050574361 0.0640332554075 0.206 1.40137329366e-38
-0.109325621589 0.0646549374988 0.208 1.44747110859e-38
-0.108541925377 0.0646549374988 0.208 7.5600388462e-39
-0.107758229165 0.0646549374988 0.208 4.24099617112e-39
-0.105945931674 0.0640332554075 0.206 4.33319180098e-39
-0.10619083674 0.0646549374988 0.208 1.40148063313e-38
-0.104393610331 0.0640332554075 0.206 1.38304150715e-38
-0.104120446988 0.0643440964532 0.207 1.38300577404e-38
-0.105337436779 0.0655874606358 0.211 1.39222533703e-38
-0.10602882262 0.0665199837728 0.214 1.410664463e-38
-0.103255743715 0.0652766195902 0.21 3.043171849e-39
-0.10100073322 0.0643440964532 0.207 4.42610629695e-39
-0.100704963256 0.0646549374988 0.208 7.65295334217e-39
-0.100882048458 0.0652766195902 0.21 1.36456664807e-38
-0.101520685515 0.0662091427272 0.213 1.3461275221e-38
-0.0997724401187 0.0655874606358 0.211 1.33690795911e-38
-0.0989774405959 0.0655874606358 0.211 1.36456692833e-38
-0.0967864821952 0.0646549374988 0.208 9.77345282903e-39
-0.0964643378388 0.0649657785445 0.209 2.67438932955e-39
-0.0979657942836 0.0665199837728 0.214 1.66024020365e-39
-0.0948894098741 0.0649657785445 0.209 1.23549332678e-38
-0.0936516973468 0.0646549374988 0.208 1.31846883314e-38
-0.0928680011347 0.0646549374988 0.208 1.31846883314e-38
-0.0916415919181 0.0643440964532 0.207 1.32768867638e-38
-0.0943732253497 0.0668308248185 0.215 1.32768867638e-38
-0.093127977282 0.0665199837728 0.214 9.22028185244e-39
-0.0897332162862 0.0646549374988 0.208 2.39780524256e-39
-0.089804803921 0.0652766195902 0.21 5.99343480723e-39
-0.0877419497088 0.0643440964532 0.207 1.36456720859e-38
-0.0878022340329 0.0649657785445 0.209 1.25396762534e-38
-0.0895128017266 0.0668308248185 0.215 1.30002970716e-38
-0.0858147352257 0.0646549374988 0.208 1.27237101821e-38
-0.0850310390136 0.0646549374988 0.208 1.30002970716e-38
-0.0834372721976 0.0640332554075 0.206 1.19861479457e-38
-0.0822598439943 0.0637224143618 0.205 8.02173586162e-39
-0.0850649489459 0.0665199837728 0.214 1.24471260951e-38
-0.0846523781034 0.0668308248185 0.215 1.36456720859e-38
-0.0811125579531 0.0646549374988 0.208 1.25404007247e-38
-0.080328861741 0.0646549374988 0.208 1.34623570234e-38
-0.0780154508071 0.0634115733162 0.204 1.30935745039e-38
-0.0795187911371 0.0652766195902 0.21 1.26325963546e-38
-0.0806020250841 0.0668308248185 0.215 1.34623570234e-38
-0.0779363276319 0.0652766195902 0.21 1.30013788741e-38
-0.0764103806804 0.0646549374988 0.208 1.39233351727e-38
-0.0752630946391 0.0643440964532 0.207 1.29091832442e-38
-0.0737635220794 0.0637224143618 0.205 1.41066474326e-38
-0.0747714006214 0.0652766195902 0.21 1.35534736534e-38
-0.0750370284241 0.0662091427272 0.213 1.36456692833e-38
-0.0721433808717 0.0643440964532 0.207 1.30924955041e-38
-0.0710187014519 0.0640332554075 0.206 1.35534736534e-38
-0.069560574365 0.0634115733162 0.204 1.41988430625e-38
-0.0691291646713 0.0637224143618 0.205 1.30924955041e-38
-0.0713578007745 0.0665199837728 0.214 1.3830060543e-38
-0.0692327783532 0.0652766195902 0.21 1.23549304652e-38
-0.0674638102206 0.0643440964532 0.207 9.49686593944e-39
-0.0663617374223 0.0640332554075 0.206 1.30002998742e-38
-0.0655855767507 0.0640332554075 0.206 1.32768867638e-38
-0.0641801984473 0.0634115733162 0.204 1.3184691134e-38
-0.0671416658642 0.0671416658642 0.216 1.30002998742e-38
-0.0635641680113 0.0643440964532 0.207 1.32768867638e-38
-0.0618743230539 0.0634115733162 0.204 1.42910386923e-38
-0.0617047733927 0.0640332554075 0.206 5.71648217874e-39
-0.0597455328624 0.0627898912248 0.202 3.87256958147e-39
-0.0607364564383 0.0646549374988 0.208 1.0050036916e-38
-0.0599527602262 0.0646549374988 0.208 1.410664463e-38
-0.0583156640523 0.0637224143618 0.205 1.410664463e-38
-0.057543271151 0.0637224143618 0.205 1.35545498506e-38
-0.057047809363 0.0640332554075 0.206 1.37389411104e-38
-0.0549058319756 0.0624790501791 0.201 1.2632593552e-38
-0.0552260924469 0.0637224143618 0.205 2.30668300732e-39
-0.0544536995456 0.0637224143618 0.205 1.01594418923e-39
-0.0534194466118 0.0634115733162 0.204 8.94476835748e-39
-0.053167006005 0.0640332554075 0.206 1.41999192597e-38
-0.0518821963496 0.0634115733162 0.204 1.38311367402e-38
-0.0513641279401 0.0637224143618 0.205 1.35545498506e-38
-0.0515788908444 0.0649657785445 0.209 1.38311367402e-38
-0.0495763209563 0.0634115733162 0.204 1.1987224143e-38
-0.0485684424143 0.0631007322705 0.203 3.78181308513e-39
-0.0478035850534 0.0631007322705 0.203 2.8598567865e-39
-0.0470387276925 0.0631007322705 0.203 1.02355071756e-38
-0.0460459202315 0.0627898912248 0.202 1.45687017791e-38
-0.0459573776306 0.0637224143618 0.205 1.41077236298e-38
-0.0445237410503 0.0627898912248 0.202 1.41077236298e-38
-0.0435460046703 0.0624790501791 0.201 1.37389411104e-38
-0.0434273199074 0.0634115733162 0.204 1.04198984353e-38
-0.0426586947763 0.0634115733162 0.204 3.22863930595e-39
-0.0418900696452 0.0634115733162 0.204 1.75350922814e-39
-0.0413230202225 0.0637224143618 0.205 1.18950285131e-38
-0.040352819383 0.0634115733162 0.204 1.34623542208e-38
-0.0397782344198 0.0637224143618 0.205 1.32779629611e-38
-0.0393863863137 0.0643440964532 0.207 1.35545498506e-38
-0.0380469439897 0.0634115733162 0.204 1.35545498506e-38
-0.0372783188586 0.0634115733162 0.204 1.09730722145e-38
-0.0368676319013 0.0640332554075 0.206 1.8457076606e-39
-0.0362666725463 0.0643440964532 0.207 2.12229455019e-39
-0.0353153105581 0.0640332554075 0.206 1.21716182053e-38
-0.0358804760956 0.0665199837728 0.214 1.30013788741e-38
-0.0354019692738 0.0671416658642 0.216 1.31857701338e-38
-0.0333070890145 0.0646549374988 0.208 1.32779657637e-38
-0.0325233928024 0.0646549374988 0.208 1.32779657637e-38
-0.0318922912855 0.0649657785445 0.209 1.24482050949e-38
-0.0309560003782 0.0646549374988 0.208 4.70341625655e-39
-0.0320580731765 0.0686958710925 0.221 5.81011974472e-39
-0.0313666873355 0.0690067121382 0.222 1.32779629611e-38
-0.0291550061985 0.0658983016815 0.212 1.29091804416e-38
-0.0279549713737 0.0649657785445 0.209 1.25403979221e-38
-0.0271675073913 0.0649657785445 0.209 1.34623542208e-38
-0.0261276028022 0.0643440964532 0.207 1.27247919845e-38
-0.0270620098243 0.0686958710925 0.221 1.37385879832e-38
-0.0267040716505 0.0699392352752 0.225 1.11574634742e-38
-0.0243624024398 0.0658983016815 0.212 1.1987224143e-38
-0.0236747843691 0.0662091427272 0.213 1.4660897409e-38
-0.0227648678536 0.0658983016815 0.212 1.29091804416e-38
-0.0215516458329 0.0646549374988 0.208 1.4660897409e-38
-0.0228647137652 0.0711825994578 0.229 1.4015528e-38
-0.0224822850848 0.0727368046862 0.234 1.36467454805e-38
-0.020123660908 0.0677633479555 0.218 1.30013760715e-38
-0.0186824887872 0.0655874606358 0.211 1.38311367402e-38
-0.0180570389256 0.0662091427272 0.213 1.4015528e-38
-0.0172545038622 0.0662091427272 0.213 1.39233323701e-38
-0.0171471224101 0.0690067121382 0.222 1.30935717013e-38
-0.0174127502128 0.0736693278232 0.237 1.48452886687e-38
-0.0154045286692 0.0686958710925 0.221 1.31857673312e-38
-0.0140443636088 0.0662091427272 0.213 1.35545498506e-38
-0.0133661649637 0.0668308248185 0.215 1.34623542208e-38
-0.0123224926043 0.0655874606358 0.211 1.30935717013e-38
-0.0116913910873 0.0665199837728 0.214 1.33701585909e-38
-0.0116480617295 0.0711825994578 0.229 1.2632593552e-38
-0.0103613681889 0.0683850300468 0.22 1.34623542208e-38
-0.0093158119444 0.0668308248185 0.215 1.37389411104e-38
-0.0084661797529 0.0665199837728 0.214 6.73207324076e-39
-0.00762408310192 0.0662091427272 0.213 9.49794213666e-39
-0.00682154803856 0.0662091427272 0.213 1.42921148896e-38
-0.00632985402086 0.0696283942295 0.224 1.34623542208e-38
-0.00536342095161 0.0680741890012 0.219 1.30935717013e-38
-0.00443466558485 0.0665199837728 0.214 1.28169876143e-38
-0.00361140778512 0.0662091427272 0.213 1.35545526532e-38
-0.00283524711351 0.0668308248185 0.215 1.18950313157e-38
-0.00201575708402 0.0665199837728 0.214 1.47692514115e-39
-0.00122075756117 0.0671416658642 0.216 2.58327269951e-39
-0.000414454727557 0.0683850300468 0.22 1.19872269456e-38
0.00040126753168 0.0662091427272 0.213 1.2632593552e-38
0.00119815093966 0.0658983016815 0.212 1.30935717013e-38
0.0020063376584 0.0662091427272 0.213 1.29091804416e-38
0.00283524711351 0.0668308248185 0.215 1.31857673312e-38
0.00361140778512 0.0662091427272 0.213 1.10652678443e-38
0.00445538832123 0.0668308248185 0.215 1.66131359828e-39
0.00524096841846 0.0665199837728 0.214 2.76766115664e-39
0.00604727125207 0.0665199837728 0.214 7.46963827967e-39
0.00691762617994 0.0671416658642 0.216 1.2632593552e-38
0.00769567073667 0.0668308248185 0.215 1.24482022923e-38
0.0084661797529 0.0665199837728 0.214 1.2356009465e-38
0.00944580001804 0.0677633479555 0.218 1.24482050949e-38
0.0103142710608 0.0680741890012 0.219 1.24478491651e-38
0.0110376829489 0.0674525069098 0.217 1.75315610093e-39
0.0121284524364 0.0690067121382 0.222 3.04389491901e-39
0.0128480965543 0.0683850300468 0.22 4.24243810724e-39
0.0135526695911 0.0677633479555 0.218 1.25411167883e-38
0.0144399794851 0.0680741890012 0.219 1.23567255285e-38
0.0154742324189 0.0690067121382 0.222 1.23563695987e-38
0.0162372058946 0.0686958710925 0.221 1.22641739689e-38
0.0179195153114 0.0721151225948 0.232 1.28173505506e-38
0.0190366591907 0.0730476457318 0.235 5.44170016157e-39
0.018904787232 0.0693175531838 0.223 1.66167933717e-39
0.0196564573969 0.0690067121382 0.222 4.42754823307e-39
0.0206775231348 0.0696283942295 0.224 1.29091832442e-38
0.0211371911054 0.0683850300468 0.22 1.22638138352e-38
0.0219661005605 0.0683850300468 0.22 1.27247919845e-38
0.0228986236975 0.0686958710925 0.221 1.26325963546e-38
0.0241608267314 0.0699392352752 0.225 1.28169876143e-38
0.0250085750378 0.0699392352752 0.225 1.20794225754e-38
0.0257414063515 0.0696283942295 0.224 7.46964108226e-39
0.0276535497536 0.0724259636405 0.233 9.77453182885e-39
0.0391848106053 0.0994691346136 0.32 1.33701585909e-38
0.0454393092212 0.11190277644 0.36 1.23560066624e-38
0.049135491837 0.117497915262 0.378 1.30935717013e-38
0.0516297557428 0.119984643628 0.386 1.27247919845e-38
0.0539092567444 0.121849689902 0.392 1.30013788741e-38
0.0562339709889 0.123714736176 0.398 1.30013788741e-38
0.0581687210126 0.124647259313 0.401 1.27244360547e-38
0.0605725584324 0.126512305587 0.407 1.27244360547e-38
0.0625638250098 0.127444828724 0.41 1.32779657637e-38
0.0652031480703 0.129620716043 0.417 1.24482050949e-38
0.0678952199143 0.131796603363 0.424 1.34623570234e-38
0.0706400405418 0.133972490683 0.431 1.31857701338e-38
0.0736052757289 0.136459219048 0.439 1.34623570234e-38
0.0768022287865 0.139256788459 0.448 1.19872269456e-38
0.0798918003919 0.141743516824 0.456 1.33701613935e-38
0.083578563582 0.145162768327 0.467 1.28169876143e-38
0.0864345334319 0.147027814601 0.473 1.28169848117e-38
0.0885896980152 0.147649496692 0.475 1.22638110326e-38
0.0907599336795 0.148271178783 0.477 1.32779629611e-38
0.092557160089 0.148271178783 0.477 1.02355071756e-38
0.0943543864985 0.148271178783 0.477 1.09730722145e-38
0.0969579157416 0.149514542966 0.481 1.33701585909e-38
0.0989755567108 0.149825384012 0.482 1.22638110326e-38
0.100582510723 0.149514542966 0.481 1.18950285131e-38
0.102820566251 0.150136225057 0.483 1.30010229443e-38
0.105723633229 0.151690430286 0.488 1.17102841262e-38
0.10866437791 0.153244635514 0.493 1.35541967234e-38
0.111418617963 0.154487999697 0.497 6.27074196423e-39
0.113975050078 0.155420522834 0.5 5.07219877601e-39
0.116785806685 0.156663887016 0.504 1.03273496782e-38
0.119391219813 0.157596410153 0.507 1.23556535352e-38
0.122019239563 0.15852893329 0.51 1.23556535352e-38
0.123697781209 0.158218092245 0.509 1.21716182053e-38
0.125368787316 0.157907251199 0.508 1.2356009465e-38
0.127282814603 0.157907251199 0.508 1.25404007247e-38
0.12919684189 0.157907251199 0.508 6.17890226418e-39
0.13136896144 0.158218092245 0.509 2.03009892033e-39
0.134334196627 0.159461456427 0.513 3.13644647869e-39
0.136532690568 0.159772297473 0.514 1.1710640056e-38
0.138469324477 0.159772297473 0.514 1.2356009465e-38
0.140679121729 0.160083138519 0.515 1.20794225754e-38
0.142065661181 0.159461456427 0.513 1.22638138352e-38
0.144279226203 0.159772297473 0.514 1.2356009465e-38
0.146500326766 0.160083138519 0.515 8.66818427049e-39
0.148728962869 0.160393979564 0.516 2.95205521896e-39
0.151549138901 0.161326502701 0.519 1.93790329046e-39
0.153800381626 0.161637343747 0.52 7.3774454524e-39
0.154861008951 0.16070482061 0.517 1.27247919845e-38
0.156202335161 0.160083138519 0.515 1.2356009465e-38
0.15814273684 0.160083138519 0.515 1.20794225754e-38
0.159772297473 0.159772297473 0.514 1.1710640056e-38
0.162967366645 0.161015661656 0.518 1.16184444261e-38
0.164919071635 0.161015661656 0.518 1.75351203074e-39
0.167192920981 0.161326502701 0.519 2.76766395923e-39
0.169800217995 0.161948184793 0.521 2.76766395923e-39
0.170444506708 0.16070482061 0.517 1.22638138352e-38
0.172392443927 0.16070482061 0.517 1.19872269456e-38
0.174677596584 0.161015661656 0.518 1.19872269456e-38
0.176970284782 0.161326502701 0.519 1.18028356858e-38
0.179615259497 0.161948184793 0.521 1.18028356858e-38
0.181926786546 0.162259025838 0.522 7.56183671213e-39
0.184598135654 0.16288070793 0.524 2.30668580992e-39
0.186928501554 0.163191548975 0.525 9.23751361966e-40
0.188906580935 0.163191548975 0.525 9.03696678994e-39
0.190157480658 0.162569866884 0.523 1.14340531664e-38
0.192128024499 0.162569866884 0.523 1.14340531664e-38
0.193356317601 0.161948184793 0.521 1.13418575365e-38
0.196069112181 0.162569866884 0.523 1.11574662768e-38
0.198039656022 0.162569866884 0.523 1.12496619067e-38
0.200392628544 0.16288070793 0.524 1.11574662768e-38
0.201594547254 0.162259025838 0.522 1.09730750171e-38
0.204731215987 0.163191548975 0.525 1.09730750171e-38
0.207890491342 0.164124072112 0.528 1.05117409379e-38
0.209879874035 0.164124072112 0.528 1.1157110347e-38
0.21267179179 0.164745754204 0.53 1.18939551185e-38
0.213048568815 0.163502390021 0.526 5.16367413846e-39
0.216665628256 0.164745754204 0.53 2.48928200631e-39
0.218662546489 0.164745754204 0.53 2.12049948686e-39
0.220243126109 0.164434913158 0.529 2.02830385699e-39
0.222236276571 0.164434913158 0.529 1.7517169674e-39
0.224229427034 0.164434913158 0.529 1.93610822713e-39
0.224939651726 0.163502390021 0.526 1.93610822713e-39
0.226921498878 0.163502390021 0.526 1.84391259727e-39
0.228903346029 0.163502390021 0.526 1.84391259727e-39
0.233079919352 0.165056595249 0.531 1.93610822713e-39
0.235966031364 0.165678277341 0.533 1.93610822713e-39
0.240206656781 0.167232482569 0.538 1.93610822713e-39
0.240882971541 0.166299959432 0.535 1.93610822713e-39
0.241990695995 0.165678277341 0.533 1.84391539986e-39
0.244914485709 0.166299959432 0.535 1.84391539986e-39
0.24508403537 0.165056595249 0.531 1.84391539986e-39
0.245688762496 0.164124072112 0.528 1.84391539986e-39
0.247678145188 0.164124072112 0.528 1.84391539986e-39
0.250613238213 0.164745754204 0.53 1.84391539986e-39
0.252610156446 0.164745754204 0.53 1.84391539986e-39
0.253646293265 0.164124072112 0.528 1.84391539986e-39
0.25515151748 0.163813231067 0.527 1.84391539986e-39
0.256649206154 0.163502390021 0.526 1.84391539986e-39
0.259122747324 0.163813231067 0.527 1.84391539986e-39
0.258631053306 0.162259025838 0.522 1.84391539986e-39
0.261596288493 0.16288070793 0.524 1.75171977e-39
0.262061608119 0.161948184793 0.521 1.75171977e-39
0.264531381518 0.162259025838 0.522 1.75171977e-39
0.269561354803 0.164124072112 0.528 1.75171977e-39
0.271036436856 0.163813231067 0.527 1.84391259727e-39
0.270431709731 0.162259025838 0.522 1.84391259727e-39
0.268745632544 0.160083138519 0.515 1.84391259727e-39
0.272262846072 0.161015661656 0.518 1.84391259727e-39
0.272097064181 0.159772297473 0.514 1.7517169674e-39
0.271901140128 0.15852893329 0.51 1.7517169674e-39
0.270064352131 0.156353045971 0.503 1.7517169674e-39
0.271418865536 0.156042204925 0.502 1.7517169674e-39
0.2722214006 0.155420522834 0.5 1.75171977e-39
0.273008864582 0.154798840742 0.498 1.75171977e-39
0.2726773008 0.15355547656 0.494 1.75171977e-39
0.267313879848 0.149514542966 0.481 1.75171977e-39
0.269685691221 0.149825384012 0.482 1.75171977e-39
0.270938474829 0.149514542966 0.481 1.75171977e-39
0.271616673474 0.148892860875 0.479 1.75171977e-39
0.27456306981 0.149514542966 0.481 1.75171977e-39
0.275800782338 0.14920370192 0.48 1.7517169674e-39
0.275295901124 0.147960337738 0.476 1.7517169674e-39
0.278253600771 0.148582019829 0.478 1.7517169674e-39
0.277711041855 0.147338655646 0.474 1.7517169674e-39
0.279496964953 0.147338655646 0.474 1.7517169674e-39
0.276535497536 0.144851927281 0.466 1.7517169674e-39
0.278888470058 0.145162768327 0.467 1.7517169674e-39
-0.124813041204 0.0657532425268 0.209 9.12736735647e-39
-0.124025577221 0.0657532425268 0.209 1.41981241964e-38
-0.123238113239 0.0657532425268 0.209 1.40140888664e-38
-0.124208314078 0.0666970689746 0.212 1.3645306347e-38
-0.123409546785 0.0666970689746 0.212 1.36449504172e-38
-0.122610779492 0.0666970689746 0.212 8.94297609674e-39
-0.123535767089 0.0676408954224 0.215 4.14880614645e-39
-0.121584062099 0.0670116777905 0.213 3.13537028147e-39
-0.11964742819 0.0663824601587 0.211 1.42910386923e-38
-0.11716258371 0.0654386337109 0.208 1.34616325521e-38
-0.117497915262 0.0660678513428 0.21 1.4199197591e-38
-0.11670668351 0.0660678513428 0.21 1.34616325521e-38
-0.115915451757 0.0660678513428 0.21 1.37382194417e-38
-0.114576009433 0.0657532425268 0.209 4.0573237775e-39
-0.114877431053 0.0663824601587 0.211 3.78073969051e-39
-0.112460406437 0.0654386337109 0.208 1.05102990018e-38
-0.110602895704 0.0648094160791 0.206 1.42903198262e-38
-0.110359874523 0.065124024895 0.207 1.42903198262e-38
-0.110638689521 0.0657532425268 0.209 1.3737146047e-38
-0.109325621589 0.0654386337109 0.208 1.38293416769e-38
-0.109585597736 0.0660678513428 0.21 9.12736455387e-39
-0.109312434393 0.0663824601587 0.211 2.95025735303e-39
-0.108003134231 0.0660678513428 0.21 5.62393061907e-39
-0.107211902478 0.0660678513428 0.21 1.38304150715e-38
-0.10490037543 0.065124024895 0.207 1.38304150715e-38
-0.104623444316 0.0654386337109 0.208 1.39222533703e-38
-0.106835125453 0.0673262866064 0.214 1.40144490001e-38
-0.107515207984 0.0682701130542 0.217 1.45676227793e-38
-0.103255743715 0.0660678513428 0.21 7.37636645258e-39
-0.101488659468 0.0654386337109 0.208 4.79488881641e-39
-0.100704963256 0.0654386337109 0.208 1.20783435756e-38
-0.100882048458 0.0660678513428 0.21 1.37378621106e-38
-0.100567439642 0.0663824601587 0.211 1.36456664807e-38
-0.0988267297859 0.0657532425268 0.209 1.35534708508e-38
-0.0975701784073 0.0654386337109 0.208 1.35534736534e-38
-0.0963211625693 0.065124024895 0.207 1.41988430625e-38
-0.0950796822717 0.0648094160791 0.206 9.86564845889e-39
-0.0965924420273 0.0663824601587 0.211 1.16173682289e-38
-0.0944353935589 0.0654386337109 0.208 1.39222589755e-38
-0.0936516973468 0.0654386337109 0.208 1.30002970716e-38
-0.09242152036 0.065124024895 0.207 1.32768839612e-38
-0.0911988789137 0.0648094160791 0.206 1.33690823937e-38
-0.0921784991788 0.0660678513428 0.21 1.3184691134e-38
-0.0909520899623 0.0657532425268 0.209 1.41988458651e-38
-0.0875761678178 0.0638655896313 0.203 1.41066502352e-38
-0.0872389523804 0.0641801984473 0.204 1.3553476456e-38
-0.0851987047897 0.0632363719995 0.201 1.30924983067e-38
-0.0848614893523 0.0635509808154 0.202 1.43835888507e-38
-0.0853494155998 0.0644948072632 0.205 1.27240675132e-38
-0.0837518810135 0.0638655896313 0.203 1.33694369222e-38
-0.0833958267249 0.0641801984473 0.204 1.37378621106e-38
-0.0822221662918 0.0638655896313 0.203 1.30002970716e-38
-0.0806547738676 0.0632363719995 0.201 1.39222533703e-38
-0.0810899513316 0.0641801984473 0.204 1.30002998742e-38
-0.081502522174 0.065124024895 0.207 1.22627348353e-38
-0.0807225937321 0.065124024895 0.207 1.30935745039e-38
-0.0799426652903 0.065124024895 0.207 8.94477116008e-39
-0.0783978794876 0.0644948072632 0.205 1.06964881275e-38
-0.077246825676 0.0641801984473 0.204 1.34623570234e-38
-0.0768530936849 0.0644948072632 0.205 1.24482050949e-38
-0.0753384500442 0.0638655896313 0.203 1.30935745039e-38
-0.0745735926833 0.0638655896313 0.203 1.30935745039e-38
-0.0741723251516 0.0641801984473 0.204 1.41077264324e-38
-0.0726840559027 0.0635509808154 0.202 8.5749096408e-39
-0.0726350748894 0.0641801984473 0.204 3.41195436846e-39
-0.0729233093136 0.065124024895 0.207 7.46856208244e-39
-0.0710978246272 0.0641801984473 0.204 1.37378649132e-38
-0.070673950474 0.0644948072632 0.205 1.41988430625e-38
-0.070583523988 0.065124024895 0.207 1.34612780236e-38
-0.0698035955461 0.065124024895 0.207 1.33690823937e-38
-0.0686902194371 0.0648094160791 0.206 1.32768867638e-38
-0.0679140587655 0.0648094160791 0.206 3.87293251777e-39
-0.0668119859672 0.0644948072632 0.205 2.39780243996e-39
-0.0666838817787 0.065124024895 0.207 4.97928007613e-39
-0.0652672001645 0.0644948072632 0.205 1.40144518027e-38
-0.0638655896313 0.0638655896313 0.203 1.33690823937e-38
-0.0643440964532 0.065124024895 0.207 1.33690823937e-38
-0.0623358749096 0.0638655896313 0.203 1.33690823937e-38
-0.0609644065384 0.0632363719995 0.201 1.33690823937e-38
-0.0632024620672 0.0663824601587 0.211 3.13500454257e-39
-0.0606328427564 0.0644948072632 0.205 4.24135210093e-39
-0.0601524520495 0.0648094160791 0.206 5.71684231244e-39
-0.0593762913778 0.0648094160791 0.206 1.42910358897e-38
-0.0577467307445 0.0638655896313 0.203 1.38300577404e-38
-0.0581046689183 0.065124024895 0.207 1.34623542208e-38
-0.0592632582703 0.0673262866064 0.214 1.34623542208e-38
-0.0562716486914 0.0648094160791 0.206 1.27247891819e-38
-0.0554954880198 0.0648094160791 0.206 2.03009611773e-39
-0.0536568161376 0.0635509808154 0.202 1.93790048787e-39
-0.0526338665146 0.0632363719995 0.201 8.85257272761e-39
-0.0541993750536 0.0660678513428 0.21 1.39233323701e-38
-0.0541711167768 0.0670116777905 0.213 1.37389411104e-38
-0.0523663548268 0.0657532425268 0.209 1.36467454805e-38
-0.0510853129416 0.065124024895 0.207 1.39233323701e-38
-0.0500623633186 0.0648094160791 0.206 1.27247891819e-38
-0.0488076958252 0.0641801984473 0.204 2.58326989691e-39
-0.0511003840226 0.0682701130542 0.217 3.32083493582e-39
-0.050746213619 0.068899330686 0.219 1.14340503638e-38
-0.0471856707323 0.065124024895 0.207 1.41077236298e-38
-0.0464057422905 0.065124024895 0.207 1.37389411104e-38
-0.04474415561 0.0638655896313 0.203 1.41077236298e-38
-0.0439792982491 0.0638655896313 0.203 1.36467454805e-38
-0.0468333842139 0.0692139395019 0.22 1.33701585909e-38
-0.0460044747588 0.0692139395019 0.22 6.45548635117e-39
-0.0433274739958 0.0663824601587 0.211 7.83842079912e-39
-0.0421293230561 0.0657532425268 0.209 1.37389411104e-38
-0.0405506273212 0.0644948072632 0.205 1.34623542208e-38
-0.0401663147556 0.065124024895 0.207 1.37389411104e-38
-0.0430015618691 0.0711015923974 0.226 1.36467454805e-38
-0.0417770365377 0.0704723747656 0.224 1.27247891819e-38
-0.0387402137158 0.0666970689746 0.212 1.37389411104e-38
-0.0377624773358 0.0663824601587 0.211 1.24482050949e-38
-0.0369674778129 0.0663824601587 0.211 1.30935745039e-38
-0.0358296111973 0.0657532425268 0.209 1.47530958415e-38
-0.0380601311856 0.0714162012134 0.227 1.29091832442e-38
-0.0380243373682 0.072989245293 0.232 1.34623570234e-38
-0.0344280006641 0.0676408954224 0.215 1.34623570234e-38
-0.0333052051294 0.0670116777905 0.213 1.32779657637e-38
-0.0320448859806 0.0660678513428 0.21 1.34623570234e-38
-0.0311048273031 0.0657532425268 0.209 1.41999220623e-38
-0.033073487259 0.0717308100293 0.228 1.41077264324e-38
-0.0327796011795 0.072989245293 0.232 1.31857701338e-38
-0.0294300534268 0.0673262866064 0.214 1.31857701338e-38
-0.0278212155298 0.0654386337109 0.208 1.4384313322e-38
-0.026907531244 0.065124024895 0.207 1.12496619067e-38
-0.0260013824988 0.0648094160791 0.206 1.41999220623e-38
-0.0266946522249 0.0685847218701 0.218 1.36467482831e-38
-0.0267040716505 0.0707869835815 0.225 1.34623528195e-38
-0.0242474854472 0.0663824601587 0.211 1.31857659299e-38
-0.0235636351467 0.0666970689746 0.212 1.29091790403e-38
-0.0224427234972 0.0657532425268 0.209 1.4015528e-38
-0.0215516458329 0.0654386337109 0.208 9.40574650679e-39
-0.0213670250907 0.0673262866064 0.214 6.73207604336e-39
-0.0214254255295 0.0701577659497 0.223 1.07886837573e-38
-0.0197544194234 0.0673262866064 0.214 1.33698054637e-38
-0.0185054035854 0.0657532425268 0.209 1.30013760715e-38
-0.0178874892643 0.0663824601587 0.211 1.30013760715e-38
-0.0170114826811 0.0660678513428 0.21 1.30935717013e-38
-0.0162202509285 0.0660678513428 0.21 1.44765061493e-38
-0.0160167913349 0.0685847218701 0.218 6.36329072131e-39
-0.0148468986722 0.0670116777905 0.213 1.66131359828e-39
-0.0137146837119 0.0654386337109 0.208 5.6257256824e-39
-0.0131174921272 0.0663824601587 0.211 1.35545498506e-38
-0.0121472912877 0.0654386337109 0.208 1.30935717013e-38
-0.0114728604128 0.0660678513428 0.21 1.33701585909e-38
-0.0108342233554 0.0670116777905 0.213 1.33701585909e-38
-0.0098903969076 0.0660678513428 0.21 1.33701585909e-38
-0.00909916515499 0.0660678513428 0.21 5.07255190322e-39
-0.00834749499001 0.0663824601587 0.211 2.21448737746e-39
-0.00755249546716 0.0663824601587 0.211 1.66131359828e-39
-0.00669344385004 0.0657532425268 0.209 1.27247891819e-38
-0.00599075469832 0.0666970689746 0.212 1.32779615598e-38
-0.00524096841846 0.0673262866064 0.214 1.31857673312e-38
-0.0043932201121 0.0666970689746 0.212 1.30935717013e-38
-0.00362836275124 0.0673262866064 0.214 1.32779629611e-38
-0.00287480870114 0.0685847218701 0.218 7.93061923158e-39
-0.00201575708402 0.0673262866064 0.214 2.85950365929e-39
-0.00120945425041 0.0673262866064 0.214 1.84535173079e-39
-0.000403151416805 0.0673262866064 0.214 1.15258928664e-38
0.00040126753168 0.0670116777905 0.213 1.30013760715e-38
0.00121510590579 0.0676408954224 0.215 1.30013760715e-38
0.00213820961717 0.0714162012134 0.227 1.29091804416e-38
0.00288799589702 0.068899330686 0.219 1.28169848117e-38
0.00362836275124 0.0673262866064 0.214 1.23560066624e-38
0.00451755653037 0.0685847218701 0.218 2.49107426705e-39
0.00533893044498 0.0685847218701 0.218 1.20033544896e-39
0.00621682091335 0.0692139395019 0.22 9.68233339638e-39
0.0075261210754 0.0739330717407 0.235 1.24482022923e-38
0.00826837181475 0.072674636477 0.231 1.25403979221e-38
0.00874311086632 0.0695285483179 0.221 1.24482050949e-38
0.0095324587338 0.0692139395019 0.22 1.2356009465e-38
0.0103613681889 0.0692139395019 0.22 1.29088273144e-38
0.011190277644 0.0692139395019 0.22 7.65367641218e-39
0.0131118404718 0.0755061158203 0.24 5.3487856656e-39
0.0141329062097 0.0761353334521 0.242 1.09727190873e-38
0.013987847055 0.0707869835815 0.225 1.23567255285e-38
0.0145718514439 0.0695285483179 0.221 1.22645298987e-38
0.0155439361685 0.0701577659497 0.223 1.24485652286e-38
0.0164576204542 0.0704723747656 0.224 1.24485652286e-38
0.0190781046635 0.0777083775317 0.247 1.19875898819e-38
0.019927736855 0.0773937687158 0.246 1.29095461805e-38
0.0191591117239 0.0711015923974 0.226 1.24485680312e-38
0.0197449999978 0.0701577659497 0.223 1.26329592909e-38
0.0206775231348 0.0704723747656 0.224 1.25404007247e-38
0.0211371911054 0.0692139395019 0.22 1.30013788741e-38
0.0220659464721 0.0695285483179 0.221 1.22638138352e-38
0.0233130784251 0.0707869835815 0.225 1.25404007247e-38
0.0241608267314 0.0707869835815 0.225 1.2356009465e-38
0.0251197242602 0.0711015923974 0.226 1.21716182053e-38
0.0266607422926 0.072989245293 0.232 1.34623570234e-38
0.0373857003107 0.0991017770141 0.315 1.26325963546e-38
0.0442053644642 0.113573782546 0.361 1.2632593552e-38
0.0478374949857 0.119236741233 0.379 1.33701585909e-38
0.0504353725734 0.122068220576 0.388 1.07886809547e-38
0.0526998024939 0.123955873472 0.394 9.59014056912e-39
0.0545968748151 0.124899699919 0.397 1.25404007247e-38
0.0562339709889 0.125214308735 0.398 1.29091832442e-38
0.0581687210126 0.126158135183 0.401 1.30932185741e-38
0.0602749045826 0.127416570447 0.405 1.21712622755e-38
0.0624112303146 0.12867500571 0.409 1.30935745039e-38
0.0652031480703 0.131191876238 0.417 1.3738943913e-38
0.0677350896786 0.133079529133 0.423 8.3915973809e-39
0.0704761425359 0.135281790845 0.43 3.597424628e-39
0.0729346126243 0.136854834924 0.435 7.19305419267e-39
0.0756021939617 0.13874248782 0.441 1.33701613935e-38
0.0783149885421 0.140630140715 0.447 1.30013788741e-38
0.0816099036261 0.143461620059 0.456 1.30013788741e-38
0.085338112289 0.146922317034 0.467 1.28169848117e-38
0.0882166887604 0.148809969929 0.473 1.34623542208e-38
0.0905696612819 0.149753796377 0.476 8.85257272761e-39
0.0931392805927 0.151012231641 0.48 1.20033544896e-39
0.0951456182511 0.151326840457 0.481 1.01594418923e-39
0.09715949145 0.151641449272 0.482 1.07886809547e-38
0.0995915871467 0.15258527572 0.485 1.28169848117e-38
0.101418955718 0.15258527572 0.485 1.24482022923e-38
0.103672082328 0.153214493352 0.487 1.18946753859e-38
0.105073692861 0.15258527572 0.485 1.28166316845e-38
0.107782719671 0.153843710984 0.489 1.07883278275e-38
0.110521888643 0.155102146248 0.493 1.5687648412e-39
0.113063249677 0.156045972695 0.496 1.93754736065e-39
0.116090653074 0.157619016775 0.501 5.71756818505e-39
0.119155734173 0.159192060854 0.506 1.30010229443e-38
0.121779986152 0.160135887302 0.509 1.22634579053e-38
0.123940802391 0.160450496118 0.51 1.28169876143e-38
0.12610915417 0.160765104934 0.511 1.18028356858e-38
0.127282814603 0.159821278486 0.508 1.22638138352e-38
0.128688192906 0.159192060854 0.506 4.70377218636e-39
0.131110869177 0.159821278486 0.508 3.04425084882e-39
0.134072336594 0.16107971375 0.512 2.03009892033e-39
0.136798318371 0.162023540198 0.515 1.14340531664e-38
0.138469324477 0.161708931382 0.514 1.2356009465e-38
0.139586468356 0.160765104934 0.511 1.20794225754e-38
0.142065661181 0.161394322566 0.513 1.2356009465e-38
0.143717828436 0.16107971375 0.512 1.19872269456e-38
0.145931393458 0.161394322566 0.513 1.00511187184e-38
0.148728962869 0.162338149014 0.516 1.66131640087e-39
0.151257136707 0.162967366645 0.518 2.03009892033e-39
0.153208841697 0.162967366645 0.518 8.85257553021e-39
0.155160546686 0.162967366645 0.518 1.27247919845e-38
0.157112251676 0.162967366645 0.518 1.18028356858e-38
0.160292249768 0.164225801909 0.522 1.18950313157e-38
0.161637343747 0.163596584277 0.52 1.18950313157e-38
0.163596584277 0.163596584277 0.52 1.18950313157e-38
0.16619257798 0.164225801909 0.522 7.83842360172e-39
0.167837209694 0.163911193093 0.521 5.53353285513e-39
0.169474305868 0.163596584277 0.52 9.1291624198e-39
0.171763226295 0.163911193093 0.521 1.18950313157e-38
0.173059339261 0.163281975461 0.519 1.17110001897e-38
0.175352027459 0.163596584277 0.52 1.20797827091e-38
0.177993234405 0.164225801909 0.522 1.2171978339e-38
0.179960010475 0.164225801909 0.522 1.18953914494e-38
0.18122974905 0.163596584277 0.52 1.2171978339e-38
0.184245849135 0.164540410725 0.523 8.57634877433e-39
0.186928501554 0.165169628357 0.525 9.22171818337e-39
0.188906580935 0.165169628357 0.525 1.26329564883e-38
0.190521070487 0.164855019541 0.524 1.16184444261e-38
0.192495382099 0.164855019541 0.524 1.16184444261e-38
0.193356317601 0.163911193093 0.521 1.14340531664e-38
0.195319325902 0.163911193093 0.521 1.12496619067e-38
0.197660995112 0.164225801909 0.522 1.12496619067e-38
0.200010199863 0.164540410725 0.523 1.12496619067e-38
0.201208350803 0.163911193093 0.521 1.12496619067e-38
0.205121180208 0.165484237173 0.526 1.12496619067e-38
0.207496759351 0.165798845989 0.527 1.1802479756e-38
0.209084874512 0.165484237173 0.526 1.14336972366e-38
0.211066721664 0.165484237173 0.526 5.34806539818e-39
0.212643533513 0.165169628357 0.525 1.56804457379e-39
0.215439219039 0.165798845989 0.527 2.02830385699e-39
0.217424833961 0.165798845989 0.527 1.7517169674e-39
0.217745094433 0.164540410725 0.523 1.7517169674e-39
0.222236276571 0.166428063621 0.529 2.02830385699e-39
0.224229427034 0.166428063621 0.529 1.93610822713e-39
0.225367293649 0.165798845989 0.527 1.93610822713e-39
0.227352908571 0.165798845989 0.527 1.84391259727e-39
0.228903346029 0.165484237173 0.526 1.84391259727e-39
0.23176308365 0.166113454805 0.528 1.93610822713e-39
0.234195179346 0.166428063621 0.529 1.93610822713e-39
0.237081291358 0.167057281252 0.531 1.93610822713e-39
0.239081977361 0.167057281252 0.531 1.93610822713e-39
0.241082663364 0.167057281252 0.531 1.84391539986e-39
0.242167781196 0.166428063621 0.529 1.84391539986e-39
0.244160931659 0.166428063621 0.529 1.84391539986e-39
0.244758123244 0.165484237173 0.526 1.84391539986e-39
0.248147232584 0.166428063621 0.529 1.84391539986e-39
0.252504658879 0.1680011077 0.534 1.84391539986e-39
0.253086779382 0.167057281252 0.531 1.84391539986e-39
0.254126683972 0.166428063621 0.529 1.84391539986e-39
0.256119834434 0.166428063621 0.529 1.84391539986e-39
0.256649206154 0.165484237173 0.526 1.84391539986e-39
0.259122747324 0.165798845989 0.527 1.84391539986e-39
0.260612900458 0.165484237173 0.526 1.84391539986e-39
0.261097058935 0.164540410725 0.523 1.75171977e-39
0.261055613462 0.163281975461 0.519 1.75171977e-39
0.26402461642 0.163911193093 0.521 1.75171977e-39
0.267008690458 0.164540410725 0.523 1.75171977e-39
0.268979234299 0.164540410725 0.523 1.84391259727e-39
0.269395572912 0.163596584277 0.52 1.84391259727e-39
0.277616847598 0.167371890068 0.532 1.84391259727e-39
0.271737242122 0.16265275783 0.517 1.84391259727e-39
0.26786209042 0.159192060854 0.506 1.7517169674e-39
0.267636024205 0.157933625591 0.502 1.7517169674e-39
0.267916723088 0.156989799143 0.499 1.7517169674e-39
0.268715490382 0.156360581511 0.497 1.7517169674e-39
0.268954743792 0.155416755063 0.494 1.75171977e-39
0.270816022296 0.155416755063 0.494 1.75171977e-39
0.270469387433 0.1541583198 0.49 1.75171977e-39
0.266202387624 0.150697622825 0.479 1.75171977e-39
0.268007149574 0.150697622825 0.479 1.75171977e-39
0.270375193177 0.151012231641 0.48 1.75171977e-39
0.271049624052 0.150383014009 0.478 1.75171977e-39
0.273992252617 0.151012231641 0.48 1.75171977e-39
0.277524537227 0.151956058088 0.483 1.7517169674e-39
0.275874253858 0.150068405193 0.477 1.7517169674e-39
0.275925118756 0.149124578745 0.474 1.7517169674e-39
0.278296930129 0.149439187561 0.475 1.7517169674e-39
0.281265933086 0.150068405193 0.477 1.7517169674e-39
0.282469735681 0.149753796377 0.476 1.7517169674e-39
0.28545757749 0.150383014009 0.478 1.7517169674e-39
-0.12302146645 0.0655855767507 0.206 1.02344309783e-38
-0.122838729592 0.0659039533369 0.207 1.33690823937e-38
-0.123238113239 0.0665407065092 0.209 1.41988430625e-38
-0.122450649257 0.0665407065092 0.209 1.34612780236e-38
-0.121663185274 0.0665407065092 0.209 1.36456692833e-38
-0.121454074025 0.0668590830954 0.21 1.22627348353e-38
-0.121237427236 0.0671774596815 0.211 5.16367133586e-39
-0.11987161052 0.0668590830954 0.21 8.48271401094e-39
-0.117379230499 0.0659039533369 0.207 1.42910386923e-38
-0.116599302058 0.0659039533369 0.207 1.33690823937e-38
-0.11693840138 0.0665407065092 0.209 1.44754299521e-38
-0.117818175734 0.0674958362677 0.212 1.41988430625e-38
-0.116467430099 0.0671774596815 0.211 1.40144518027e-38
-0.116220641147 0.0674958362677 0.212 1.21705392055e-38
-0.114332988252 0.0668590830954 0.21 1.03266266082e-38
-0.112460406437 0.066222329923 0.208 1.45676227793e-38
-0.111676710225 0.066222329923 0.208 1.45676227793e-38
-0.110359874523 0.0659039533369 0.207 1.35534708508e-38
-0.110109317801 0.066222329923 0.208 1.410664463e-38
-0.110902433439 0.0671774596815 0.211 1.30002970716e-38
-0.111672942455 0.06813258944 0.214 1.43832315196e-38
-0.108794365984 0.0668590830954 0.21 1.41988402599e-38
-0.107488833592 0.0665407065092 0.209 1.410664463e-38
-0.107211902478 0.0668590830954 0.21 1.39222561729e-38
-0.10490037543 0.0659039533369 0.207 1.43832343222e-38
-0.105629438973 0.0668590830954 0.21 1.41988430625e-38
-0.105337436779 0.0671774596815 0.211 1.48442124715e-38
-0.104542437256 0.0671774596815 0.211 1.3830060543e-38
-0.102764049698 0.0665407065092 0.209 1.3830060543e-38
-0.10295243821 0.0671774596815 0.211 1.40144518027e-38
-0.102157438687 0.0671774596815 0.211 1.3830060543e-38
-0.100401657751 0.0665407065092 0.209 1.3553476456e-38
-0.0986609478948 0.0659039533369 0.207 1.40144546053e-38
-0.0959895987872 0.0646304469922 0.203 1.41066502352e-38
-0.0961629162187 0.0652672001645 0.205 1.42910414949e-38
-0.0967864821952 0.066222329923 0.208 1.32768895664e-38
-0.0950796822717 0.0655855767507 0.206 1.33690851963e-38
-0.0943035216001 0.0655855767507 0.206 1.34612808262e-38
-0.0930733446133 0.0652672001645 0.205 1.33690851963e-38
-0.092300951712 0.0652672001645 0.205 1.43832371248e-38
-0.09242152036 0.0659039533369 0.207 9.68126000176e-39
-0.0920843049226 0.066222329923 0.208 8.02173866422e-39
-0.0921784991788 0.0668590830954 0.21 1.41066502352e-38
-0.0900817350344 0.0659039533369 0.207 1.34612780236e-38
-0.0884389872052 0.0652672001645 0.205 1.30924955041e-38
-0.0880942362273 0.0655855767507 0.206 1.32768839612e-38
-0.088165823862 0.066222329923 0.208 1.31846883314e-38
-0.0865419148841 0.0655855767507 0.206 1.21705392055e-38
-0.0857657542124 0.0655855767507 0.206 2.76658495941e-39
-0.084164451856 0.0649488235784 0.204 3.59634562818e-39
-0.0842134328692 0.0655855767507 0.206 1.37378649132e-38
-0.0854624487073 0.0671774596815 0.211 1.28159086145e-38
-0.0830623790577 0.0659039533369 0.207 1.30002998742e-38
-0.081487451093 0.0652672001645 0.205 1.30924955041e-38
-0.0811087901828 0.0655855767507 0.206 1.30924955041e-38
-0.0799426652903 0.0652672001645 0.205 6.8231926734e-39
-0.082646040445 0.06813258944 0.214 3.043171849e-39
-0.0822221662918 0.0684509660262 0.215 1.84462866078e-39
-0.0791401302269 0.0665407065092 0.209 1.40144518027e-38
-0.0776028799647 0.0659039533369 0.207 1.36456692833e-38
-0.0764518261532 0.0655855767507 0.206 1.36456692833e-38
-0.0753083078821 0.0652672001645 0.205 1.30924955041e-38
-0.0781718132725 0.0684509660262 0.215 1.36456692833e-38
-0.0752028103151 0.0665407065092 0.209 3.87293251777e-39
-0.0733471834668 0.0655855767507 0.206 3.31975873859e-39
-0.073275595832 0.066222329923 0.208 4.24171503723e-39
-0.0717948621235 0.0655855767507 0.206 1.35534736534e-38
-0.0737767092753 0.06813258944 0.214 1.35534736534e-38
-0.0756982721031 0.0706796021294 0.222 1.34612780236e-38
-0.0718268881707 0.0678142128539 0.213 1.29081042444e-38
-0.0693571147715 0.066222329923 0.208 1.33690823937e-38
-0.0689030984563 0.0665407065092 0.209 4.24171503723e-39
-0.0681156344739 0.0665407065092 0.209 1.19925925174e-39
-0.0711939027686 0.0703612255432 0.221 6.45441015395e-39
-0.0687693426124 0.0687693426124 0.216 1.41066474326e-38
-0.0654386337109 0.066222329923 0.208 1.34612780236e-38
-0.0649657785445 0.0665407065092 0.209 1.39222561729e-38
-0.0629500214605 0.0652672001645 0.205 1.32768867638e-38
-0.0618743230539 0.0649488235784 0.204 1.33690823937e-38
-0.0670964526212 0.0713163553017 0.224 6.45548915377e-39
-0.063590542403 0.0684509660262 0.215 3.597424628e-39
-0.0607364564383 0.066222329923 0.208 1.13418575365e-38
-0.0593762913778 0.0655855767507 0.206 1.38311395428e-38
-0.0574622640906 0.064312070406 0.202 1.34623570234e-38
-0.059227464453 0.0671774596815 0.211 1.29091804416e-38
-0.0614787071776 0.0706796021294 0.222 1.37389411104e-38
-0.0573643020641 0.0668590830954 0.21 1.33701585909e-38
-0.0565730703115 0.0668590830954 0.21 1.18950285131e-38
-0.0552505829535 0.066222329923 0.208 1.21716154027e-38
-0.054205026709 0.0659039533369 0.207 1.41999192597e-38
-0.0572964821996 0.0706796021294 0.222 1.36467454805e-38
-0.0572230106797 0.0716347318879 0.225 1.33701585909e-38
-0.0536191384351 0.06813258944 0.214 1.48452886687e-38
-0.0520724687472 0.0671774596815 0.211 1.31857673312e-38
-0.0503053844997 0.0659039533369 0.207 1.39233323701e-38
-0.0488076958252 0.0649488235784 0.204 1.40158825285e-38
-0.0518068409446 0.0700428489571 0.22 1.47534475674e-38
-0.0512096493599 0.0703612255432 0.221 1.40155265987e-38
-0.0471856707323 0.0659039533369 0.207 1.35545484493e-38
-0.0464057422905 0.0659039533369 0.207 1.42921134883e-38
