VERSION .7
FIELDS x y z rgb
SIZE 4 4 4 4
TYPE F F F F
COUNT 1 1 1 1
WIDTH 850
HEIGHT 1
VIEWPOINT 0 0 0 1 0 0 0
POINTS 850
DATA ascii
0.0629311826092 -0.0703348511515 0.393 1.31857673312e-38
0.0645758143236 -0.0705138202384 0.394 1.29091804416e-38
0.0663956473546 -0.0708717584122 0.396 1.30013760715e-38
0.0680591179202 -0.0710507274991 0.397 1.30013760715e-38
0.0704309292929 -0.0719455729336 0.402 1.30013760715e-38
0.0739142328895 -0.0739142328895 0.413 1.30013760715e-38
0.0798560065745 -0.078209490975 0.437 1.30013760715e-38
0.109026083854 -0.102549286793 0.573 1.30013760715e-38
0.118170462252 -0.108992173922 0.609 1.30013760715e-38
0.124025577221 -0.112213617486 0.627 1.29091804416e-38
0.12739584771 -0.11310846292 0.632 1.28169848117e-38
0.131625169817 -0.114719184703 0.641 1.28169848117e-38
0.135294978041 -0.115792999224 0.647 1.27247891819e-38
0.138797120488 -0.116687844658 0.652 1.27247891819e-38
0.142336940639 -0.117582690093 0.657 1.27247891819e-38
0.14723692585 -0.119551350049 0.668 1.27247891819e-38
0.148184520068 -0.118298566441 0.661 1.27247891819e-38
0.150902966303 -0.118477535527 0.662 1.27247891819e-38
0.153397230209 -0.118477535527 0.662 1.2632593552e-38
0.154949551552 -0.11776165918 0.658 1.2632593552e-38
0.157189490966 -0.117582690093 0.657 1.25403979221e-38
0.160637000746 -0.118298566441 0.661 1.25404007247e-38
0.163374285833 -0.118477535527 0.662 1.25404007247e-38
0.164365209408 -0.117403721006 0.656 1.25404007247e-38
0.166328217709 -0.117045782832 0.654 1.25404007247e-38
0.170082800764 -0.117940628267 0.659 1.24482050949e-38
0.172303901326 -0.11776165918 0.658 1.24482050949e-38
0.174783094151 -0.11776165918 0.658 1.24482050949e-38
0.177801078122 -0.118119597354 0.66 1.24482050949e-38
0.180834133173 -0.118477535527 0.662 1.26325963546e-38
0.183328397079 -0.118477535527 0.662 1.21716182053e-38
0.187506854287 -0.119551350049 0.668 1.34623570234e-38
0.188316924891 -0.118477535527 0.662 1.08808793872e-38
0.19311706419 -0.119909288223 0.67 4.42718529677e-39
0.194765463675 -0.119372380962 0.667 3.597424628e-39
0.196982796467 -0.119193411875 0.666 5.16475033568e-39
0.200091206924 -0.119551350049 0.668 5.16475033568e-39
0.202911382956 -0.119730319136 0.669 5.07076244508e-39
0.204817874703 -0.119372380962 0.667 5.16295807494e-39
0.205776772232 -0.118477535527 0.662 4.97856681522e-39
0.208585644954 -0.118656504614 0.663 5.43954496453e-39
0.210446923457 -0.118298566441 0.661 4.97856681522e-39
0.213903852662 -0.118835473701 0.664 4.97856681522e-39
0.216405652109 -0.118835473701 0.664 4.97856681522e-39
0.218248091761 -0.118477535527 0.662 4.97856681522e-39
0.223076489337 -0.119730319136 0.669 5.07147850859e-39
0.227620420259 -0.120804133657 0.675 5.07147850859e-39
0.227776782725 -0.119551350049 0.668 4.97928287873e-39
0.230293653252 -0.119551350049 0.668 4.97928287873e-39
0.235250155016 -0.120804133657 0.675 4.97928287873e-39
0.238850259491 -0.121341040918 0.678 4.88708724887e-39
0.242472970587 -0.121877948179 0.681 4.70269598914e-39
0.245398644186 -0.122056917265 0.682 4.42610909955e-39
0.246150314351 -0.121162071831 0.677 6.91683023938e-39
0.247231664413 -0.120446195483 0.673 1.22652557713e-38
0.249396248422 -0.120267226396 0.672 1.46623393451e-38
0.25305286945 -0.120804133657 0.675 1.38329346062e-38
0.255974775279 -0.120983102744 0.676 1.36492608113e-38
0.257756930608 -0.12062516457 0.674 1.37414536385e-38
0.259910211306 -0.120446195483 0.673 1.35577812449e-38
0.265175670231 -0.121698979092 0.68 1.39265609618e-38
0.266556558028 -0.121162071831 0.677 1.41095172919e-38
0.26990233801 -0.121520010005 0.679 1.38329304023e-38
0.274065724137 -0.122235886352 0.683 1.39251260321e-38
0.275424005313 -0.121698979092 0.68 1.4017321662e-38
0.277986089083 -0.121698979092 0.68 1.39251260321e-38
0.280960743696 -0.121877948179 0.681 1.39251260321e-38
0.284775611074 -0.122414855439 0.684 1.39251260321e-38
0.287772872309 -0.122593824526 0.685 1.4017321662e-38
0.289929920777 -0.122414855439 0.684 1.41095172919e-38
0.292079433705 -0.122235886352 0.683 1.4017321662e-38
0.292927182011 -0.121520010005 0.679 1.41095172919e-38
0.297661385331 -0.122414855439 0.684 1.43861041814e-38
0.302433266353 -0.123309700874 0.689 1.45704954412e-38
0.303701121043 -0.122772793613 0.686 1.4017321662e-38
0.304053407561 -0.121877948179 0.681 1.24499959543e-38
0.308870501826 -0.122772793613 0.686 9.68412705842e-39
0.312363224849 -0.123130731787 0.688 8.75893656293e-39
0.310377609927 -0.121341040918 0.678 8.5745453032e-39
0.315239917435 -0.122235886352 0.683 8.94332922396e-39
0.316417345638 -0.121698979092 0.68 8.57490683821e-39
0.320386691597 -0.122235886352 0.683 8.57598864062e-39
0.326270064843 -0.123488669961 0.69 8.29976188474e-39
0.323626974013 -0.121520010005 0.679 8.29976468733e-39
0.327146071427 -0.121877948179 0.681 8.57635157692e-39
0.327775289058 -0.121162071831 0.677 8.75930090053e-39
0.33569325824 -0.123130731787 0.688 8.66710527067e-39
0.336318708101 -0.122414855439 0.684 8.5749096408e-39
0.338400401165 -0.122235886352 0.683 8.48271401094e-39
0.336480722222 -0.12062516457 0.674 7.8373446019e-39
0.344553169984 -0.122593824526 0.685 6.63880141367e-39
0.340546146322 -0.120267226396 0.672 5.44025822545e-39
0.35788354113 -0.125457329916 0.701 5.44025822545e-39
0.350753035931 -0.122056917265 0.682 5.62465228777e-39
0.353840723651 -0.122235886352 0.683 5.44026102805e-39
0.463320823821 -0.152302692951 0.851 5.25586976832e-39
0.476943197161 -0.155703105602 0.87 5.25586976832e-39
0.485166355733 -0.156240012863 0.873 5.25586976832e-39
0.486777077515 -0.155703105602 0.87 5.25586976832e-39
0.497940980767 -0.158208672819 0.884 5.25586976832e-39
0.501271689669 -0.158208672819 0.884 5.25586976832e-39
0.497181775062 -0.155882074689 0.871 5.25586976832e-39
0.501612672877 -0.156240012863 0.873 5.43954216194e-39
0.482924532434 -0.149439187561 0.835 5.16367413846e-39
0.492732038396 -0.150513002082 0.841 5.07219877601e-39
0.489414516691 -0.148544342127 0.83 4.70413512266e-39
0.501443123215 -0.15122887843 0.845 4.88852638239e-39
0.495071823722 -0.14836537304 0.829 4.79740975235e-39
-0.396535212245 -0.116333674255 0.664 1.28061583798e-38
-0.396407108057 -0.117034479521 0.668 1.28061583798e-38
-0.394479893573 -0.117209680838 0.669 1.28061583798e-38
-0.391959255276 -0.117209680838 0.669 1.25295714902e-38
-0.390602857986 -0.117560083471 0.671 1.25295714902e-38
-0.387496331414 -0.117384882155 0.67 1.25295714902e-38
-0.384971925346 -0.117384882155 0.67 1.25295714902e-38
-0.383589153664 -0.117735284788 0.672 1.23466221666e-38
-0.378789014365 -0.117034479521 0.668 1.21622309069e-38
-0.375145580533 -0.116684076888 0.666 1.20700380796e-38
-0.373195759428 -0.116859278205 0.667 1.20700380796e-38
-0.366236687776 -0.115457667672 0.659 1.20700380796e-38
-0.364305705522 -0.115632868988 0.66 1.20700408822e-38
-0.362367187728 -0.115808070305 0.661 1.20700408822e-38
-0.359332248792 -0.115632868988 0.66 1.19778452523e-38
-0.358467545519 -0.116158472938 0.663 1.20714800157e-38
-0.351137348497 -0.114581661088 0.654 1.20714800157e-38
-0.353471482167 -0.116158472938 0.663 1.19785655198e-38
-0.350444078771 -0.115983271622 0.662 1.19789214496e-38
-0.344796191165 -0.114932063722 0.656 1.19789214496e-38
-0.337106172084 -0.113180050555 0.646 1.22544293393e-38
-0.319130140219 -0.107924011056 0.616 1.23466221666e-38
-0.408959434646 -0.141387462536 0.807 1.21633127093e-38
-0.406924838711 -0.141737865169 0.809 1.21633127093e-38
-0.41985205844 -0.147344307302 0.841 1.20711170794e-38
-0.426097137631 -0.150673132318 0.86 1.19789214496e-38
-0.429740571463 -0.153125950751 0.874 1.18867258197e-38
-0.43474228647 -0.156104373134 0.891 1.17945301898e-38
-0.0970068967549 -0.0387194909794 0.221 9.95712522264e-39
-0.0957390420656 -0.0385442896628 0.22 1.3091776638e-38
-0.091458855061 -0.0371426791296 0.212 1.28159086145e-38
-0.0902324458444 -0.0369674778129 0.211 1.28159086145e-38
-0.088165823862 -0.036441873863 0.208 1.28159086145e-38
-0.086962021267 -0.0362666725463 0.207 1.20779904484e-38
-0.0878474472759 -0.0369674778129 0.211 1.32765336366e-38
-0.0866398769106 -0.0367922764963 0.21 1.26311642276e-38
-0.085848645158 -0.0367922764963 0.21 1.24467729679e-38
-0.0866775546131 -0.0374930817629 0.214 1.29077511172e-38
-0.0858712517795 -0.0374930817629 0.214 1.25389685977e-38
-0.0886424467987 -0.0390698936127 0.223 1.28155554873e-38
-0.0862273060681 -0.0383690883461 0.219 9.86529533168e-39
-0.0854021643833 -0.0383690883461 0.219 2.58184057248e-39
-0.0834184333464 -0.0378434843962 0.216 2.12086242316e-39
-0.0864288817765 -0.0395954975627 0.226 6.36186139687e-39
-0.0844413829694 -0.0390698936127 0.223 1.28159114171e-38
-0.0817267045039 -0.0381938870295 0.218 1.34612808262e-38
-0.0809053305893 -0.0381938870295 0.218 1.30924955041e-38
-0.0793492414758 -0.0378434843962 0.216 1.33690823937e-38
-0.0781718132725 -0.0376682830795 0.215 1.25393217249e-38
-0.0795206750222 -0.0387194909794 0.221 1.30002970716e-38
-0.0779758892195 -0.0383690883461 0.219 1.28159058119e-38
-0.0775030340531 -0.0385442896628 0.22 1.30002998742e-38
-0.0801593120797 -0.0402963028292 0.23 1.29081042444e-38
-0.0848087405688 -0.0430995238956 0.246 1.35534736534e-38
-0.0801310538028 -0.0411723094125 0.235 1.27237157873e-38
-0.0765479042946 -0.0397706988793 0.227 9.68126000176e-39
-0.0736919344447 -0.0387194909794 0.221 1.06032163004e-38
-0.0728592572193 -0.0387194909794 0.221 1.33690823937e-38
-0.072026579994 -0.0387194909794 0.221 1.33690823937e-38
-0.0721603358378 -0.0392450949294 0.224 1.25393217249e-38
-0.0713163553017 -0.0392450949294 0.224 3.78073688791e-39
-0.0711015923974 -0.0395954975627 0.226 1.84462866078e-39
-0.0752235330515 -0.042398718629 0.242 7.28417082272e-39
-0.0724692929984 -0.0413475107291 0.236 1.37378649132e-38
-0.0691536551779 -0.0399459001959 0.228 1.3184691134e-38
-0.067695528091 -0.0395954975627 0.226 1.36456692833e-38
-0.068027091873 -0.0402963028292 0.23 1.3184691134e-38
-0.0657004937433 -0.039420296246 0.225 1.35534736534e-38
-0.0654292142853 -0.0397706988793 0.227 1.33690823937e-38
-0.0651428637463 -0.0401211015126 0.229 1.35534736534e-38
-0.0654028398935 -0.0408219067792 0.233 1.39222561729e-38
-0.0667403983325 -0.0422235173124 0.241 1.37378649132e-38
-0.0641933856431 -0.0411723094125 0.235 1.10641916471e-38
-0.0616915861968 -0.0401211015126 0.229 2.7658660933e-39
-0.063485044836 -0.0418731146791 0.239 2.67438932955e-39
-0.0623226877138 -0.0416979133624 0.238 1.18939523159e-38
-0.0603935893455 -0.0409971080958 0.234 1.32768867638e-38
-0.0595119311069 -0.0409971080958 0.234 1.3738943913e-38
-0.0591313863116 -0.0413475107291 0.236 1.18028356858e-38
-0.0609568709979 -0.0432747252123 0.247 1.08808793872e-38
-0.058325083478 -0.0420483159957 0.24 1.37393040467e-38
-0.0571815652069 -0.0418731146791 0.239 1.24482050949e-38
-0.0581649532423 -0.0432747252123 0.247 1.34623570234e-38
-0.0567708782496 -0.042924322579 0.245 1.33701613935e-38
-0.0542521238372 -0.0416979133624 0.238 1.27247919845e-38
-0.0531312121876 -0.0415227120458 0.237 9.1291624198e-39
-0.0528994943172 -0.0420483159957 0.24 1.13418575365e-38
-0.0535117569829 -0.0432747252123 0.247 1.29091832442e-38
-0.0519424806736 -0.0427491212623 0.244 1.26325963546e-38
-0.0506049222347 -0.042398718629 0.242 1.07876047575e-38
-0.0527732740138 -0.0450267383788 0.257 2.21341118024e-39
-0.0514018056426 -0.0446763357455 0.255 5.16475033568e-39
-0.0488585607235 -0.0432747252123 0.247 1.28169876143e-38
-0.0477338813038 -0.0430995238956 0.246 1.28169876143e-38
-0.047948644208 -0.0441507317955 0.252 1.29095433779e-38
-0.0468126614775 -0.0439755304789 0.251 1.26329564883e-38
-0.0455014774303 -0.0436251278456 0.249 1.25407608585e-38
-0.0449212408118 -0.0439755304789 0.251 1.3184691134e-38
-0.0466035502286 -0.0466035502286 0.266 1.27237129847e-38
-0.0435441207852 -0.0445011344288 0.254 1.30924955041e-38
-0.0422517755893 -0.0441507317955 0.252 8.75930090053e-39
-0.041466195492 -0.0443259331122 0.253 1.19925925174e-39
-0.040352819383 -0.0441507317955 0.252 3.96512814764e-39
-0.0398724286761 -0.0446763357455 0.255 1.25393217249e-38
-0.0393694313476 -0.0452019396954 0.258 1.20783435756e-38
-0.038397346623 -0.0452019396954 0.258 1.30002970716e-38
-0.0377153802076 -0.0455523423287 0.26 1.30002970716e-38
-0.0365944685581 -0.0453771410121 0.259 1.30002998742e-38
-0.0358936632915 -0.0457275436454 0.261 1.29081042444e-38
-0.0347765194122 -0.0455523423287 0.26 1.23549304652e-38
-0.0340568752944 -0.045902744962 0.262 1.32768895664e-38
-0.0331959397922 -0.0460779462787 0.263 5.53245665791e-39
-0.03196011115 -0.0457275436454 0.261 1.2914576842e-39
-0.0312140926404 -0.0460779462787 0.263 1.02344309783e-38
-0.0305679200424 -0.0466035502286 0.266 1.23549304652e-38
-0.0295656931558 -0.0466035502286 0.266 1.3184691134e-38
-0.0286708477213 -0.0467787515453 0.267 1.1156387277e-38
-0.0272503983368 -0.0460779462787 0.263 1.24471260951e-38
-0.0264591665842 -0.046428348912 0.265 1.30924955041e-38
-0.0259410981748 -0.0473043554952 0.27 1.28159086145e-38
-0.0247391794649 -0.0469539528619 0.268 1.32768867638e-38
-0.0239950448404 -0.0474795568119 0.271 1.04199012379e-38
-0.0232283035944 -0.0480051607618 0.274 6.08670663431e-39
-0.0222769416062 -0.0481803620784 0.275 1.15262487962e-38
-0.0213180440774 -0.0483555633951 0.276 1.28169876143e-38
-0.0201311964485 -0.0480051607618 0.274 1.12496619067e-38
-0.0191685311495 -0.0481803620784 0.275 4.70377218636e-39
-0.0181323943306 -0.0481803620784 0.275 9.49794493926e-39
-0.0172827621391 -0.0487059660284 0.278 1.26325963546e-38
-0.0161769215706 -0.0485307647117 0.277 1.22638138352e-38
-0.0151332492112 -0.0485307647117 0.277 1.31857701338e-38
-0.0141913066486 -0.048881167345 0.279 1.22638138352e-38
-0.0131400987487 -0.048881167345 0.279 1.15262487962e-38
-0.0120888908488 -0.048881167345 0.279 1.25404007247e-38
-0.0110772445365 -0.0490563686617 0.28 1.30013788741e-38
-0.0101296503185 -0.0495819726116 0.283 4.24279403705e-39
-0.00909539738474 -0.0497571739283 0.284 8.31555732103e-40
-0.00796883407984 -0.049406771295 0.282 1.18028356858e-38
-0.00693081337582 -0.0495819726116 0.283 1.27247919845e-38
-0.00598887081319 -0.0506331805115 0.289 1.25404007247e-38
-0.00489998521079 -0.0506331805115 0.289 1.30935745039e-38
-0.00382428680427 -0.0508083818282 0.29 1.2356009465e-38
-0.00274105285725 -0.0509835831448 0.291 1.22638138352e-38
-0.00166723833585 -0.0516843884114 0.295 1.29091832442e-38
-0.0005519783417 -0.0513339857781 0.293 7.19305419267e-39
0.000553862226826 -0.0515091870948 0.294 9.23751361966e-40
0.00165028336973 -0.0511587844615 0.292 1.07886837573e-38
0.00277873055975 -0.0516843884114 0.295 1.2356009465e-38
0.00391659717541 -0.0520347910447 0.297 1.21716182053e-38
0.00503562493981 -0.0520347910447 0.297 1.05120968678e-38
0.00627898912248 -0.0530859989446 0.303 1.35545526532e-38
0.00737164249513 -0.0527355963113 0.301 1.19872269456e-38
0.00850574134054 -0.0527355963113 0.301 1.32779657637e-38
0.00963984018594 -0.0527355963113 0.301 1.03277028054e-38
0.0109529081182 -0.0536116028946 0.306 9.86672465611e-39
0.0120662842273 -0.0534364015779 0.305 1.28169848117e-38
0.0132154541537 -0.0534364015779 0.305 1.21716154027e-38
0.014694303977 -0.0546628107945 0.312 2.95205241636e-39
0.0162259025838 -0.055889220011 0.319 7.19305139008e-39
0.0172639232879 -0.0553636160611 0.316 1.31857673312e-38
0.0188049413203 -0.0564148239609 0.322 1.23560066624e-38
0.0213858639419 -0.0602692529272 0.344 1.41077236298e-38
0.0238028885576 -0.0632476753103 0.361 1.33701585909e-38
0.0260692023633 -0.0655252924267 0.374 1.28169848117e-38
0.0279191775563 -0.0665765003266 0.38 1.28169848117e-38
0.0293509302515 -0.0665765003266 0.38 4.70376938377e-39
0.0308636900071 -0.0667517016432 0.381 1.79366203434e-42
0.0324687601338 -0.0671021042765 0.383 1.23560066624e-38
0.0338232735389 -0.0669269029599 0.382 1.2632593552e-38
0.035539492888 -0.0674525069098 0.385 1.26329564883e-38
0.0371822407172 -0.0678029095431 0.387 1.31861302675e-38
0.0382409841576 -0.0671021042765 0.383 1.33705215272e-38
0.0399948812092 -0.0676277082265 0.386 1.29095433779e-38
0.0411270961695 -0.0671021042765 0.383 1.25407608585e-38
0.043014749065 -0.0678029095431 0.387 8.11537062501e-39
0.0445877931446 -0.0679781108598 0.388 1.25407608585e-38
0.0456936337131 -0.0674525069098 0.385 1.26329564883e-38
0.0471442252596 -0.0674525069098 0.385 4.6115765565e-39
0.0482161558958 -0.0669269029599 0.382 4.70377218636e-39
0.0500454083525 -0.0674525069098 0.385 1.30935745039e-38
0.0510947323672 -0.0669269029599 0.382 1.25404007247e-38
0.0530841150595 -0.0676277082265 0.386 1.3738943913e-38
0.0543971829918 -0.0674525069098 0.385 1.31857701338e-38
0.0557027153836 -0.0672773055932 0.384 1.2356009465e-38
0.0574471930096 -0.0676277082265 0.386 1.30935745039e-38
0.0598171204972 -0.0686789161264 0.392 1.30935717013e-38
0.0612940864354 -0.0686789161264 0.392 1.32779629611e-38
0.0622906616666 -0.0681533121764 0.389 1.30935717013e-38
0.0634285282823 -0.0678029095431 0.387 1.29091804416e-38
0.0658926500261 -0.068854117443 0.393 1.30013760715e-38
0.0670305166418 -0.0685037148097 0.391 1.30013760715e-38
0.0695549227096 -0.0695549227096 0.397 1.30013760715e-38
0.0721245420205 -0.0706061306095 0.403 1.30013760715e-38
0.0736429534314 -0.0706061306095 0.403 1.30013760715e-38
0.0766534018616 -0.0720077411427 0.411 1.30013760715e-38
0.0827684929782 -0.0762125727423 0.435 1.30013760715e-38
0.121953303584 -0.105996796573 0.605 1.29091804416e-38
0.128955704594 -0.110026426856 0.628 1.29091804416e-38
0.1334129768 -0.111778440022 0.638 1.28169848117e-38
0.138158483431 -0.113705654505 0.649 1.27247891819e-38
0.141470353481 -0.114406459772 0.653 1.27247891819e-38
0.144812365693 -0.115107265038 0.657 1.27247891819e-38
0.147736155408 -0.115457667672 0.659 1.27247891819e-38
0.149991165903 -0.115282466355 0.658 1.27247891819e-38
0.15386066595 -0.116333674255 0.664 1.27247891819e-38
0.154714065912 -0.115107265038 0.657 1.2632593552e-38
0.157189490966 -0.115107265038 0.657 1.2632593552e-38
0.160880021927 -0.115983271622 0.662 1.25404007247e-38
0.163621074784 -0.116158472938 0.663 1.25404007247e-38
0.163864095965 -0.114581661088 0.654 1.25404007247e-38
0.166836866693 -0.114932063722 0.656 1.25404007247e-38
0.170340893026 -0.115632868988 0.66 1.25404007247e-38
0.173875061521 -0.116333674255 0.664 1.25404007247e-38
0.175048721954 -0.115457667672 0.659 1.25404007247e-38
0.178339869268 -0.115983271622 0.662 1.25404007247e-38
0.182473113232 -0.117034479521 0.668 1.22638138352e-38
0.184436121533 -0.116684076888 0.666 1.22638138352e-38
0.185822660985 -0.115983271622 0.662 1.21716182053e-38
0.188885858199 -0.116333674255 0.664 1.30013788741e-38
0.19311706419 -0.117384882155 0.67 1.47530958415e-38
0.195641470258 -0.117384882155 0.67 1.07886837573e-38
0.198165876326 -0.117384882155 0.67 4.15059840718e-39
0.203086584273 -0.118786492688 0.678 3.41303336828e-39
0.205034521492 -0.118436090055 0.676 5.07076244508e-39
0.20635324108 -0.117735284788 0.672 5.43954496453e-39
0.208885182688 -0.117735284788 0.672 4.88637118535e-39
0.212360950745 -0.118260888738 0.675 5.34734933467e-39
0.212675559561 -0.117034479521 0.668 5.07076244508e-39
0.215514574444 -0.117209680838 0.669 5.07076244508e-39
0.220316597629 -0.118436090055 0.676 5.07076244508e-39
0.222533930421 -0.118260888738 0.675 5.07076244508e-39
0.225410623007 -0.118436090055 0.676 5.07147850859e-39
0.227620420259 -0.118260888738 0.675 5.16367413846e-39
0.229822681971 -0.118085687421 0.674 5.16367413846e-39
0.23063840423 -0.117209680838 0.669 4.97928287873e-39
0.237689786254 -0.119487297955 0.682 5.07147850859e-39
0.24131626512 -0.120012901904 0.685 5.07147850859e-39
0.243185079164 -0.119662499271 0.683 4.88708724887e-39
0.245398644186 -0.119487297955 0.682 4.61050035928e-39
0.249059032985 -0.120012901904 0.685 3.41268024106e-39
0.253109386004 -0.120713707171 0.689 3.87437725649e-39
0.252736376749 -0.119312096638 0.681 5.53389579143e-39
0.25605201457 -0.119662499271 0.683 1.04202613716e-38
0.25748941892 -0.119136895321 0.68 1.28187826777e-38
0.261198788732 -0.119662499271 0.683 1.40173244646e-38
0.26222739001 -0.118961694005 0.679 1.447902148e-38
0.264005777568 -0.118611291371 0.677 1.39258448982e-38
0.265769094046 -0.118260888738 0.675 1.39251260321e-38
0.267914839203 -0.118085687421 0.674 1.37407347724e-38
0.272460654011 -0.118961694005 0.679 1.38329304023e-38
0.276234075916 -0.119487297955 0.682 1.39251260321e-38
0.279212498299 -0.119662499271 0.683 1.39251260321e-38
0.280960743696 -0.119312096638 0.681 1.39251260321e-38
0.283526595236 -0.119312096638 0.681 1.39251260321e-38
0.288613085074 -0.120363304538 0.687 1.4017321662e-38
0.289929920777 -0.119837700588 0.684 1.41095172919e-38
0.292934717552 -0.120012901904 0.685 1.4017321662e-38
0.29508423048 -0.119837700588 0.684 1.41095172919e-38
0.299402095187 -0.120538505854 0.688 1.42939085516e-38
0.303750102056 -0.121239311121 0.692 1.49392779606e-38
0.305029260056 -0.120713707171 0.689 1.49392779606e-38
0.307178772984 -0.120538505854 0.688 1.47548867009e-38
0.309320750371 -0.120363304538 0.687 1.39251260321e-38
0.312363224849 -0.120538505854 0.688 1.18935879783e-38
0.312208746268 -0.119487297955 0.682 9.68161172768e-39
0.316163021146 -0.120012901904 0.685 8.29831994862e-39
0.319209263394 -0.120188103221 0.686 8.29831994862e-39
0.319917604201 -0.119487297955 0.682 8.57598864062e-39
0.32532435451 -0.120538505854 0.688 8.66818427049e-39
0.328869826316 -0.120888908488 0.69 8.57563271081e-39
0.333871541324 -0.121764915071 0.695 8.48415594706e-39
0.333101032307 -0.120538505854 0.688 8.75930090053e-39
0.334717405745 -0.120188103221 0.686 8.66710527067e-39
0.339268872208 -0.120888908488 0.69 8.5749096408e-39
0.342859557256 -0.121239311121 0.692 8.48271401094e-39
0.346964542944 -0.121764915071 0.695 8.39051838108e-39
0.346062161969 -0.120538505854 0.688 8.20612712135e-39
0.344093502013 -0.118961694005 0.679 7.46856208244e-39
0.355330876785 -0.121940116388 0.696 6.45441015395e-39
0.349724434653 -0.119136895321 0.68 5.25586976832e-39
0.357467202518 -0.120888908488 0.69 5.53245665791e-39
0.36111063635 -0.121239311121 0.692 5.53245665791e-39
0.360564309663 -0.120188103221 0.686 5.25586976832e-39
0.382735753703 -0.126670551937 0.723 5.34806539818e-39
0.488500832405 -0.154001957334 0.879 5.25586976832e-39
0.49572929963 -0.155228366551 0.886 5.25586976832e-39
0.497377699115 -0.154702762601 0.883 5.25586976832e-39
0.502405788514 -0.155228366551 0.886 5.25586976832e-39
0.493756871904 -0.151549138901 0.865 5.25586976832e-39
0.491560261848 -0.146993904668 0.839 4.98000314614e-39
0.500028325486 -0.148570716518 0.848 4.98000314614e-39
0.505597089916 -0.149271521785 0.852 4.88852638239e-39
0.490294291044 -0.143840280969 0.821 4.6119394928e-39
-0.39713240383 -0.114003308355 0.665 1.253065049e-38
-0.399374227129 -0.115374776726 0.673 1.253065049e-38
-0.393890237529 -0.114517608994 0.668 1.253065049e-38
-0.393716920098 -0.11520334318 0.672 1.26228461199e-38
-0.388856496475 -0.114517608994 0.668 1.26228461199e-38
-0.389231389614 -0.115374776726 0.673 1.26228461199e-38
-0.385546510309 -0.115031909633 0.671 1.26228461199e-38
-0.383589153664 -0.11520334318 0.672 1.23466221666e-38
-0.37765491552 -0.114174741901 0.666 1.21622309069e-38
-0.373455735576 -0.113660441262 0.663 1.20700380796e-38
-0.370398190017 -0.113489007716 0.662 1.20700380796e-38
-0.365680941664 -0.11280327353 0.658 1.19778424497e-38
-0.36375372718 -0.112974707077 0.659 1.20700408822e-38
-0.3629153983 -0.113489007716 0.662 1.20700408822e-38
-0.359876691593 -0.113317574169 0.661 1.20700408822e-38
-0.357386195457 -0.113317574169 0.661 1.17948931261e-38
-0.355432606582 -0.113489007716 0.662 1.1887088756e-38
-0.351338924205 -0.112974707077 0.659 1.19785655198e-38
-0.34832659189 -0.11280327353 0.658 1.20711170794e-38
-0.343744983265 -0.112117539345 0.654 1.19789214496e-38
-0.336062499724 -0.110403203881 0.644 1.22544293393e-38
-0.333117987274 -0.110231770334 0.643 1.23466221666e-38
-0.412506790337 -0.139546906768 0.814 1.21633099067e-38
-0.429559718491 -0.146404248624 0.854 1.21633099067e-38
-0.429836649604 -0.147604283449 0.861 1.21633099067e-38
-0.424610752267 -0.146918549263 0.857 1.22555055366e-38
-0.425315325304 -0.148290017635 0.865 1.21633099067e-38
-0.427423392759 -0.150175786645 0.876 1.1978918647e-38
-0.097445841989 -0.0380582473004 0.222 1.13400596706e-38
-0.0953038646016 -0.0375439466612 0.219 1.32761678977e-38
-0.091458855061 -0.0363439118365 0.212 1.3184691134e-38
-0.0893771619976 -0.0358296111973 0.209 1.29081042444e-38
-0.088165823862 -0.0356581776509 0.208 1.28159086145e-38
-0.0911630850963 -0.0372010795684 0.217 1.37378677157e-38
-0.09159449479 -0.0377153802076 0.22 1.26315201574e-38
-0.0874650185954 -0.0363439118365 0.212 1.30003026768e-38
-0.0854398420858 -0.0358296111973 0.209 1.22627376379e-38
-0.0850574134054 -0.0360010447437 0.21 1.20783463782e-38
-0.0842661816527 -0.0360010447437 0.21 1.28159114171e-38
-0.0838724496616 -0.0361724782901 0.211 1.26315201574e-38
-0.0834711821299 -0.0363439118365 0.212 1.30003026768e-38
-0.0838423074996 -0.0368582124757 0.215 8.20612992395e-39
-0.0834184333464 -0.0370296460221 0.216 6.27002169682e-39
-0.0875761678178 -0.0392582821252 0.229 1.06032163004e-38
-0.0867133484305 -0.0392582821252 0.229 1.30924983067e-38
-0.0828513839237 -0.037886813754 0.221 1.25393245275e-38
-0.0809053305893 -0.0373725131148 0.218 1.17095638588e-38
-0.0811860294729 -0.037886813754 0.221 3.78073969051e-39
-0.0803533522476 -0.037886813754 0.221 3.41195717106e-39
-0.0791608529633 -0.0377153802076 0.22 9.68126000176e-39
-0.0783319435082 -0.0377153802076 0.22 1.31846939366e-38
-0.0771507475346 -0.0375439466612 0.219 1.30002998742e-38
-0.0759770871016 -0.0373725131148 0.218 1.30924955041e-38
-0.0772242190545 -0.0384011143932 0.224 1.32768867638e-38
-0.0756982721031 -0.0380582473004 0.222 1.30002998742e-38
-0.0748618271075 -0.0380582473004 0.222 1.25393217249e-38
-0.0803608877881 -0.041315484682 0.241 1.37378649132e-38
-0.0827496541269 -0.043029820146 0.251 1.35534736534e-38
-0.075937525514 -0.0399440163108 0.233 1.3184691134e-38
-0.0731267689071 -0.0389154150324 0.227 1.40144518027e-38
-0.0709979787156 -0.0382296808468 0.223 6.08562763449e-39
-0.0698431571338 -0.0380582473004 0.222 2.21341118024e-39
-0.0705609173665 -0.0389154150324 0.227 5.34806259559e-39
-0.0697056335196 -0.0389154150324 0.227 1.41988430625e-38
-0.0679404331573 -0.0384011143932 0.224 1.30002998742e-38
-0.0709904431751 -0.0406297504964 0.237 1.39222561729e-38
-0.0745340310957 -0.0432012536924 0.252 1.03266266082e-38
-0.0686205156875 -0.0402868834036 0.235 1.03266266082e-38
-0.0657174487095 -0.0390868485788 0.228 1.41988430625e-38
-0.0642894637845 -0.038743981486 0.226 1.36456692833e-38
-0.0637186465916 -0.0389154150324 0.227 1.36456692833e-38
-0.0631402938581 -0.0390868485788 0.228 1.33690823937e-38
-0.0628275689273 -0.0394297156716 0.23 1.43832343222e-38
-0.0616915861968 -0.0392582821252 0.229 1.25404007247e-38
-0.0669382062706 -0.0432012536924 0.252 1.19872269456e-38
-0.0670361682971 -0.043886987878 0.256 1.39233351727e-38
-0.061167866132 -0.0406297504964 0.237 1.30935745039e-38
-0.0595119311069 -0.0401154498572 0.234 1.39222561729e-38
-0.0591313863116 -0.04045831695 0.236 3.68854125805e-39
-0.057995403581 -0.0402868834036 0.235 1.66023740106e-39
-0.056866956391 -0.0401154498572 0.234 7.8373446019e-39
-0.0571815652069 -0.0409726175892 0.239 1.3738943913e-38
-0.0591068958049 -0.043029820146 0.251 1.27247919845e-38
-0.0602466463057 -0.0445727220636 0.26 1.32779657637e-38
-0.0551639242378 -0.0414869182284 0.242 1.38311395428e-38
-0.0531312121876 -0.0406297504964 0.237 1.39233351727e-38
-0.0522382506383 -0.0406297504964 0.237 1.27247919845e-38
-0.0511286422995 -0.04045831695 0.236 1.32779657637e-38
-0.0506652065587 -0.0408011840428 0.238 1.28169876143e-38
-0.0508140334836 -0.0416583517748 0.243 1.23542115991e-38
-0.0523625870565 -0.0437155543316 0.255 3.13464861276e-39
-0.0534175627267 -0.0454298897956 0.265 9.22672362148e-40
-0.0490563686617 -0.0425155195068 0.248 1.1710640056e-38
-0.0477338813038 -0.042172652414 0.246 1.23563695987e-38
-0.048519461401 -0.0437155543316 0.255 1.3371600527e-38
-0.0464396522227 -0.0426869530532 0.249 1.17120791895e-38
-0.0453187405732 -0.0425155195068 0.248 1.23581674647e-38
-0.0449212408118 -0.043029820146 0.251 1.17095610562e-38
-0.045902744962 -0.0449155891564 0.262 1.28159086145e-38
-0.043886987878 -0.043886987878 0.256 1.27237129847e-38
-0.0424194413654 -0.0433726872388 0.253 1.26315173548e-38
-0.0426134815333 -0.0445727220636 0.26 6.27001889422e-39
-0.0411534705612 -0.0440584214244 0.257 6.36221452408e-39
-0.0394033412799 -0.0432012536924 0.252 1.24471260951e-38
-0.038759052567 -0.0435441207852 0.254 1.24471260951e-38
-0.0379508658483 -0.0437155543316 0.255 1.14329769692e-38
-0.0372802027437 -0.0440584214244 0.257 5.99343480723e-39
-0.0363118857893 -0.0440584214244 0.257 1.03266266082e-38
-0.0357561396774 -0.0445727220636 0.26 1.34612780236e-38
-0.0349102752561 -0.04474415561 0.261 1.29081042444e-38
-0.0339268872208 -0.04474415561 0.261 1.30924955041e-38
-0.0333221600955 -0.0452584562492 0.264 1.28159086145e-38
-0.0318376586168 -0.0445727220636 0.26 1.15251697964e-38
-0.0310954078775 -0.0449155891564 0.262 1.30002998742e-38
-0.0303380860571 -0.0452584562492 0.264 1.24471260951e-38
-0.0297879916006 -0.0459441904348 0.268 1.29081042444e-38
-0.0287782291734 -0.0459441904348 0.268 1.47584614133e-39
-0.0275612393825 -0.045601323342 0.266 2.85878058928e-39
-0.0266588584075 -0.0457727568884 0.267 1.28159086145e-38
-0.0259410981748 -0.0462870575276 0.27 1.27237129847e-38
-0.0247391794649 -0.0459441904348 0.268 1.26315173548e-38
-0.0239950448404 -0.046458491074 0.271 1.30935745039e-38
-0.0233130784251 -0.0471442252596 0.275 1.29091832442e-38
-0.0222769416062 -0.0471442252596 0.275 1.26325963546e-38
-0.0211635654971 -0.0469727917132 0.274 1.25404007247e-38
-0.0202781394883 -0.047315658806 0.276 1.18950313157e-38
-0.0192382348991 -0.047315658806 0.276 4.62773212649e-40
-0.0182642662894 -0.0474870923524 0.277 2.58327269951e-39
-0.0172827621391 -0.0476585258988 0.278 1.30935745039e-38
-0.0161769215706 -0.0474870923524 0.277 1.27247919845e-38
-0.0151332492112 -0.0474870923524 0.277 1.18950313157e-38
-0.0141913066486 -0.0478299594451 0.279 1.2356009465e-38
-0.0131400987487 -0.0478299594451 0.279 1.29091832442e-38
-0.0122188789224 -0.0483442600843 0.282 1.21716182053e-38
-0.0112750524747 -0.0488585607235 0.285 1.30013788741e-38
-0.0102012379533 -0.0488585607235 0.285 1.08808793872e-38
-0.00903134529048 -0.0483442600843 0.282 6.54768478363e-39
-0.00799709235672 -0.0485156936307 0.283 1.18950313157e-38
-0.00697979438908 -0.0488585607235 0.285 1.28169876143e-38
-0.00598887081319 -0.0495442949091 0.289 1.05120968678e-38
-0.00488303024467 -0.0493728613627 0.288 4.88816344609e-39
-0.00385066119603 -0.0500585955483 0.292 1.20794225754e-38
-0.00274105285725 -0.0498871620019 0.291 1.36467482831e-38
-0.00166723833585 -0.0505728961875 0.295 1.16184444261e-38
-0.000553862226826 -0.0504014626411 0.294 1.35545526532e-38
0.000550094456575 -0.0500585955483 0.292 1.2356009465e-38
0.00165028336973 -0.0500585955483 0.292 1.30013788741e-38
0.0027598917085 -0.0502300290947 0.293 1.28169876143e-38
0.00389022278366 -0.0505728961875 0.295 8.11501049131e-39
0.0049678050753 -0.0502300290947 0.293 8.31555732103e-40
0.00621682091335 -0.0514300639195 0.3 9.22135804967e-39
0.00739613300176 -0.0517729310123 0.302 1.26325963546e-38
0.00844922478678 -0.0512586303731 0.299 1.30935745039e-38
0.00954376204455 -0.0510871968267 0.298 1.33701585909e-38
0.0109171143009 -0.0522872316515 0.305 1.34623542208e-38
0.0120267226396 -0.0521157981051 0.304 1.20794197728e-38
0.0132154541537 -0.0522872316515 0.305 1.33701585909e-38
0.0146001097207 -0.0531443993835 0.31 5.53353005254e-39
0.0157681184984 -0.0531443993835 0.31 2.30668300732e-39
0.0168814946074 -0.0529729658371 0.309 1.32779629611e-38
0.0181041360537 -0.0531443993835 0.31 1.28169848117e-38
0.019582985877 -0.0540015671155 0.315 9.03696398734e-39
0.020769833506 -0.0540015671155 0.315 1.22638110326e-38
0.023071941129 -0.0567445038579 0.331 1.31857673312e-38
0.0267436332381 -0.062401810889 0.364 1.30013760715e-38
0.0288102552206 -0.0639447128066 0.373 1.30013760715e-38
0.0307826829467 -0.0651447476314 0.38 9.22135524707e-39
0.0326383097951 -0.0660019153634 0.385 1.32779629611e-38
0.0340003587406 -0.065830481817 0.384 1.2632593552e-38
0.0356318032591 -0.0661733489098 0.386 4.51974106034e-39
0.0371822407172 -0.0663447824562 0.387 2.76802409294e-39
0.0384406759809 -0.0660019153634 0.385 1.29095433779e-38
0.0400984948911 -0.0663447824562 0.387 1.25407608585e-38
0.0413418590738 -0.0660019153634 0.385 1.41080865661e-38
0.043014749065 -0.0663447824562 0.387 1.31861302675e-38
0.0444728761519 -0.0663447824562 0.387 1.30017390078e-38
0.0459310032389 -0.0663447824562 0.387 1.30939346376e-38
0.0471442252596 -0.0660019153634 0.385 9.95892308857e-39
0.048594816806 -0.0660019153634 0.385 2.49107706964e-39
0.0504353725734 -0.0665162160026 0.388 1.24482050949e-38
0.051362244055 -0.065830481817 0.384 1.2356009465e-38
0.0530841150595 -0.0661733489098 0.386 8.11501049131e-39
0.0543971829918 -0.0660019153634 0.385 9.86672745871e-39
0.0559928336929 -0.0661733489098 0.386 1.38311395428e-38
0.0575960199345 -0.0663447824562 0.387 1.26325963546e-38
0.059664525802 -0.0670305166418 0.391 1.27247891819e-38
0.0616068113662 -0.067544817281 0.394 1.22638110326e-38
0.0626109221379 -0.0670305166418 0.391 1.2632593552e-38
0.0640841203059 -0.0670305166418 0.391 1.30935717013e-38
0.0662279815784 -0.0677162508274 0.395 1.30013760715e-38
0.0672019501882 -0.0672019501882 0.392 1.30013760715e-38
0.0686789161264 -0.0672019501882 0.392 1.30013760715e-38
0.071229696586 -0.0682305514666 0.398 1.30013760715e-38
0.0725465322885 -0.0680591179202 0.397 1.30935717013e-38
0.0753478694698 -0.0692591527449 0.404 1.30935717013e-38
0.0780116830369 -0.0702877540233 0.41 1.30935717013e-38
0.0793624286717 -0.0701163204769 0.409 1.30935717013e-38
0.0874311086632 -0.0757736275081 0.442 1.30935717013e-38
0.119509904576 -0.0997743240039 0.582 1.30013760715e-38
0.128394306827 -0.105260197489 0.614 1.30013760715e-38
0.134752419125 -0.10851743487 0.633 1.29091804416e-38
0.140387119534 -0.111088938066 0.648 1.29091804416e-38
0.143930707455 -0.111946105798 0.653 1.29091804416e-38
0.147287790748 -0.112631839984 0.657 1.29091804416e-38
0.150219116003 -0.112974707077 0.659 1.28169848117e-38
0.153397230209 -0.113489007716 0.662 1.27247891819e-38
0.155185037193 -0.112974707077 0.659 1.27247891819e-38
0.157189490966 -0.112631839984 0.657 1.2632593552e-38
0.161123043108 -0.113660441262 0.663 1.25404007247e-38
0.163621074784 -0.113660441262 0.663 1.25404007247e-38
0.164866322852 -0.11280327353 0.658 1.25404007247e-38
0.167599840168 -0.112974707077 0.659 1.25404007247e-38
0.171373262074 -0.113831874809 0.664 1.25404007247e-38
0.173613201488 -0.113660441262 0.663 1.25404007247e-38
0.174517466348 -0.112631839984 0.657 1.25404007247e-38
0.178070473695 -0.113317574169 0.661 1.25404007247e-38
0.182199949889 -0.114346175448 0.667 1.21716182053e-38
0.184436121533 -0.114174741901 0.666 1.26325963546e-38
0.186384058752 -0.113831874809 0.664 1.27247919845e-38
0.188885858199 -0.113831874809 0.664 1.22638138352e-38
0.192828829766 -0.114689042541 0.669 1.21716182053e-38
0.19447346148 -0.114174741901 0.666 1.28169876143e-38
0.197870106361 -0.114689042541 0.669 1.28169876143e-38
0.202487508803 -0.115889077365 0.676 9.59014056912e-39
0.205641132503 -0.116231944458 0.678 4.79417555549e-39
0.207888607457 -0.116060510912 0.677 4.60978429576e-39
0.20950686478 -0.115546210273 0.674 6.2693056333e-39
0.212990168376 -0.116060510912 0.677 4.88637118535e-39
0.21522257225 -0.115889077365 0.676 5.07076244508e-39
0.219058162365 -0.116574811551 0.68 5.07076244508e-39
0.222597982515 -0.11708911219 0.683 5.07076244508e-39
0.225171369596 -0.11708911219 0.683 5.07076244508e-39
0.227744756677 -0.11708911219 0.683 5.07147850859e-39
0.229643712884 -0.116746245097 0.681 5.16367413846e-39
0.231527598009 -0.116403378005 0.679 5.16367413846e-39
0.236154419877 -0.117431979283 0.685 4.97928287873e-39
0.237689786254 -0.116917678644 0.682 5.16367413846e-39
0.24131626512 -0.117431979283 0.685 5.16367413846e-39
0.244965350607 -0.117946279922 0.688 5.07147850859e-39
0.247197754481 -0.117774846376 0.687 4.88708724887e-39
0.249786212643 -0.117774846376 0.687 5.34771367227e-39
0.253109386004 -0.118117713468 0.689 4.61014863336e-39
0.25162300064 -0.116231944458 0.678 3.96477782302e-39
0.25455244201 -0.116403378005 0.679 4.70341905915e-39
0.255974775279 -0.115889077365 0.676 8.02245893163e-39
0.260433931371 -0.116746245097 0.681 8.29940175103e-39
0.261841193559 -0.116231944458 0.678 9.77524789236e-39
0.264005777568 -0.116060510912 0.677 1.26333124181e-38
0.269312681966 -0.117260545736 0.684 1.37407347724e-38
0.271094837295 -0.116917678644 0.682 1.43861041814e-38
0.274065724137 -0.11708911219 0.683 1.36485391425e-38
0.277854217124 -0.117603412829 0.686 1.38329304023e-38
0.280438907516 -0.117603412829 0.686 1.39251260321e-38
0.283848739593 -0.117946279922 0.688 1.39251260321e-38
0.286024626912 -0.117774846376 0.687 1.39251260321e-38
0.290293510606 -0.118460580561 0.691 1.4017321662e-38
0.292897039849 -0.118460580561 0.691 1.41095172919e-38
0.294645285246 -0.118117713468 0.689 1.41095172919e-38
0.297672688642 -0.118289147015 0.69 1.42017129217e-38
0.303318692362 -0.11948918184 0.697 1.42017129217e-38
0.307261663929 -0.120003482479 0.7 1.4017321662e-38
0.307242825078 -0.1189748812 0.694 1.42939085516e-38
0.308518215308 -0.118460580561 0.691 1.44782998113e-38
0.311121744551 -0.118460580561 0.691 1.48470823308e-38
0.31599535537 -0.119317748293 0.696 1.52140697869e-38
0.316786587123 -0.118632014108 0.692 1.39233309688e-38
0.31893233228 -0.118460580561 0.691 1.21716154027e-38
0.322931820401 -0.1189748812 0.694 9.86672465611e-39
0.323201215974 -0.118117713468 0.689 8.48271401094e-39
0.328634340675 -0.119146314747 0.695 8.48271401094e-39
0.331252941 -0.119146314747 0.695 8.66710807326e-39
0.337234276272 -0.120346349572 0.702 8.85149933299e-39
0.337458458602 -0.11948918184 0.697 8.75930090053e-39
0.340084594467 -0.11948918184 0.697 8.66710527067e-39
0.343202424349 -0.119660615386 0.698 8.66710527067e-39
0.343355019044 -0.118803447654 0.693 8.66710527067e-39
0.346964542944 -0.119146314747 0.695 8.75930090053e-39
0.34908014594 -0.1189748812 0.694 8.85149653039e-39
0.350681448296 -0.118632014108 0.692 8.66710527067e-39
0.363499402689 -0.122060685036 0.712 8.20612712135e-39
0.360010447437 -0.120003482479 0.7 6.91539110586e-39
0.358503339336 -0.118632014108 0.692 5.90123917736e-39
0.36058880017 -0.118460580561 0.691 4.97928287873e-39
0.361615517563 -0.117946279922 0.688 5.16367413846e-39
0.367383973817 -0.1189748812 0.694 5.34806539818e-39
0.482973513447 -0.151032954377 0.881 5.25586976832e-39
0.486833594069 -0.150175786645 0.876 5.25586976832e-39
0.496288813513 -0.152061555655 0.887 5.25586976832e-39
0.50075738903 -0.152404422748 0.889 5.25586976832e-39
0.500137590823 -0.151204387923 0.882 5.25586976832e-39
0.505173215763 -0.151718688563 0.885 5.25586976832e-39
0.497015993171 -0.148290017635 0.865 4.98072201225e-39
0.502010172638 -0.148804318274 0.868 4.98072201225e-39
0.490168070741 -0.141604109325 0.826 4.61122062669e-39
0.483127992028 -0.138689739036 0.809 4.05804684751e-39
-0.397729595415 -0.111665406914 0.666 1.24391737263e-38
-0.3981873795 -0.112503735795 0.671 1.24391737263e-38
-0.395069549618 -0.112336070019 0.67 1.24391737263e-38
-0.394302808372 -0.112839067348 0.673 1.24391737263e-38
-0.392349219497 -0.113006733124 0.674 1.24391737263e-38
-0.390966447815 -0.113342064676 0.676 1.24391737263e-38
-0.388419435125 -0.113342064676 0.676 1.24391737263e-38
-0.384159970857 -0.112839067348 0.673 1.23466221666e-38
-0.379923113211 -0.112336070019 0.67 1.21622309069e-38
-0.377398707143 -0.112336070019 0.67 1.20700380796e-38
-0.37375527331 -0.112000738467 0.668 1.20700380796e-38
-0.367903926111 -0.11099474381 0.662 1.19778424497e-38
-0.369825488939 -0.112336070019 0.67 1.19778452523e-38
-0.365108240586 -0.111665406914 0.666 1.20700408822e-38
-0.360965577195 -0.111162409586 0.663 1.21622365121e-38
-0.361170920674 -0.112000738467 0.668 1.17948931261e-38
-0.358654050146 -0.112000738467 0.668 1.17948931261e-38
-0.352938342676 -0.11099474381 0.662 1.19785655198e-38
-0.350973450491 -0.111162409586 0.663 1.19789214496e-38
-0.342168171415 -0.109150420272 0.651 1.19789214496e-38
-0.329278629388 -0.105797104749 0.631 1.22544293393e-38
-0.433442405734 -0.14234824395 0.849 1.19789158444e-38
-0.436831515074 -0.144527899039 0.862 1.20711114742e-38
-0.441128657045 -0.147042885682 0.877 1.2255502734e-38
-0.435328174744 -0.146204556801 0.872 1.21633071041e-38
-0.424115290479 -0.143521904383 0.856 1.21633071041e-38
-0.419414997091 -0.143018907054 0.853 1.20711114742e-38
-0.0965114349669 -0.0365511392002 0.218 8.85041753058e-39
-0.0956900610523 -0.0365511392002 0.218 1.32761678977e-38
-0.092692799818 -0.0357128103195 0.213 1.31839722679e-38
-0.0905960356736 -0.0352098129911 0.21 1.29081042444e-38
-0.0893771619976 -0.0350421472149 0.209 1.29081042444e-38
-0.0894374463216 -0.0353774787672 0.211 1.22627348353e-38
-0.0924234042451 -0.0368864707525 0.22 7.37636645258e-39
-0.0936761878534 -0.0377247996333 0.225 6.08562763449e-39
-0.0866398769106 -0.0352098129911 0.21 9.40467030957e-39
-0.0850310390136 -0.0348744814388 0.208 1.28159086145e-38
-0.0858674840092 -0.0355451445433 0.212 1.29081042444e-38
-0.0882788569695 -0.0368864707525 0.22 1.29081042444e-38
-0.0846674491844 -0.0357128103195 0.213 1.24471260951e-38
-0.0830774501387 -0.0353774787672 0.211 1.30002998742e-38
-0.0822824506158 -0.0353774787672 0.211 1.26315145522e-38
-0.081487451093 -0.0353774787672 0.211 1.30924955041e-38
-0.081457308931 -0.0357128103195 0.213 1.30924955041e-38
-0.081412095688 -0.0360481418718 0.215 1.30003026768e-38
-0.0802271319442 -0.0358804760956 0.214 1.26315201574e-38
-0.0809053305893 -0.0365511392002 0.218 1.19857948185e-38
-0.0866963934643 -0.0395691231709 0.236 3.87257939056e-39
-0.0879887386603 -0.0405751178278 0.242 2.7662346348e-39
-0.0813197853168 -0.0378924654094 0.226 5.99307887742e-39
-0.0783319435082 -0.0368864707525 0.22 1.36453161561e-38
-0.0750370284241 -0.0357128103195 0.213 1.28159114171e-38
-0.0742344933608 -0.0357128103195 0.213 1.30003026768e-38
-0.0748109622091 -0.0363834734241 0.217 1.10641916471e-38
-0.073652372857 -0.0362158076479 0.216 1.12485801042e-38
-0.0731757499204 -0.0363834734241 0.217 1.39222533703e-38
-0.0733584867775 -0.0368864707525 0.22 1.36456664807e-38
-0.0738482969101 -0.0375571338571 0.224 1.29081042444e-38
-0.0717006678673 -0.0368864707525 0.22 1.36456692833e-38
-0.0718381914814 -0.037389468081 0.223 1.35534736534e-38
-0.0716347318879 -0.0377247996333 0.225 1.3830060543e-38
-0.0751915070044 -0.0400721204993 0.239 1.26315173548e-38
-0.0724259636405 -0.0390661258425 0.233 1.35534736534e-38
-0.0697056335196 -0.0380601311856 0.227 1.3830060543e-38
-0.0676371276521 -0.037389468081 0.223 1.36456692833e-38
-0.0673959903561 -0.0377247996333 0.225 1.32768867638e-38
-0.066252472085 -0.0375571338571 0.224 1.84462866078e-39
-0.0657004937433 -0.0377247996333 0.225 1.19925925174e-39
-0.0651409798611 -0.0378924654094 0.226 9.68125719916e-39
-0.0688409302471 -0.0405751178278 0.242 1.37378649132e-38
-0.0721396131015 -0.04309010447 0.257 1.35534736534e-38
-0.0659096049922 -0.0399044547232 0.238 1.34612780236e-38
-0.0631007322705 -0.0387307942902 0.231 1.35534736534e-38
-0.061152795051 -0.0380601311856 0.227 1.30017390078e-38
-0.0616256502174 -0.0388984600663 0.232 1.31861302675e-38
-0.0607515275193 -0.0388984600663 0.232 1.31857701338e-38
-0.0598774048212 -0.0388984600663 0.232 1.31857701338e-38
-0.059257606615 -0.0390661258425 0.233 1.41066474326e-38
-0.0648941909097 -0.0434254360223 0.259 7.65295334217e-39
-0.0609568709979 -0.0414134467085 0.247 2.95025735303e-39
-0.0575960199345 -0.039736788947 0.237 7.83662573579e-39
-0.0567030583851 -0.039736788947 0.237 1.31857701338e-38
-0.0560455824764 -0.0399044547232 0.238 1.32779657637e-38
-0.0551488531568 -0.0399044547232 0.238 1.19872269456e-38
-0.0542521238372 -0.0399044547232 0.238 7.74622797185e-39
-0.0535795768474 -0.0400721204993 0.239 1.1710640056e-38
-0.0586302728682 -0.0445990964553 0.266 1.36467482831e-38
-0.0548116377194 -0.0424194413654 0.253 1.25404007247e-38
-0.0517296016544 -0.0407427836039 0.243 1.31857701338e-38
-0.0499775884879 -0.0400721204993 0.239 1.41080865661e-38
-0.049693121834 -0.0405751178278 0.242 1.19875870793e-38
-0.0489828971418 -0.0407427836039 0.243 1.13422176702e-38
-0.0478695210328 -0.0405751178278 0.242 1.30935745039e-38
-0.0477338813038 -0.0412457809324 0.246 1.26325963546e-38
-0.0525151817517 -0.0462757542168 0.276 1.16184444261e-38
-0.0486777077515 -0.0437607675746 0.261 1.75243303092e-39
-0.0460496880018 -0.0422517755893 0.252 3.41195436846e-39
-0.0443843335511 -0.0415811124847 0.248 1.22627348353e-38
-0.0445011344288 -0.0425871071416 0.254 1.26315173548e-38
-0.0428583865996 -0.041916444037 0.25 1.21705392055e-38
-0.0424194413654 -0.0424194413654 0.253 1.25393217249e-38
-0.0429412775451 -0.0439284333507 0.262 1.29081042444e-38
-0.0435554240959 -0.0456050911122 0.272 1.19861479457e-38
-0.0403415160723 -0.0432577702462 0.258 1.24471260951e-38
-0.038759052567 -0.0425871071416 0.254 1.21705392055e-38
-0.0379508658483 -0.0427547729177 0.255 8.48236088373e-39
-0.0366999661251 -0.0424194413654 0.253 1.0145148648e-39
-0.0360293030205 -0.0427547729177 0.255 2.67439213215e-39
-0.0356186160632 -0.0434254360223 0.259 1.27237157873e-38
-0.0347765194122 -0.0435931017984 0.26 1.20783435756e-38
-0.034186863368 -0.0440960991269 0.263 1.25393189223e-38
-0.0333221600955 -0.044263764903 0.264 1.26315145522e-38
-0.0317152060837 -0.0434254360223 0.259 1.30924927015e-38
-0.0312140926404 -0.0440960991269 0.263 1.3184691134e-38
-0.0302231690645 -0.0440960991269 0.263 1.29081042444e-38
-0.0296768423782 -0.0447667622315 0.267 1.26315173548e-38
-0.0285634662691 -0.0445990964553 0.266 6.17782326436e-39
-0.0274576257006 -0.0444314306792 0.265 3.50414999832e-39
-0.0265590124959 -0.0445990964553 0.266 1.1801756686e-38
-0.0259410981748 -0.0452697595599 0.27 1.27237129847e-38
-0.0247391794649 -0.0449344280076 0.268 1.1801756686e-38
-0.0239950448404 -0.0454374253361 0.271 9.31355367953e-39
-0.0233130784251 -0.0461080884407 0.275 1.20794225754e-38
-0.0222769416062 -0.0461080884407 0.275 1.27247919845e-38
-0.021086326207 -0.0457727568884 0.273 1.28169876143e-38
-0.0202781394883 -0.0462757542168 0.276 1.39233351727e-38
-0.0193079386488 -0.046443419993 0.277 1.12496619067e-38
-0.0183961382481 -0.0467787515453 0.279 1.07886837573e-38
-0.0172827621391 -0.0466110857691 0.278 1.30935745039e-38
-0.0162353220095 -0.0466110857691 0.278 1.31857701338e-38
-0.0151878818798 -0.0466110857691 0.278 5.71792411486e-39
-0.0141913066486 -0.0467787515453 0.279 1.66131640087e-39
-0.0132342930049 -0.0471140830976 0.281 1.04199012379e-38
-0.0121755495645 -0.0471140830976 0.281 1.27247919845e-38
-0.0111563677118 -0.0472817488737 0.282 1.18028356858e-38
-0.0101654441359 -0.047617080426 0.284 1.30013788741e-38
-0.00909539738474 -0.047617080426 0.284 1.30013788741e-38
-0.00805360891047 -0.0477847462021 0.285 1.30013788741e-38
-0.00702877540233 -0.0481200777544 0.287 1.25404007247e-38
-0.00600959354957 -0.0486230750829 0.29 1.07886837573e-38
-0.00488303024467 -0.0482877435306 0.288 1.29253388142e-39
-0.00385066119603 -0.0489584066352 0.292 4.42718529677e-39
-0.00274105285725 -0.048790740859 0.291 1.30013788741e-38
-0.00166158668048 -0.0492937381875 0.294 1.36467482831e-38
-0.0005519783417 -0.0491260724113 0.293 1.24482050949e-38
0.00054821057145 -0.048790740859 0.291 1.21716182053e-38
0.00165028336973 -0.0489584066352 0.292 1.27247919845e-38
0.00276931113413 -0.0492937381875 0.294 1.28169876143e-38
0.00391659717541 -0.0497967355159 0.297 1.20794225754e-38
0.00500171500756 -0.0494614039636 0.295 4.98035907595e-39
0.00615465270421 -0.0497967355159 0.297 1.02355099782e-38
0.00732266148187 -0.0501320670682 0.299 1.30013788741e-38
0.00839270823302 -0.0497967355159 0.297 1.18028356858e-38
0.00947970995029 -0.0496290697398 0.296 4.42718249418e-39
