VERSION .7
FIELDS x y z rgb
SIZE 4 4 4 4
TYPE F F F F
COUNT 1 1 1 1
WIDTH 864
HEIGHT 1
VIEWPOINT 0 0 0 1 0 0 0
POINTS 864
DATA ascii
0.000331563782045 0.0434348554479 0.176 2.02974299052e-39
0.00100599465689 0.0439284333507 0.178 9.77453182885e-39
0.00163898005897 0.0429412775451 0.174 1.21705364029e-38
0.00218907451555 0.0409669659338 0.166 1.19861451432e-38
0.00281452437713 0.0409669659338 0.166 1.2262371899e-38
0.00341925150234 0.0407201769824 0.165 6.36149565797e-39
0.00421236714007 0.0424476996423 0.172 3.41124110754e-39
0.00497345673068 0.0434348554479 0.176 3.226493918e-39
0.00557253220051 0.0429412775451 0.174 7.19376885489e-39
0.00594177368506 0.0409669659338 0.166 1.19879416078e-38
0.00652766195902 0.0407201769824 0.165 1.21716154027e-38
0.00723600276611 0.0412137548852 0.167 1.20794197728e-38
0.00795941465421 0.0417073327881 0.169 1.07886809547e-38
0.00879962742008 0.0426944885937 0.173 5.34806259559e-39
0.00928755366752 0.0419541217395 0.17 3.87293251777e-39
0.00963607241569 0.0407201769824 0.165 6.36221452408e-39
0.0101955862979 0.040473388031 0.164 1.12496577028e-38
0.0108794365984 0.0407201769824 0.165 1.20794183715e-38
0.0115708224393 0.0409669659338 0.166 1.1987224143e-38
0.0123432153407 0.0414605438367 0.168 1.22627320327e-38
0.0129762007428 0.0414605438367 0.168 1.10641888445e-38
0.0135281790845 0.0412137548852 0.167 8.5749096408e-39
0.0141573967163 0.0412137548852 0.167 9.3117558136e-39
0.014875156949 0.0414605438367 0.168 1.15244509303e-38
0.01541583198 0.0412137548852 0.167 1.22638110326e-38
0.0160450496118 0.0412137548852 0.167 1.21716154027e-38
0.0166742672436 0.0412137548852 0.167 1.18028328832e-38
0.0171998711936 0.0409669659338 0.166 1.21716154027e-38
0.0179327025073 0.0412137548852 0.167 1.20794197728e-38
0.0185619201392 0.0412137548852 0.167 1.18028328832e-38
0.019191137771 0.0412137548852 0.167 1.20794197728e-38
0.0199390401657 0.0414605438367 0.168 1.1987224143e-38
0.0206944781009 0.0417073327881 0.169 1.20794197728e-38
0.0212050109699 0.0414605438367 0.168 1.21716154027e-38
0.021837996372 0.0414605438367 0.168 1.1987224143e-38
0.022604737618 0.0417073327881 0.169 1.18950285131e-38
0.0232414907903 0.0417073327881 0.169 1.23560066624e-38
0.024019535347 0.0419541217395 0.17 1.1987224143e-38
0.0246600562896 0.0419541217395 0.17 1.20794197728e-38
0.0251517503073 0.0417073327881 0.169 1.1987224143e-38
0.0256359087845 0.0414605438367 0.168 1.20794197728e-38
0.0262688941866 0.0414605438367 0.168 1.20794197728e-38
0.0269018795887 0.0414605438367 0.168 1.22638110326e-38
0.0275348649908 0.0414605438367 0.168 1.20794197728e-38
0.0293415108259 0.0431880664965 0.175 1.1987224143e-38
0.0305151712589 0.0439284333507 0.178 1.18950285131e-38
0.113845062004 0.153749516728 0.623 1.20797743013e-38
0.122720044829 0.162387130027 0.658 1.19872227417e-38
0.130907409584 0.169790798569 0.688 1.19872227417e-38
0.137574479042 0.174973366549 0.709 1.18950271118e-38
0.14341075516 0.178921989771 0.725 1.24482022923e-38
0.147150267134 0.180155934528 0.73 1.20794197728e-38
0.150722113331 0.181143090334 0.734 1.20794197728e-38
0.153487656695 0.181143090334 0.734 1.20794225754e-38
0.156466079078 0.181389879285 0.735 1.19875870793e-38
0.159018743423 0.181143090334 0.734 1.19872269456e-38
0.162665945025 0.18213024614 0.738 1.24471260951e-38
0.16656747112 0.183364190897 0.743 1.13407785367e-38
0.170734625017 0.184844924605 0.749 9.49686593944e-39
0.174946992157 0.186325658314 0.755 9.77345282903e-39
0.178733601259 0.187312814119 0.759 1.16184444261e-38
0.182071845701 0.187806392022 0.761 1.22641739689e-38
0.185668182405 0.188546758876 0.764 1.2356009465e-38
0.189780703633 0.189780703633 0.769 1.22627348353e-38
0.193680345843 0.190767859439 0.773 1.21698203394e-38
0.198881752673 0.192988960002 0.782 7.83626560208e-39
0.201570056747 0.19274217105 0.781 4.70161418673e-39
0.205036405378 0.193235748953 0.783 4.70197432043e-39
0.208517825089 0.193729326856 0.785 9.12808341998e-39
0.211475524736 0.193729326856 0.785 1.22638138352e-38
0.214979551069 0.194222904759 0.787 1.20801386389e-38
0.219329441823 0.195456849516 0.792 1.24482050949e-38
0.225681902465 0.198418316933 0.804 1.08790843239e-38
0.231271389632 0.200639417495 0.813 5.25335583888e-39
0.234911055694 0.201132995398 0.815 4.88457331942e-39
0.237105781865 0.200392628544 0.812 3.22684704522e-39
0.239869441344 0.200145839592 0.811 8.29940175103e-39
0.241127876607 0.198665105884 0.805 1.19879430091e-38
0.24537415368 0.19965226169 0.809 1.23560066624e-38
0.247808133261 0.199158683787 0.807 1.23549304652e-38
0.253024611173 0.200886206447 0.814 9.58834550579e-39
0.256720793789 0.201379784349 0.816 4.14808728033e-39
0.259795294313 0.201379784349 0.816 4.14808728033e-39
0.262547650481 0.201132995398 0.815 3.13465141535e-39
0.267247943869 0.202366940155 0.82 8.75930090053e-39
0.266051676814 0.199158683787 0.807 1.18028328832e-38
0.270426058075 0.200145839592 0.811 1.20794225754e-38
0.274493366061 0.200886206447 0.814 1.22627376379e-38
0.277219347837 0.200639417495 0.813 1.0510304607e-38
0.281316797984 0.201379784349 0.816 5.43882890102e-39
0.284391298509 0.201379784349 0.816 4.42467697252e-39
0.287113512515 0.201132995398 0.815 5.71613185412e-39
0.29516900531 0.204588040718 0.829 1.04188250407e-38
0.293254978023 0.201132995398 0.815 1.18028356858e-38
0.297416480265 0.201873362252 0.818 1.21716182053e-38
0.30049851633 0.201873362252 0.818 1.21705392055e-38
0.302838301655 0.201379784349 0.816 1.1893239055e-38
0.30366344334 0.199899050641 0.81 9.40323818254e-39
0.308608641794 0.201132995398 0.815 8.29689062418e-39
0.311296945868 0.200886206447 0.814 9.95713082784e-39
0.315136303753 0.201379784349 0.816 1.1801756686e-38
0.316650947394 0.200392628544 0.812 1.18950313157e-38
0.322466500775 0.202120151204 0.819 1.22638110326e-38
0.327539803418 0.203354095961 0.824 1.18950285131e-38
0.333453318826 0.205081618621 0.831 1.20794197728e-38
0.3357742653 0.204588040718 0.829 1.14340503638e-38
0.336444928405 0.203107307009 0.823 1.10652678443e-38
0.338720661636 0.202613729107 0.821 1.12496591041e-38
0.341397662399 0.202366940155 0.82 1.16184416235e-38
0.347007872302 0.203847673864 0.826 1.18950285131e-38
0.353934917908 0.206068774426 0.835 1.20794225754e-38
0.35494279645 0.204834829669 0.83 1.20794197728e-38
0.35720722637 0.204341251766 0.828 1.20794197728e-38
0.358586230282 0.203354095961 0.824 1.23552849937e-38
0.365641380076 0.205575196523 0.833 1.12478556329e-38
0.367009080677 0.204588040718 0.829 1.06932399176e-38
0.367007196792 0.202860518058 0.822 9.9538742102e-39
0.366952564123 0.201132995398 0.815 9.95243507668e-39
0.372747394768 0.202613729107 0.821 9.76839834547e-39
0.373094029632 0.201132995398 0.815 9.86059397533e-39
0.376626314241 0.201379784349 0.816 9.95278960519e-39
0.380631454018 0.201873362252 0.818 9.95278960519e-39
0.381368053102 0.200639417495 0.813 9.95278960519e-39
0.38774123648 0.202366940155 0.82 9.95278960519e-39
0.394167168643 0.204094462815 0.827 9.95278960519e-39
0.394400770398 0.202613729107 0.821 9.95278960519e-39
0.398462426728 0.203107307009 0.823 1.00446194962e-38
0.403027080387 0.203847673864 0.826 1.00446194962e-38
0.407614340667 0.204588040718 0.829 9.952784e-39
0.408755975053 0.203600884912 0.825 9.86058837014e-39
0.410366696835 0.202860518058 0.822 1.00449796299e-38
0.408433830696 0.200392628544 0.812 9.86166736995e-39
0.416560911127 0.202860518058 0.822 9.86166736995e-39
0.418636952535 0.202366940155 0.82 9.95386299982e-39
0.424298027336 0.203600884912 0.825 9.76911861288e-39
0.42999677984 0.204834829669 0.83 9.76911861288e-39
0.42947117589 0.203107307009 0.823 9.76911861288e-39
0.425739199457 0.199899050641 0.81 9.76911861288e-39
0.4298498368 0.200392628544 0.812 9.86131424274e-39
0.433442405734 0.200639417495 0.813 9.76911861288e-39
0.431673437601 0.198418316933 0.804 9.76911861288e-39
0.437946775068 0.199899050641 0.81 9.86131424274e-39
0.435009798158 0.197184372176 0.799 9.86131704534e-39
0.43473098316 0.195703638467 0.793 9.86131704534e-39
0.439926738335 0.196690794273 0.797 9.86131704534e-39
0.434593459546 0.192988960002 0.782 9.86131704534e-39
0.429706661531 0.189533914682 0.768 1.00457083051e-38
0.428094055863 0.187559603071 0.76 1.00457083051e-38
0.428689363563 0.186572447265 0.756 1.00457083051e-38
0.424687991557 0.183610979848 0.744 1.01379039349e-38
0.421170778028 0.180896301383 0.733 1.0230452692e-38
0.422197495421 0.180155934528 0.73 1.0230452692e-38
0.426694329215 0.180896301383 0.733 1.0230452692e-38
0.437658540644 0.184351346702 0.747 1.01382570621e-38
0.428090288093 0.179168778723 0.726 9.86167017255e-39
0.423704603522 0.176207311306 0.714 9.86167017255e-39
0.431172324158 0.178181622917 0.722 9.86167017255e-39
-0.095550653553 0.0400890754655 0.16 1.12485829068e-38
-0.0973215055708 0.0410913023521 0.164 1.15251697964e-38
-0.0961139352055 0.0408407456304 0.163 1.16173654263e-38
-0.0949139003807 0.0405901889088 0.162 1.14329741666e-38
-0.0937214010964 0.0403396321871 0.161 1.13407785367e-38
-0.0925364373526 0.0400890754655 0.16 1.12485829068e-38
-0.0936573490022 0.0408407456304 0.163 1.17095610562e-38
-0.0930432024513 0.0408407456304 0.163 1.15251669938e-38
-0.0907279076324 0.0400890754655 0.16 1.17095610562e-38
-0.0895617827398 0.0398385187438 0.159 1.05110206705e-38
-0.0884031933878 0.0395879620222 0.158 6.45441295654e-39
-0.0889193779121 0.0400890754655 0.16 7.37636925518e-39
-0.088316534672 0.0400890754655 0.16 1.03266294108e-38
-0.0866172702891 0.0395879620222 0.158 1.1801756686e-38
-0.0854775197883 0.0393374053005 0.157 1.13407757341e-38
-0.0854266548899 0.0395879620222 0.158 1.10641916471e-38
-0.0859051617117 0.0400890754655 0.16 3.87293251777e-39
-0.0853023184716 0.0400890754655 0.16 3.41195436846e-39
-0.0841701035114 0.0398385187438 0.159 5.90123637477e-39
-0.0835710280415 0.0398385187438 0.159 1.12485829068e-38
-0.0834937887514 0.0400890754655 0.16 1.12485829068e-38
-0.0834090139208 0.0403396321871 0.161 1.1156387277e-38
-0.0833167035496 0.0405901889088 0.162 5.71684511504e-39
-0.0816852590311 0.0400890754655 0.16 4.33248134266e-39
-0.0820959459884 0.0405901889088 0.162 3.41052224143e-39
-0.0814855672079 0.0405901889088 0.162 9.86565126149e-39
-0.0798767293109 0.0400890754655 0.16 1.18939523159e-38
-0.0792738860708 0.0400890754655 0.16 1.17095610562e-38
-0.078179348813 0.0398385187438 0.159 9.49686874203e-39
-0.079531978333 0.0408407456304 0.163 3.59491350115e-39
-0.0794019902593 0.0410913023521 0.164 3.13393815443e-39
-0.0754213409897 0.0393374053005 0.157 6.17782606695e-39
-0.0729233093136 0.0383351784139 0.153 1.13407813393e-38
-0.0728196956317 0.0385857351355 0.154 1.10641944497e-38
-0.0778685077674 0.0415924157954 0.166 1.17095638588e-38
-0.075847099028 0.0408407456304 0.163 8.48271681354e-39
-0.0733867450544 0.0398385187438 0.159 4.42610909955e-39
-0.0714143173282 0.0390868485788 0.156 5.34806539818e-39
-0.0712805614843 0.0393374053005 0.157 1.01422381511e-38
-0.0742910099145 0.0413418590738 0.165 1.14329741666e-38
-0.0718834047244 0.0403396321871 0.161 1.16173654263e-38
-0.0690632286919 0.0390868485788 0.156 1.14329741666e-38
-0.0684754565328 0.0390868485788 0.156 1.06032134978e-38
-0.0674525069098 0.0388362918572 0.155 9.03588779012e-39
-0.068162731602 0.0395879620222 0.158 1.01422353485e-38
-0.0658568562087 0.0385857351355 0.154 1.14329741666e-38
-0.064852745437 0.0383351784139 0.153 1.14329741666e-38
-0.0642762765886 0.0383351784139 0.153 1.16173654263e-38
-0.0636998077403 0.0383351784139 0.153 1.1801756686e-38
-0.0635359097344 0.0385857351355 0.154 1.1801756686e-38
-0.063364476188 0.0388362918572 0.155 1.19861479457e-38
-0.0623754364973 0.0385857351355 0.154 1.17095610562e-38
-0.0621964674104 0.0388362918572 0.155 1.1801756686e-38
-0.0616124630215 0.0388362918572 0.155 1.1801756686e-38
-0.0606347266415 0.0385857351355 0.154 1.1801756686e-38
-0.0608344184648 0.0390868485788 0.156 1.17095582536e-38
-0.059860449855 0.0388362918572 0.155 1.16184416235e-38
-0.0585115881054 0.0383351784139 0.153 1.16184416235e-38
-0.0590711019876 0.0390868485788 0.156 1.17106372534e-38
-0.0592331161083 0.0395879620222 0.158 1.15269648598e-38
-0.0578955576694 0.0390868485788 0.156 1.17113561195e-38
-0.0576751431097 0.0393374053005 0.157 1.18035517494e-38
-0.0563564235221 0.0388362918572 0.155 1.15280438596e-38
-0.0550527750154 0.0383351784139 0.153 1.18939523159e-38
-0.0576807947651 0.0405901889088 0.162 1.20783435756e-38
-0.0581272755398 0.0413418590738 0.165 1.18939523159e-38
-0.056460037204 0.0405901889088 0.162 1.19861479457e-38
-0.0530916506 0.0385857351355 0.154 1.19861479457e-38
-0.0514884643584 0.0378340649705 0.151 1.19861479457e-38
-0.0556405471745 0.0413418590738 0.165 1.19861479457e-38
-0.0573529987533 0.0430957561254 0.172 1.19861479457e-38
-0.0530784634041 0.0403396321871 0.161 1.21705392055e-38
-0.0508422917604 0.0390868485788 0.156 1.18939523159e-38
-0.0496102308885 0.0385857351355 0.154 1.26315173548e-38
-0.0518953835455 0.0408407456304 0.163 1.1801756686e-38
-0.0522250634424 0.0415924157954 0.166 1.19861479457e-38
-0.0497345673068 0.0400890754655 0.16 1.19861479457e-38
-0.047903430965 0.0390868485788 0.156 8.94369216026e-39
-0.047315658806 0.0390868485788 0.156 6.63880141367e-39
-0.0470274243818 0.0393374053005 0.157 7.92954023176e-39
-0.0482105042405 0.0408407456304 0.163 1.16173654263e-38
-0.0473043554952 0.0405901889088 0.162 1.1801756686e-38
-0.0452528045938 0.0393374053005 0.157 1.23549304652e-38
-0.0443767980106 0.0390868485788 0.156 1.17095610562e-38
-0.0437890258515 0.0390868485788 0.156 5.62464948518e-39
-0.0426473914656 0.0385857351355 0.154 2.85878058928e-39
-0.0423403181902 0.0388362918572 0.155 4.0573237775e-39
-0.0417563138013 0.0388362918572 0.155 1.02355071756e-38
-0.0411723094125 0.0388362918572 0.155 1.1987224143e-38
-0.0413738851209 0.0395879620222 0.158 1.22627348353e-38
-0.0397462083727 0.0385857351355 0.154 1.12485829068e-38
-0.039420296246 0.0388362918572 0.155 3.68782519453e-39
-0.0390868485788 0.0390868485788 0.156 4.60978149317e-39
-0.0384990764198 0.0390868485788 0.156 3.31904267508e-39
-0.0374252618984 0.0385857351355 0.154 9.40395424606e-39
-0.0368450252798 0.0385857351355 0.154 1.17106372534e-38
-0.0365002743019 0.0388362918572 0.155 1.18950285131e-38
-0.0363797056538 0.0393374053005 0.157 1.18010406225e-38
-0.0357881657245 0.0393374053005 0.157 4.42539023344e-39
-0.0349724434653 0.0390868485788 0.156 3.50343393481e-39
-0.0339438421869 0.0385857351355 0.154 3.41123830494e-39
-0.0335802523577 0.0388362918572 0.155 9.1291596172e-39
-0.0336348850263 0.0395879620222 0.158 1.25403979221e-38
-0.0328304660779 0.0393374053005 0.157 1.19879416078e-38
-0.0322389261485 0.0393374053005 0.157 1.20794197728e-38
-0.0306395076772 0.0380846216922 0.152 7.74443010592e-39
-0.0302646145373 0.0383351784139 0.153 3.87149758815e-39
-0.0312404670321 0.0403396321871 0.161 5.2544320361e-39
-0.0315852180101 0.0415924157954 0.166 1.01415164824e-38
-0.0296542357567 0.0398385187438 0.159 1.1987224143e-38
-0.0285069497154 0.0390868485788 0.156 1.17113547182e-38
-0.0277402084694 0.0388362918572 0.155 1.23549276626e-38
-0.0275066067139 0.0393374053005 0.157 1.1432971364e-38
-0.0293151364341 0.0428451994037 0.171 9.12808061739e-39
-0.0290061792736 0.043346312847 0.173 9.31247187711e-39
-0.0265514769554 0.0405901889088 0.162 1.11563844744e-38
-0.0256208377035 0.0400890754655 0.16 1.18017538834e-38
-0.0247052695326 0.0395879620222 0.158 1.18017538834e-38
-0.0257885034796 0.0423440859604 0.169 1.19861451432e-38
-0.0254494041571 0.0428451994037 0.171 1.17106372534e-38
-0.0242248788257 0.0418429725171 0.167 1.15262459937e-38
-0.0224653301187 0.0398385187438 0.159 1.13418547339e-38
-0.0217287310347 0.0395879620222 0.158 1.14340503638e-38
-0.0209996674912 0.0393374053005 0.157 1.14340503638e-38
-0.0211880560038 0.0408407456304 0.163 1.15262459937e-38
-0.0209525703631 0.0415924157954 0.166 1.15262459937e-38
-0.0195924053027 0.0400890754655 0.16 1.15262459937e-38
-0.0188708772997 0.0398385187438 0.159 1.10670615064e-38
-0.0180419678446 0.0393374053005 0.157 1.1343648396e-38
-0.0174504279153 0.0393374053005 0.157 1.1343648396e-38
-0.0170736508902 0.0398385187438 0.159 1.14358440258e-38
-0.0163709617385 0.0395879620222 0.158 1.15280396557e-38
-0.0156758081273 0.0393374053005 0.157 1.14358440258e-38
-0.0150842681979 0.0393374053005 0.157 1.14358440258e-38
-0.0144927282686 0.0393374053005 0.157 1.1343648396e-38
-0.0139897309402 0.0395879620222 0.158 1.16184416235e-38
-0.0134791980712 0.0398385187438 0.159 1.16184416235e-38
-0.0128801226014 0.0398385187438 0.159 1.16184416235e-38
-0.0122810471316 0.0398385187438 0.159 1.18028328832e-38
-0.0115350286219 0.0393374053005 0.157 1.17106372534e-38
-0.0109434886926 0.0393374053005 0.157 1.16184416235e-38
-0.0103519487633 0.0393374053005 0.157 1.16184416235e-38
-0.00988474525222 0.0398385187438 0.159 1.15262459937e-38
-0.00928566978239 0.0398385187438 0.159 1.16184402222e-38
-0.00874122698119 0.0400890754655 0.16 1.14340489625e-38
-0.00813838374111 0.0400890754655 0.16 1.19872227417e-38
-0.00744134624477 0.0395879620222 0.158 1.17106358521e-38
-0.00693269726095 0.0400890754655 0.16 1.18950271118e-38
-0.00636941560849 0.0403396321871 0.161 1.17106358521e-38
-0.00572701078078 0.0400890754655 0.16 1.11574620729e-38
-0.0051241675407 0.0400890754655 0.16 8.66818006659e-39
-0.00452132430062 0.0400890754655 0.16 8.3915945783e-39
-0.00394297156716 0.0403396321871 0.161 1.03277028054e-38
-0.00337780602959 0.0408407456304 0.163 1.23549276626e-38
-0.00279756941101 0.0413418590738 0.165 1.18939523159e-38
-0.00218907451555 0.0415924157954 0.166 1.22627348353e-38
-0.00155420522834 0.0413418590738 0.165 1.08798003874e-38
-0.000932523137002 0.0413418590738 0.165 4.61122062669e-39
-0.000312724930793 0.0415924157954 0.166 2.85950365929e-39
0.000320260471294 0.0425946426821 0.17 5.53317692532e-39
0.000977736380008 0.043346312847 0.173 1.08808793872e-38
0.00160130235647 0.0425946426821 0.17 1.2078340773e-38
0.00218907451555 0.0415924157954 0.166 1.19861451432e-38
0.00279756941101 0.0413418590738 0.165 1.21701762692e-38
0.00341925150234 0.0413418590738 0.165 5.34734372948e-39
0.0042368576467 0.043346312847 0.173 3.78002362699e-39
0.00502997328444 0.0445990964553 0.178 3.31868954787e-39
0.00554050615338 0.043346312847 0.173 6.9171819653e-39
0.00597756750244 0.0418429725171 0.167 1.22645284974e-38
0.00660678513428 0.0418429725171 0.167 1.17106372534e-38
0.00727933212399 0.0420935292387 0.168 1.20794197728e-38
0.00819490029487 0.0435968695687 0.174 8.85257272761e-39
0.00895222211522 0.044097983012 0.176 3.59634562818e-39
0.00945145167341 0.043346312847 0.173 3.87293251777e-39
0.00963607241569 0.0413418590738 0.165 3.68854125805e-39
0.0101955862979 0.0410913023521 0.164 1.09730708132e-38
0.0108794365984 0.0413418590738 0.165 1.19872227417e-38
0.0117799336882 0.0423440859604 0.169 1.18950285131e-38
0.0128575159799 0.0438474262904 0.175 1.18017538834e-38
0.0134396364836 0.0435968695687 0.174 5.99342920203e-39
0.0136091861449 0.0420935292387 0.168 3.31975873859e-39
0.0142421715469 0.0420935292387 0.168 3.7800180218e-39
0.014875156949 0.0420935292387 0.168 8.38979951497e-39
0.0156927630934 0.0425946426821 0.17 1.18950285131e-38
0.0165254403188 0.0430957561254 0.172 1.20794197728e-38
0.0169738049786 0.0425946426821 0.17 1.18028328832e-38
0.0171998711936 0.0415924157954 0.166 1.17106372534e-38
0.0178253210552 0.0415924157954 0.166 8.29939894843e-39
0.0184507709168 0.0415924157954 0.166 6.45548635117e-39
0.0190762207784 0.0415924157954 0.166 8.02281205884e-39
0.0201764096915 0.0425946426821 0.17 1.13418547339e-38
0.0208169306341 0.0425946426821 0.17 1.18950285131e-38
0.0212050109699 0.0420935292387 0.168 1.1987224143e-38
0.021837996372 0.0420935292387 0.168 1.20794197728e-38
0.0227384934619 0.0425946426821 0.17 1.22638110326e-38
0.0233790144044 0.0425946426821 0.17 1.15262459937e-38
0.0241608267314 0.0428451994037 0.171 1.10652678443e-38
0.0246600562896 0.0425946426821 0.17 1.15262459937e-38
0.0251517503073 0.0423440859604 0.169 1.1987224143e-38
0.0259410981748 0.0425946426821 0.17 1.1987224143e-38
0.0265816191174 0.0425946426821 0.17 1.18028328832e-38
0.0275424005313 0.0430957561254 0.172 1.20794197728e-38
0.0276987629967 0.0423440859604 0.169 1.22638110326e-38
0.0291738450497 0.0435968695687 0.174 1.21716154027e-38
0.0306866048053 0.044849653177 0.179 1.23560066624e-38
0.114210535719 0.156597951037 0.625 1.21719699312e-38
0.123093054084 0.165367436295 0.66 1.20794183715e-38
0.130526864789 0.171881911058 0.686 1.19872227417e-38
0.136604278203 0.176391932048 0.704 1.20794183715e-38
0.142026099593 0.179899726151 0.718 1.18028328832e-38
0.146545540009 0.182154736646 0.727 1.18950285131e-38
0.15092745681 0.184159190419 0.735 1.1987224143e-38
0.15453321294 0.185161417306 0.739 1.20794225754e-38
0.156678958097 0.184409747141 0.736 1.20794197728e-38
0.158585449844 0.183407520255 0.732 1.19879430091e-38
0.161563872227 0.183658076976 0.733 1.18035517494e-38
0.16656747112 0.186163644193 0.743 1.20801386389e-38
0.170962575117 0.187917541244 0.75 1.21723342688e-38
0.175178710027 0.189420881574 0.756 1.22645298987e-38
0.178027144337 0.189420881574 0.756 1.22645298987e-38
0.182550352523 0.191174778626 0.763 1.22638110326e-38
0.184939118861 0.190673665183 0.761 1.19875870793e-38
0.188299969925 0.191174778626 0.763 1.2356009465e-38
0.193429789121 0.193429789121 0.772 1.25393217249e-38
0.197864454706 0.194933129451 0.778 1.16166465602e-38
0.201828149009 0.195935356337 0.782 1.1063472781e-38
0.204774545345 0.195935356337 0.782 1.05110178679e-38
0.207189686076 0.195434242894 0.78 1.21716182053e-38
0.21093673359 0.196185913059 0.783 1.20797827091e-38
0.215799041098 0.197939810111 0.79 1.2448200891e-38
0.21905251071 0.198190366832 0.791 1.23560066624e-38
0.225681902465 0.201447604214 0.804 1.22627348353e-38
0.230702456324 0.203201501266 0.811 8.11393429408e-39
0.234046352421 0.203452057987 0.812 5.53245665791e-39
0.237105781865 0.203452057987 0.812 5.71684511504e-39
0.23898213145 0.202449831101 0.808 1.04198984353e-38
0.239330650198 0.200194820606 0.799 1.21716140014e-38
0.242644404133 0.200445377327 0.8 1.20794197728e-38
0.245044473783 0.199944263884 0.798 1.21705392055e-38
0.251781246991 0.202950944544 0.81 1.04181061746e-38
0.256091576157 0.203953171431 0.814 4.88565231924e-39
0.258840164555 0.203702614709 0.813 4.42467416992e-39
0.261259073056 0.203201501266 0.811 3.50343393481e-39
0.265944295362 0.204454284874 0.816 9.22027904985e-39
0.267700076299 0.203452057987 0.812 1.18028328832e-38
0.27109295341 0.203702614709 0.813 1.19868710158e-38
0.273481719748 0.203201501266 0.811 1.21701860783e-38
0.277560331045 0.203953171431 0.814 9.86457926816e-39
0.279248292117 0.202950944544 0.81 4.23992838169e-39
0.284391298509 0.204454284874 0.816 4.23992838169e-39
0.287113512515 0.204203728152 0.815 3.31868954787e-39
0.290540299558 0.204454284874 0.816 8.75894777332e-39
0.293974622141 0.204704841596 0.817 1.17102841262e-38
0.296689300606 0.204454284874 0.816 1.18950313157e-38
0.297192297935 0.202700387822 0.809 1.25393217249e-38
0.299869298698 0.202449831101 0.808 1.00493264577e-38
0.30403833648 0.203201501266 0.811 4.79345668938e-39
0.307472659063 0.203452057987 0.812 4.33247854006e-39
0.309767231146 0.202950944544 0.81 5.25515370481e-39
0.314363910852 0.203953171431 0.814 9.86564845889e-39
0.315871018952 0.202950944544 0.81 1.20794225754e-38
0.320891572811 0.204203728152 0.815 1.18950285131e-38
0.325949804372 0.205456511761 0.82 1.18028328832e-38
0.330644446104 0.206458738647 0.824 1.12496591041e-38
0.3357742653 0.207711522255 0.829 8.11500768871e-39
0.33562732226 0.205707068482 0.821 7.19305139008e-39
0.337895519951 0.205205955039 0.819 8.76037709775e-39
0.339315969336 0.204203728152 0.815 1.12496591041e-38
0.342806808473 0.204454284874 0.816 1.18028328832e-38
0.348000679763 0.205707068482 0.821 1.20794197728e-38
0.351949302986 0.206208181926 0.823 1.19879416078e-38
0.353755948821 0.205456511761 0.82 1.20794183715e-38
0.358151052818 0.206208181926 0.823 1.21716140014e-38
0.363446653905 0.207460965534 0.828 1.11560201368e-38
0.36435280265 0.206208181926 0.823 1.06014072241e-38
0.367453677567 0.206208181926 0.823 9.95459587891e-39
0.369654055393 0.205707068482 0.821 9.76876688696e-39
0.376833541605 0.207962078977 0.83 9.95243367538e-39
0.374467381888 0.204955398317 0.818 1.00446293052e-38
0.377549417953 0.204955398317 0.818 1.01368249351e-38
0.388076568033 0.208964305864 0.834 1.01368249351e-38
0.382306227894 0.204203728152 0.815 1.01368249351e-38
0.386795526148 0.204955398317 0.818 1.01368249351e-38
0.391784053959 0.205957625204 0.822 1.01368249351e-38
0.394881161105 0.205957625204 0.822 1.01368249351e-38
0.397009951297 0.205456511761 0.82 1.02290107559e-38
0.42156827779 0.216481007514 0.864 1.02290107559e-38
0.417448221021 0.212722656689 0.849 1.01371752597e-38
0.413215131144 0.208964305864 0.834 1.00449796299e-38
0.409368237718 0.205456511761 0.82 1.01371752597e-38
0.408433830696 0.203452057987 0.812 9.95386299982e-39
0.415547380929 0.205456511761 0.82 9.95386299982e-39
0.421700149748 0.20695985209 0.826 1.00460586297e-38
0.42172652414 0.205456511761 0.82 1.00460614323e-38
0.425852232564 0.205957625204 0.822 1.00460614323e-38
0.424252814093 0.203702614709 0.813 1.00460614323e-38
0.420483159957 0.200445377327 0.8 1.00460614323e-38
0.419791774116 0.198691480276 0.793 1.00460614323e-38
0.421180197454 0.197939810111 0.79 9.95386580241e-39
0.432210344862 0.201698160936 0.805 9.95386580241e-39
0.437946775068 0.202950944544 0.81 1.00460614323e-38
0.436098683761 0.200695934049 0.801 1.01379039349e-38
0.433634562017 0.198190366832 0.791 1.01379039349e-38
0.43164706321 0.195935356337 0.782 1.00457083051e-38
0.435149205657 0.196185913059 0.783 1.00457083051e-38
0.434182772588 0.194432016008 0.776 1.02300995648e-38
0.426404210906 0.189671438296 0.757 1.02300995648e-38
0.431524610676 0.190673665183 0.761 1.03222951947e-38
0.422975539978 0.185662530749 0.741 1.03222951947e-38
0.417723268249 0.182154736646 0.727 1.0230452692e-38
0.420462437221 0.182154736646 0.727 1.0230452692e-38
0.42902281123 0.184660303863 0.737 1.01382570621e-38
0.422425445521 0.180651396316 0.721 1.00460614323e-38
0.424298027336 0.179148055986 0.715 9.95386580241e-39
0.406687469185 0.17062912745 0.681 9.95386580241e-39
-0.0985366114766 0.0419635411651 0.165 1.16173626237e-38
-0.100288624643 0.0429808391327 0.169 1.15251669938e-38
-0.0972932472939 0.0419635411651 0.165 1.12485801042e-38
-0.0954997886547 0.0414548921813 0.163 1.09719932147e-38
-0.0948856421038 0.0414548921813 0.163 1.11563844744e-38
-0.0977416119537 0.0429808391327 0.169 1.13407757341e-38
-0.0948065189286 0.0419635411651 0.165 1.13407757341e-38
-0.0930432024513 0.0414548921813 0.163 1.12485857094e-38
-0.089593808787 0.0401832697217 0.158 1.12485829068e-38
-0.0884352194349 0.0399289452298 0.157 1.16173654263e-38
-0.0900817350344 0.0409462431975 0.161 1.14329741666e-38
-0.0889193779121 0.0406919187056 0.16 1.16173654263e-38
-0.088316534672 0.0406919187056 0.16 1.15251697964e-38
-0.0860690597176 0.0399289452298 0.157 1.1156387277e-38
-0.0860219625895 0.0401832697217 0.158 1.1525172599e-38
-0.0859673299209 0.0404375942136 0.159 1.17095610562e-38
-0.0864420689724 0.0409462431975 0.161 9.77345282903e-39
-0.0847691789812 0.0404375942136 0.159 9.03588779012e-39
-0.083111360071 0.0399289452298 0.157 1.1156387277e-38
-0.0825198201416 0.0399289452298 0.157 1.14329741666e-38
-0.082450116392 0.0401832697217 0.158 1.14329741666e-38
-0.0828909455113 0.0406919187056 0.16 1.12485829068e-38
-0.0828024029104 0.0409462431975 0.161 6.73099704354e-39
-0.0816852590311 0.0406919187056 0.16 3.59491630375e-39
-0.0815891808898 0.0409462431975 0.161 5.43882609842e-39
-0.080479572551 0.0406919187056 0.16 1.04188250407e-38
-0.0798767293109 0.0406919187056 0.16 1.17095638588e-38
-0.0792738860708 0.0406919187056 0.16 1.19861507483e-38
-0.078179348813 0.0404375942136 0.159 8.75930370313e-39
-0.0775802733432 0.0404375942136 0.159 3.2261309817e-39
-0.0764970393962 0.0401832697217 0.158 3.9636988232e-39
-0.0749409502827 0.0396746207379 0.156 7.00758673572e-39
-0.0748298010603 0.0399289452298 0.157 1.18017594886e-38
-0.0737654059646 0.0396746207379 0.156 1.10641944497e-38
-0.0764612455788 0.0414548921813 0.163 1.07876075601e-38
-0.0739858205242 0.0404375942136 0.159 3.87293532037e-39
-0.0729251931987 0.0401832697217 0.158 3.41195717106e-39
-0.0704987491574 0.0391659717541 0.154 3.78073969051e-39
-0.0721885941147 0.0404375942136 0.159 9.49686874203e-39
-0.0760920040943 0.0429808391327 0.169 1.1156387277e-38
-0.0718834047244 0.0409462431975 0.161 1.14329741666e-38
-0.0686205156875 0.039420296246 0.155 9.86564845889e-39
-0.0680365112987 0.039420296246 0.155 4.79488881641e-39
-0.0700635716934 0.0409462431975 0.161 3.41195436846e-39
-0.0716140091515 0.042217865657 0.166 6.27001889422e-39
-0.0675674239025 0.0401832697217 0.158 1.14329741666e-38
-0.064852745437 0.0389116472622 0.153 1.14329741666e-38
-0.0638561702057 0.0386573227703 0.152 1.16173654263e-38
-0.062867130515 0.0384029982784 0.151 1.13407785367e-38
-0.0639484805768 0.039420296246 0.155 7.92954023176e-39
-0.0641820823324 0.0399289452298 0.157 7.28417082272e-39
-0.0631855071011 0.0396746207379 0.156 1.08798003874e-38
-0.0621964674104 0.039420296246 0.155 1.15251697964e-38
-0.0608174634987 0.0389116472622 0.153 1.17095610562e-38
-0.0606347266415 0.0391659717541 0.154 1.16173654263e-38
-0.0604444542439 0.039420296246 0.155 1.15251669938e-38
-0.059860449855 0.039420296246 0.155 1.08808765846e-38
-0.0581291594249 0.0386573227703 0.152 1.08808765846e-38
-0.0583137801672 0.0391659717541 0.154 1.12496591041e-38
-0.0588582229684 0.0399289452298 0.157 1.15269648598e-38
-0.05715330693 0.0391659717541 0.154 1.16191604896e-38
-0.0569404279109 0.039420296246 0.155 1.17113561195e-38
-0.0559928336929 0.0391659717541 0.154 1.14358482297e-38
-0.0557724191332 0.039420296246 0.155 1.20783435756e-38
-0.0559005233218 0.0399289452298 0.157 1.1801756686e-38
-0.0542521238372 0.0391659717541 0.154 1.19861479457e-38
-0.0547174434631 0.0399289452298 0.157 1.19861479457e-38
-0.0527468996221 0.0389116472622 0.153 1.19861479457e-38
-0.0514884643584 0.0384029982784 0.151 1.18939523159e-38
-0.0526056082377 0.0396746207379 0.156 1.16173654263e-38
-0.0523512837458 0.0399289452298 0.157 1.1801756686e-38
-0.0511003840226 0.039420296246 0.155 1.16173654263e-38
-0.0501904675071 0.0391659717541 0.154 1.1801756686e-38
-0.0489659421757 0.0386573227703 0.152 1.1801756686e-38
-0.0515770069593 0.0412005676894 0.162 1.18939523159e-38
-0.0528542810742 0.0427265146408 0.168 1.18939523159e-38
-0.0488020441698 0.0399289452298 0.157 1.1801756686e-38
-0.0475963576896 0.039420296246 0.155 1.20783435756e-38
-0.047315658806 0.0396746207379 0.156 1.23549304652e-38
-0.0485251130564 0.0412005676894 0.162 1.19861479457e-38
-0.0499851240284 0.0429808391327 0.169 1.23549304652e-38
-0.0481803620784 0.0419635411651 0.165 1.20783435756e-38
-0.045541039018 0.0401832697217 0.158 1.20783435756e-38
-0.0443767980106 0.0396746207379 0.156 1.21705392055e-38
-0.0437890258515 0.0396746207379 0.156 1.04188222381e-38
-0.0451397714863 0.0414548921813 0.163 8.29832275121e-39
-0.0447987882786 0.0417092166732 0.164 1.01422353485e-38
-0.0420257093742 0.0396746207379 0.156 1.14340503638e-38
-0.0409066816098 0.0391659717541 0.154 1.17106372534e-38
-0.0403264449913 0.0391659717541 0.154 1.22627348353e-38
-0.0394881161105 0.0389116472622 0.153 1.16173654263e-38
-0.0396746207379 0.0396746207379 0.156 5.07075964248e-39
-0.0388362918572 0.039420296246 0.155 3.22684704522e-39
-0.0380054985169 0.0391659717541 0.154 4.88636838276e-39
-0.0374252618984 0.0391659717541 0.154 1.13400624732e-38
-0.0368450252798 0.0391659717541 0.154 1.17106372534e-38
-0.0365002743019 0.039420296246 0.155 1.1801756686e-38
-0.0356845520426 0.0391659717541 0.154 1.19854318822e-38
-0.0353322655242 0.039420296246 0.155 4.14808728033e-39
-0.0347482611354 0.039420296246 0.155 3.87150039074e-39
-0.0337234276272 0.0389116472622 0.153 3.68782519453e-39
-0.0337968991471 0.0396746207379 0.156 1.00500397186e-38
-0.033209126988 0.0396746207379 0.156 1.1987224143e-38
-0.0326213548289 0.0396746207379 0.156 1.15269634585e-38
-0.0322389261485 0.0399289452298 0.157 1.08808765846e-38
-0.031042659094 0.0391659717541 0.154 4.24063603741e-39
-0.0306602304136 0.039420296246 0.155 3.40979917142e-39
-0.0302702661926 0.0396746207379 0.156 2.9488210221e-39
-0.0296824940335 0.0396746207379 0.156 9.21920005003e-39
-0.0290947218745 0.0396746207379 0.156 1.20794197728e-38
-0.0281414760011 0.0391659717541 0.154 1.16191590883e-38
-0.0275612393825 0.0391659717541 0.154 1.18939523159e-38
-0.0273314053972 0.0396746207379 0.156 5.8090407449e-39
-0.0277722345165 0.0412005676894 0.162 2.58219369969e-39
-0.0268265241837 0.0406919187056 0.16 3.22756310873e-39
-0.0257319869259 0.0399289452298 0.157 9.77345282903e-39
-0.0254607074678 0.0404375942136 0.159 1.19861479457e-38
-0.0247052695326 0.0401832697217 0.158 1.16173654263e-38
-0.0259410981748 0.0432351636246 0.17 1.18939523159e-38
-0.025598231082 0.0437438126085 0.172 1.07886809547e-38
-0.0239347605164 0.0419635411651 0.165 6.73207324076e-39
-0.0227479128875 0.0409462431975 0.161 6.82426887062e-39
-0.0217287310347 0.0401832697217 0.158 9.77452902625e-39
-0.0215346908668 0.0409462431975 0.161 1.12496591041e-38
-0.0222279605929 0.0434894881166 0.171 1.13418547339e-38
-0.0215836718801 0.0434894881166 0.171 1.14340503638e-38
-0.019837310369 0.0412005676894 0.162 1.13418547339e-38
-0.0192269315884 0.0412005676894 0.162 1.07904746168e-38
-0.0183867188225 0.0406919187056 0.16 1.06060833571e-38
-0.0181173232496 0.0414548921813 0.163 1.12514527661e-38
-0.0181474654116 0.0429808391327 0.169 1.16202352855e-38
-0.0170962575117 0.0419635411651 0.165 1.1343648396e-38
-0.0158754999505 0.0404375942136 0.159 1.1343648396e-38
-0.0151803463393 0.0401832697217 0.158 1.1343648396e-38
-0.0145850386397 0.0401832697217 0.158 1.12514527661e-38
-0.014078273541 0.0404375942136 0.159 1.15262459937e-38
-0.0138182973938 0.0414548921813 0.163 1.14340503638e-38
-0.0130421367222 0.0409462431975 0.161 1.16184416235e-38
-0.0122038078414 0.0401832697217 0.158 1.15262459937e-38
-0.0114615571021 0.0396746207379 0.156 1.18028328832e-38
-0.010873784943 0.0396746207379 0.156 1.17106372534e-38
-0.0103519487633 0.0399289452298 0.157 1.15262459937e-38
-0.00988474525222 0.0404375942136 0.159 1.15262459937e-38
-0.00916886890463 0.0399289452298 0.157 1.16184402222e-38
-0.00868659431256 0.0404375942136 0.159 1.17106358521e-38
-0.00808751884273 0.0404375942136 0.159 1.15262445924e-38
-0.00753554050103 0.0406919187056 0.16 1.18028314819e-38
-0.00693269726095 0.0406919187056 0.16 1.19872227417e-38
-0.00632985402086 0.0406919187056 0.16 1.17106358521e-38
-0.00572701078078 0.0406919187056 0.16 1.18950271118e-38
-0.0051241675407 0.0406919187056 0.16 1.18028314819e-38
-0.00452132430062 0.0406919187056 0.16 1.14358482297e-38
-0.00391848106053 0.0406919187056 0.16 1.18035517494e-38
-0.00335708329321 0.0412005676894 0.162 1.18017538834e-38
-0.00276365947875 0.0414548921813 0.163 1.19861479457e-38
-0.00214951292792 0.0414548921813 0.163 1.20783435756e-38
-0.00153536637708 0.0414548921813 0.163 1.23549304652e-38
-0.000921219826251 0.0414548921813 0.163 1.07890466936e-38
-0.000307073275417 0.0414548921813 0.163 1.01447562844e-38
0.000308957160542 0.0417092166732 0.164 1.06961321977e-38
0.000943826447754 0.0424721901489 0.167 1.21716182053e-38
0.00156362465396 0.042217865657 0.166 1.18939495133e-38
0.0021627001238 0.0417092166732 0.164 1.22627320327e-38
0.00276365947875 0.0414548921813 0.163 1.24467631588e-38
0.00337780602959 0.0414548921813 0.163 8.57419077469e-39
0.00404093359368 0.0419635411651 0.165 5.16295807494e-39
0.00474739051565 0.0427265146408 0.168 5.34699340486e-39
0.0053483498706 0.0424721901489 0.167 1.02362246404e-38
0.0058701860503 0.0417092166732 0.164 1.21723328675e-38
0.00648810037139 0.0417092166732 0.164 1.1987224143e-38
0.00714934405035 0.0419635411651 0.165 1.1987224143e-38
0.00795941465421 0.0429808391327 0.169 8.94476835748e-39
0.00879962742008 0.0439981371004 0.173 3.59634562818e-39
0.00928755366752 0.0432351636246 0.17 3.22756310873e-39
0.00969447285457 0.042217865657 0.166 4.24171503723e-39
0.010257754507 0.0419635411651 0.165 1.07886795534e-38
0.0108794365984 0.0419635411651 0.165 1.20794183715e-38
0.0121284524364 0.0442524615923 0.174 1.18950285131e-38
0.0131514020594 0.0455240840518 0.179 1.15251669938e-38
0.013671354354 0.045015435068 0.177 4.70269038395e-39
0.0136091861449 0.0427265146408 0.168 3.68854125805e-39
0.0142421715469 0.0427265146408 0.168 3.59562676207e-39
0.014875156949 0.0427265146408 0.168 6.26930002811e-39
0.0161543149491 0.0445067860842 0.175 1.1987224143e-38
0.0170058310257 0.045015435068 0.177 1.1987224143e-38
0.0174730345368 0.0445067860842 0.175 1.20794197728e-38
0.0175107122393 0.0429808391327 0.169 1.05120940652e-38
0.0181474654116 0.0429808391327 0.169 3.50522619554e-39
0.0190065170287 0.0434894881166 0.171 2.95205241636e-39
0.0198806397268 0.0439981371004 0.173 3.59742182541e-39
0.020769833506 0.0445067860842 0.175 9.49794213666e-39
0.0214291932998 0.0445067860842 0.175 1.18950285131e-38
0.0214574515767 0.0432351636246 0.17 1.1987224143e-38
0.0219679844456 0.0429808391327 0.169 1.21716154027e-38
0.0227384934619 0.0432351636246 0.17 9.86672465611e-39
0.0235165380186 0.0434894881166 0.171 5.53353005254e-39
0.0244434095002 0.0439981371004 0.173 5.6257256824e-39
0.0249501745989 0.0437438126085 0.172 8.29939894843e-39
0.0250029233824 0.0427265146408 0.168 1.16184416235e-38
0.0262462875651 0.0437438126085 0.172 1.18950285131e-38
0.0268943440482 0.0437438126085 0.172 1.21716154027e-38
0.0277025307669 0.0439981371004 0.173 1.1987224143e-38
0.0281904570143 0.0437438126085 0.172 1.09730722145e-38
0.0291738450497 0.0442524615923 0.174 9.68233339638e-39
0.0310294718981 0.0460327330357 0.181 1.00511159158e-38
0.114576009433 0.159461456427 0.627 1.20797743013e-38
0.123652567966 0.168617138136 0.663 1.20794183715e-38
0.130146319993 0.173957952466 0.684 1.18950271118e-38
0.136410238035 0.178790117813 0.703 1.16184402222e-38
0.141828291655 0.182350660699 0.717 1.14340503638e-38
0.145336085758 0.183367958667 0.721 1.17106372534e-38
0.150106082895 0.185911203586 0.731 1.17106372534e-38
0.154324101691 0.187691475029 0.738 1.18028356858e-38
0.156678958097 0.187182826046 0.736 1.18950271118e-38
0.157718862687 0.18514823011 0.728 1.19879416078e-38
0.161343457668 0.186165528078 0.732 1.18968249777e-38
0.16634328879 0.188708772997 0.742 1.1805348214e-38
0.169822824616 0.189471746473 0.745 1.16209569543e-38
0.174715274287 0.1917606669 0.754 1.1712433718e-38
0.176614230493 0.190743368932 0.75 1.18957459779e-38
0.180636325235 0.192014991392 0.755 1.20794183715e-38
0.183967034137 0.192523640376 0.757 1.19879430091e-38
0.187312814119 0.193032289359 0.759 1.22645298987e-38
0.191675892069 0.194558236311 0.765 1.21716154027e-38
0.196338507754 0.196338507754 0.772 1.27237101821e-38
0.200279595436 0.197355805722 0.776 1.25393189223e-38
0.203988965248 0.198118779198 0.779 1.22638110326e-38
0.206127174865 0.197355805722 0.776 1.21723342688e-38
0.210397942444 0.198627428181 0.781 1.19879430091e-38
0.214979551069 0.200153375133 0.787 1.20794183715e-38
0.219606372936 0.201679322084 0.793 1.21716140014e-38
0.224559106931 0.203459593528 0.8 1.24482022923e-38
0.23041798967 0.206002838447 0.81 1.19872269456e-38
0.233758117997 0.206257162939 0.811 1.12496619067e-38
0.237689786254 0.207020136414 0.814 1.11574634742e-38
0.239277901414 0.205748513955 0.809 1.2448200891e-38
0.238132499258 0.202187971068 0.795 1.18028314819e-38
0.241127876607 0.202187971068 0.795 1.25403979221e-38
0.245351547058 0.203205269036 0.799 1.21705392055e-38
0.252092088036 0.206257162939 0.811 1.19854318822e-38
0.255776967341 0.206765811923 0.813 8.7578687735e-39
0.259158541141 0.207020136414 0.814 6.91395617623e-39
0.262225506125 0.207020136414 0.814 7.74443290852e-39
0.266270207489 0.20778310989 0.817 1.10641916471e-38
0.266051676814 0.205239864971 0.807 1.18950285131e-38
0.268425372072 0.204731215987 0.805 1.22638110326e-38
0.272132857999 0.205239864971 0.807 1.19861479457e-38
0.276537381422 0.206257162939 0.811 1.0786888694e-38
0.280972047006 0.207274460906 0.815 5.62321735815e-39
0.284391298509 0.207528785398 0.816 4.70126105951e-39
0.288522658588 0.208291758874 0.819 4.24099897371e-39
0.290540299558 0.207528785398 0.816 9.49686593944e-39
0.293974622141 0.20778310989 0.817 1.18950285131e-38
0.294871351461 0.206257162939 0.811 1.18950313157e-38
0.298661728333 0.206765811923 0.813 1.22627348353e-38
0.300240424068 0.205748513955 0.809 9.77273956811e-39
0.30478812276 0.206765811923 0.813 4.79345668938e-39
0.308229980884 0.207020136414 0.814 4.70126105951e-39
0.308237516424 0.204985540479 0.806 3.96441488672e-39
0.312046732148 0.205494189463 0.808 8.66710527067e-39
0.315871018952 0.206002838447 0.81 1.21716182053e-38
0.322860232767 0.208546083366 0.82 1.19861479457e-38
0.325154804849 0.208037434382 0.818 1.22627348353e-38
0.327835573382 0.20778310989 0.817 9.40467030957e-39
0.332128947583 0.208546083366 0.82 4.61049755668e-39
0.334400913044 0.208037434382 0.818 4.33391066709e-39
0.335832665739 0.207020136414 0.814 4.61049755668e-39
0.336401599047 0.205494189463 0.808 9.77345282903e-39
0.338605744643 0.204985540479 0.806 1.20783435756e-38
0.343338064078 0.206002838447 0.81 1.19875898819e-38
0.348955809522 0.207528785398 0.816 1.19875898819e-38
0.350736080965 0.206765811923 0.813 1.19879430091e-38
0.351623390859 0.205494189463 0.808 1.21716140014e-38
0.359496146797 0.208291758874 0.819 1.09723449406e-38
0.361253811619 0.207528785398 0.816 1.06939559812e-38
0.364774792918 0.20778310989 0.817 1.00471460373e-38
0.365151569943 0.206257162939 0.811 9.67764184913e-39
0.369569280562 0.207020136414 0.814 9.86167017255e-39
0.372178461461 0.206765811923 0.813 1.00460614323e-38
0.37570321053 0.207020136414 0.814 1.01382570621e-38
0.37458229888 0.204731215987 0.805 1.01382570621e-38
0.375739004347 0.20371391802 0.801 1.0230452692e-38
0.380175553817 0.204476891495 0.804 1.0230452692e-38
0.385587955782 0.205748513955 0.809 1.0230452692e-38
0.390077254036 0.206511487431 0.812 1.0230452692e-38
0.394589158911 0.207274460906 0.815 1.05977932753e-38
0.401563301644 0.209309056842 0.823 1.05055976455e-38
0.404172482543 0.20905473235 0.822 1.04137621493e-38
0.409251436841 0.210072030317 0.826 1.04137621493e-38
0.402379023904 0.204985540479 0.806 1.03215665195e-38
0.405415846726 0.204985540479 0.806 1.01382542595e-38
0.404905313857 0.203205269036 0.799 1.02304498894e-38
0.412000025238 0.205239864971 0.807 1.02304498894e-38
0.417097818387 0.206257162939 0.811 1.02304498894e-38
0.413936659147 0.203205269036 0.799 1.02304498894e-38
0.422165469374 0.205748513955 0.809 1.02304498894e-38
0.421534367857 0.203968242512 0.802 1.02304498894e-38
0.418203658956 0.200916348609 0.79 1.02304498894e-38
0.427044731849 0.20371391802 0.801 1.01382542595e-38
0.426841272255 0.202187971068 0.795 1.01382542595e-38
0.437946775068 0.206002838447 0.81 1.01382542595e-38
0.437732012164 0.204476891495 0.804 1.02300995648e-38
0.431441719731 0.200153375133 0.787 1.02300995648e-38
0.43495893326 0.200407699625 0.788 1.01379039349e-38
0.424034283418 0.194049587327 0.763 1.00457083051e-38
0.430266175413 0.195575534279 0.769 1.02300995648e-38
0.424714365949 0.1917606669 0.754 1.02300995648e-38
0.424720017604 0.19048904444 0.749 1.03222951947e-38
0.417267368049 0.185911203586 0.731 1.03222951947e-38
0.413701173506 0.183113634175 0.72 1.03226483219e-38
0.423354200888 0.186165528078 0.732 1.01382570621e-38
0.422037365186 0.184385256635 0.725 9.95386580241e-39
0.41480889796 0.180061740272 0.708 9.95386580241e-39
0.415117855121 0.179044442304 0.704 9.95386580241e-39
0.409462431975 0.175483899418 0.69 9.95386580241e-39
0.421617258803 0.179553091288 0.706 9.95386580241e-39
-0.0967450367224 0.04181094647 0.162 1.1525172599e-38
-0.0967280817563 0.0420690387321 0.163 1.15244509303e-38
-0.0949346231171 0.0415528542078 0.161 1.14318951667e-38
-0.0949139003807 0.04181094647 0.162 1.18928733161e-38
-0.0966320036149 0.0428433155186 0.166 1.15244509303e-38
-0.0977416119537 0.0436175923051 0.169 1.12485857094e-38
-0.0942319339654 0.0423271309943 0.164 1.15258928664e-38
-0.0924723852584 0.04181094647 0.162 1.16173626237e-38
-0.0901608582097 0.0410366696835 0.159 1.1432971364e-38
-0.0901250643923 0.0412947619456 0.16 1.10641888445e-38
-0.090030870136 0.04181094647 0.162 1.13407757341e-38
-0.0877645563303 0.0410366696835 0.159 1.13407757341e-38
-0.0871654808605 0.0410366696835 0.159 1.13407757341e-38
-0.0881997337943 0.04181094647 0.162 1.15251669938e-38
-0.0892113801065 0.0425852232564 0.165 1.13407757341e-38
-0.0864420689724 0.0415528542078 0.161 1.11563844744e-38
-0.0842360394907 0.0407785774213 0.158 1.11563844744e-38
-0.0820526166306 0.0400043006348 0.155 1.1432971364e-38
-0.0819942161917 0.040262392897 0.156 1.1432971364e-38
-0.0819282802123 0.0405204851592 0.157 1.1432971364e-38
-0.0818548086924 0.0407785774213 0.158 1.15251669938e-38
-0.081773801632 0.0410366696835 0.159 1.1432971364e-38
-0.0806641932933 0.0407785774213 0.158 1.14329741666e-38
-0.0805756506924 0.0410366696835 0.159 1.14329741666e-38
-0.0799765752225 0.0410366696835 0.159 1.15251697964e-38
-0.0793774997527 0.0410366696835 0.159 1.15251697964e-38
-0.0782829624949 0.0407785774213 0.158 1.17095610562e-38
-0.0771959607777 0.0405204851592 0.157 1.01422353485e-38
-0.0766044208483 0.0405204851592 0.157 5.34806259559e-39
-0.076012880919 0.0405204851592 0.157 6.8231926734e-39
-0.0749409502827 0.040262392897 0.156 1.07876075601e-38
-0.0748298010603 0.0405204851592 0.157 1.12485857094e-38
-0.0732925507981 0.0400043006348 0.155 1.16173682289e-38
-0.0731776338055 0.040262392897 0.156 1.00500425212e-38
-0.0721245420205 0.0400043006348 0.155 3.68854406065e-39
-0.0720020894873 0.040262392897 0.156 2.39780524256e-39
-0.0718721014137 0.0405204851592 0.157 4.88708724887e-39
-0.0730966267451 0.0415528542078 0.161 1.02344337809e-38
-0.0751915070044 0.0431014077808 0.167 1.13404156004e-38
-0.0709904431751 0.0410366696835 0.159 1.14322553005e-38
-0.0690632286919 0.040262392897 0.156 8.2976066877e-39
-0.068914401767 0.0405204851592 0.157 3.5034367374e-39
-0.0713691040852 0.0423271309943 0.164 3.68782799713e-39
-0.0742024673136 0.0443918690916 0.172 5.16295527235e-39
-0.0688503496728 0.0415528542078 0.161 1.15244509303e-38
-0.0657004937433 0.0400043006348 0.155 1.12482199705e-38
-0.0642762765886 0.0394881161105 0.153 1.18017538834e-38
-0.0666141780291 0.0412947619456 0.16 6.26930002811e-39
-0.0684867598436 0.0428433155186 0.166 3.77930195828e-39
-0.0658172946211 0.0415528542078 0.161 3.31724761175e-39
-0.0631855071011 0.040262392897 0.156 8.66459414382e-39
-0.0617951998787 0.0397462083727 0.154 1.18003217564e-38
-0.062009962783 0.040262392897 0.156 1.16166465602e-38
-0.0626033865974 0.0410366696835 0.159 1.21705364029e-38
-0.0608344184648 0.040262392897 0.156 1.02319198515e-38
-0.0594742534044 0.0397462083727 0.154 5.34590739855e-39
-0.0577467307445 0.0389719315862 0.151 6.17638833473e-39
-0.0575564583469 0.0392300238484 0.152 1.08790815213e-38
-0.0573586504087 0.0394881161105 0.153 1.15251669938e-38
-0.0564110561907 0.0392300238484 0.152 1.1987224143e-38
-0.0565730703115 0.0397462083727 0.154 1.15269634585e-38
-0.0556292438637 0.0394881161105 0.153 1.14347678286e-38
-0.0554125970743 0.0397462083727 0.154 1.17088477952e-38
-0.0555444690331 0.040262392897 0.156 1.10641944497e-38
-0.0542521238372 0.0397462083727 0.154 1.16184444261e-38
-0.0547174434631 0.0405204851592 0.157 1.14347692299e-38
-0.0530916506 0.0397462083727 0.154 1.18035517494e-38
-0.0528523971891 0.0400043006348 0.155 1.13418575365e-38
-0.0522683928003 0.0400043006348 0.155 1.17095638588e-38
-0.0510174930771 0.0394881161105 0.153 1.16166521654e-38
-0.0504410242288 0.0394881161105 0.153 1.13418575365e-38
-0.0498645553804 0.0394881161105 0.153 1.1710640056e-38
-0.0492880865321 0.0394881161105 0.153 1.18028356858e-38
-0.0493483708561 0.0400043006348 0.155 1.18028356858e-38
-0.0490789752832 0.040262392897 0.156 1.18950313157e-38
-0.0481803620784 0.0400043006348 0.155 1.1710640056e-38
