VERSION .7
FIELDS x y z rgb
SIZE 4 4 4 4
TYPE F F F F
COUNT 1 1 1 1
WIDTH 837
HEIGHT 1
VIEWPOINT 0 0 0 1 0 0 0
POINTS 837
DATA ascii
0.0744153463328 -0.0112750524747 0.171 1.44772236141e-38
0.075937525514 -0.0114069244334 0.173 1.44772236141e-38
0.0774747757762 -0.0115387963922 0.175 1.43850279842e-38
0.076794693246 -0.011340988454 0.172 1.43850279842e-38
0.0769925011841 -0.0112750524747 0.171 1.42928323544e-38
0.0785448225273 -0.0114069244334 0.173 1.46598212118e-38
-0.31471996514 -0.0327626462133 0.527 2.48928480891e-39
-0.315108045476 -0.0330113190499 0.531 2.48928480891e-39
-0.313697015517 -0.033073487259 0.532 2.48928480891e-39
-0.315207891388 -0.0334464965138 0.538 2.21269791932e-39
-0.310852348978 -0.0331978236773 0.534 2.21269791932e-39
-0.309997065131 -0.0333221600955 0.536 2.21269791932e-39
-0.30855212524 -0.0333843283047 0.537 2.12050228945e-39
-0.304816381037 -0.0331978236773 0.534 1.84391259727e-39
-0.303371441146 -0.0332599918864 0.535 1.84391259727e-39
-0.303045529019 -0.0334464965138 0.538 1.84391259727e-39
-0.299339926978 -0.0332599918864 0.535 1.84391259727e-39
-0.295656931558 -0.033073487259 0.532 1.84391259727e-39
-0.298068304518 -0.0335708329321 0.54 1.84391259727e-39
-0.29493728744 -0.0334464965138 0.538 1.84391259727e-39
-0.298899097858 -0.0341303468143 0.549 1.84391259727e-39
-0.307103417579 -0.0353115427878 0.568 2.21269511672e-39
-0.312480025726 -0.0361818977157 0.582 1.84391259727e-39
-0.312419741402 -0.0364305705522 0.586 1.84391539986e-39
-0.133627739705 -0.0171584257208 0.276 1.19861451432e-38
-0.122019239563 -0.0157907251199 0.254 9.22027904985e-39
-0.116772619489 -0.0152312112377 0.245 1.47520168416e-38
-0.115376660611 -0.0151690430286 0.244 1.28159086145e-38
-0.114926412066 -0.0152312112377 0.245 1.12485829068e-38
-0.116795226111 -0.0156042204925 0.251 1.41988430625e-38
-0.111233997221 -0.0149825384012 0.241 1.35534736534e-38
-0.11032596459 -0.0149825384012 0.241 1.37378649132e-38
-0.107147850384 -0.0146716973555 0.236 1.09719960173e-38
-0.10760940224 -0.0148582019829 0.239 2.95097621914e-39
-0.10670890515 -0.0148582019829 0.239 1.1801756686e-38
-0.108021973082 -0.0151690430286 0.244 1.41988430625e-38
-0.104030020502 -0.0147338655646 0.237 1.36456692833e-38
-0.102701881489 -0.0146716973555 0.236 1.33690823937e-38
-0.102244097403 -0.0147338655646 0.237 1.42910386923e-38
-0.100495852007 -0.0146095291464 0.235 1.41066474326e-38
-0.104696915836 -0.015355547656 0.247 1.18939523159e-38
-0.0983048936062 -0.0145473609372 0.234 1.38365051147e-39
-0.0949252036914 -0.0141743516824 0.228 6.73099704354e-39
-0.0944787229168 -0.0142365198916 0.229 1.40144518027e-38
-0.0940247066016 -0.0142986881007 0.23 1.3830060543e-38
-0.0911329429343 -0.013987847055 0.225 1.36456692833e-38
-0.0942978699447 -0.0146095291464 0.235 1.41066474326e-38
-0.0910274453673 -0.0142365198916 0.229 1.42910386923e-38
-0.0913458219535 -0.014423024519 0.232 1.44754299521e-38
-0.0881319139298 -0.0140500152642 0.226 7.37636645258e-39
-0.0899837730079 -0.0144851927281 0.233 2.02901992051e-39
-0.086811310457 -0.0141121834733 0.227 1.26315173548e-38
-0.0886066529813 -0.0145473609372 0.234 1.3830060543e-38
-0.0843509564834 -0.013987847055 0.225 1.3830060543e-38
-0.0842454589164 -0.0141121834733 0.227 1.45676255819e-38
-0.0844922478678 -0.0142986881007 0.23 1.03266266082e-38
-0.0850800200269 -0.0145473609372 0.234 1.42910386923e-38
-0.0784412088455 -0.0135526695911 0.218 1.53062654167e-38
-0.0783319435082 -0.0136770060094 0.22 1.07886795534e-38
-0.0767984610162 -0.0135526695911 0.218 1.0419897034e-38
-0.0763256058498 -0.0136148378002 0.219 1.49374828973e-38
-0.0768794680766 -0.0138635106368 0.223 1.46608960077e-38
-0.0794490873875 -0.0144851927281 0.233 1.43843091181e-38
-0.0738501807952 -0.0136148378002 0.219 1.2448200891e-38
-0.072358143776 -0.013490501382 0.217 2.67546412547e-39
-0.0712108577347 -0.0134283331728 0.216 1.10659867104e-38
-0.0703970193606 -0.0134283331728 0.216 1.45694206453e-38
-0.0692610366301 -0.0133661649637 0.215 1.40162468661e-38
-0.0745001211634 -0.0145473609372 0.234 1.3370877457e-38
-0.068899330686 -0.0136148378002 0.219 1.40162468661e-38
-0.0668308248185 -0.0133661649637 0.215 1.38318556063e-38
-0.0650995343884 -0.0131796603363 0.212 1.45694206453e-38
-0.0649073781056 -0.0133039967546 0.214 1.29098993077e-38
-0.0632024620672 -0.0131174921272 0.211 1.75243022832e-39
-0.063590542403 -0.0133661649637 0.215 6.45440735135e-39
-0.0694965222707 -0.0147960337738 0.238 1.4752014039e-38
-0.0636998077403 -0.0137391742185 0.221 1.34623542208e-38
-0.0608758639376 -0.0133039967546 0.214 1.37396599765e-38
-0.058385367802 -0.0129309874998 0.208 1.3370877457e-38
-0.0576016715899 -0.0129309874998 0.208 1.41095214958e-38
-0.0568179753778 -0.0129309874998 0.208 1.40173258659e-38
-0.0554954880198 -0.0128066510815 0.206 1.50296827311e-38
-0.0610943946121 -0.0142986881007 0.23 4.42718249418e-39
-0.0578710671628 -0.0137391742185 0.221 5.54964638617e-40
-0.0541993750536 -0.013055323918 0.21 1.19875786715e-38
-0.0526451698253 -0.0128688192906 0.207 1.48456431972e-38
-0.0508630144968 -0.0126201464541 0.203 1.4476504748e-38
-0.0520724687472 -0.0131174921272 0.211 1.43843105194e-38
-0.0498193421374 -0.0127444828724 0.205 1.58594433998e-38
-0.0495254560579 -0.0128688192906 0.207 1.52133495195e-38
-0.0532197547885 -0.0140500152642 0.226 1.60431101882e-38
-0.0486607527854 -0.013055323918 0.21 1.53977407792e-38
-0.046729770532 -0.0127444828724 0.205 1.03269811367e-38
-0.0455090129708 -0.0126201464541 0.203 3.5967001567e-39
-0.0454053992889 -0.0128066510815 0.206 1.14333286951e-38
-0.0450625321961 -0.0129309874998 0.208 1.50289582597e-38
-0.0425758038308 -0.0124336418267 0.2 1.52133495195e-38
-0.0426586947763 -0.0126823146632 0.204 1.47530930389e-38
-0.0429167870385 -0.0129931557089 0.209 1.57672449674e-38
-0.0409198688057 -0.0126201464541 0.203 8.11500768871e-39
-0.0401550114449 -0.0126201464541 0.203 8.48378880686e-39
-0.0388080335803 -0.0124336418267 0.2 1.57672435661e-38
-0.0393863863137 -0.0128688192906 0.207 1.59519907556e-38
-0.0400984948911 -0.0133661649637 0.215 1.42002737882e-38
-0.0369128451443 -0.012557978245 0.202 1.32783174896e-38
-0.035614848293 -0.0123714736176 0.199 1.50296799285e-38
-0.0350402633298 -0.0124336418267 0.2 1.49374842986e-38
-0.0336009750941 -0.0121849689902 0.196 1.50296799285e-38
-0.032862492125 -0.0121849689902 0.196 1.47530930389e-38
-0.0321240091559 -0.0121849689902 0.196 1.16184416235e-38
-0.0318659168937 -0.0123714736176 0.199 2.12229174759e-39
-0.0334615675948 -0.0133039967546 0.214 4.6115737539e-39
-0.0311293178097 -0.0126823146632 0.204 1.41999192597e-38
-0.0288724234297 -0.0120606325719 0.194 1.42931882842e-38
-0.0279964168464 -0.0119984643628 0.193 1.45697751738e-38
-0.0271279458037 -0.0119362961536 0.192 1.4385383914e-38
-0.0265420575297 -0.0119984643628 0.193 1.42928323544e-38
-0.0260823895592 -0.012122800781 0.195 1.42006367245e-38
-0.0252176862867 -0.0120606325719 0.194 1.46616162751e-38
-0.0258751621954 -0.0127444828724 0.205 1.46616162751e-38
-0.0263272946255 -0.0133661649637 0.215 1.18957473792e-38
-0.0237369525782 -0.0124336418267 0.2 2.58326989691e-39
-0.0224088135649 -0.012122800781 0.195 1.47692233855e-39
-0.0215629491437 -0.0120606325719 0.194 1.24485568208e-38
-0.020724620263 -0.0119984643628 0.193 1.43846650479e-38
-0.0198938269227 -0.0119362961536 0.192 1.44768606778e-38
-0.0194699527695 -0.012122800781 0.195 1.39236868986e-38
-0.0186391594293 -0.0120606325719 0.194 1.43843105194e-38
-0.0177235912584 -0.0119362961536 0.192 1.49374842986e-38
-0.0193022869934 -0.0135526695911 0.218 1.4476504748e-38
-0.017717939603 -0.0129931557089 0.209 1.48452872674e-38
-0.0158773838357 -0.0121849689902 0.196 1.47530916376e-38
-0.0149071829962 -0.0119984643628 0.193 9.31354947563e-39
-0.0141800033378 -0.0119984643628 0.193 2.12229034629e-39
-0.0133831199298 -0.0119362961536 0.192 7.19304998878e-39
-0.0126597080417 -0.0119362961536 0.192 1.5121874157e-38
-0.0119362961536 -0.0119362961536 0.192 1.42921134883e-38
-0.0110960833878 -0.0118119597354 0.19 1.44775767413e-38
-0.0105987377147 -0.0120606325719 0.194 1.4385383914e-38
-0.0109359531521 -0.0133661649637 0.215 1.46616148738e-38
-0.00951361988255 -0.012557978245 0.202 9.49866100277e-39
-0.00836256607102 -0.0119984643628 0.193 1.21723342688e-38
-0.00751670164978 -0.0118119597354 0.19 1.46616148738e-38
-0.00680082530218 -0.0118119597354 0.19 1.44775795439e-38
-0.00608494895458 -0.0118119597354 0.19 1.25414685142e-38
-0.00539733088386 -0.0118741279445 0.191 8.39231204311e-39
-0.00467768676601 -0.0118741279445 0.191 1.22645284974e-38
-0.00391659717541 -0.0117497915262 0.189 1.4569419244e-38
-0.00322144356419 -0.0118119597354 0.19 1.40162468661e-38
-0.00258469039185 -0.0121849689902 0.196 1.39240512362e-38
-0.00183678799713 -0.012122800781 0.195 1.44772250154e-38
-0.00107946617677 -0.0118741279445 0.191 1.25407608585e-38
-0.000356054288674 -0.0117497915262 0.189 3.22900224225e-39
0.000356054288674 -0.0117497915262 0.189 4.1513130694e-39
0.00106816286602 -0.0117497915262 0.189 1.27255066467e-38
0.00178027144337 -0.0117497915262 0.189 1.46616148738e-38
0.00247919282484 -0.0116876233171 0.188 1.46616148738e-38
0.00317057866581 -0.011625455108 0.187 1.42006367245e-38
0.00387515170265 -0.011625455108 0.187 1.43850279842e-38
0.00455523423287 -0.0115632868988 0.186 1.48460061335e-38
0.00531255605322 -0.0116876233171 0.188 1.42928323544e-38
0.00605292290745 -0.0117497915262 0.189 1.41084410946e-38
0.00669344385004 -0.011625455108 0.187 1.47538105037e-38
0.00731889371162 -0.0115011186897 0.185 1.50303973933e-38
0.00801593120797 -0.0115011186897 0.185 9.03768145216e-39
0.00871296870431 -0.0115011186897 0.185 3.22935677077e-39
0.00946087109904 -0.0115632868988 0.186 2.399596102e-39
0.010107043697 -0.0115011186897 0.185 1.21723328675e-38
0.0109208820711 -0.011625455108 0.187 1.47538105037e-38
0.0115011186897 -0.0115011186897 0.185 1.45704954412e-38
0.0121322202067 -0.0114389504806 0.184 1.47548867009e-38
0.0127557861831 -0.0113767822714 0.183 1.43861041814e-38
0.013445288139 -0.0113767822714 0.183 1.4662691071e-38
0.0140575508047 -0.0113146140623 0.182 1.49392779606e-38
0.0148242920506 -0.0113767822714 0.183 1.47548867009e-38
0.0154290191759 -0.0113146140623 0.182 1.50314735905e-38
0.0162032959623 -0.0113767822714 0.183 1.47548867009e-38
0.0168927979182 -0.0113767822714 0.183 1.48460075348e-38
0.0176783780154 -0.0114389504806 0.184 4.8888795096e-39
0.0181719559182 -0.0113146140623 0.182 2.58398876302e-39
0.0187540764219 -0.0112524458532 0.181 3.50594366036e-39
0.0194360428373 -0.0112524458532 0.181 1.53069842829e-38
0.0201180092526 -0.0112524458532 0.181 1.51229489529e-38
0.020799975668 -0.0112524458532 0.181 1.50307533231e-38
0.0214819420833 -0.0112524458532 0.181 1.49385576932e-38
0.0220414559655 -0.011190277644 0.18 1.49382017634e-38
0.0227196546106 -0.011190277644 0.18 1.5860158062e-38
0.0233978532557 -0.011190277644 0.18 1.35552673155e-38
0.0240760519008 -0.011190277644 0.18 1.3831854205e-38
0.0246167269317 -0.0111281094349 0.179 1.48460061335e-38
0.0252911578066 -0.0111281094349 0.179 1.5214788653e-38
0.0259655886814 -0.0111281094349 0.179 1.55835711725e-38
0.0266400195563 -0.0111281094349 0.179 1.23567241272e-38
0.0274670451262 -0.011190277644 0.18 7.19376885489e-39
0.0281452437713 -0.011190277644 0.18 7.47035574448e-39
0.0288234424164 -0.011190277644 0.18 1.41084410946e-38
0.0295016410615 -0.011190277644 0.18 1.49382017634e-38
0.0301798397066 -0.011190277644 0.18 1.46616148738e-38
0.0308580383517 -0.011190277644 0.18 1.46616148738e-38
0.0311858343635 -0.0110659412258 0.178 1.47538105037e-38
0.0318564974681 -0.0110659412258 0.178 1.49382017634e-38
0.0327098974298 -0.0111281094349 0.179 1.08815954507e-38
0.0335708329321 -0.011190277644 0.18 4.42790136029e-39
0.0342490315772 -0.011190277644 0.18 5.16546639919e-39
0.0345391498865 -0.0110659412258 0.178 1.2541115387e-38
0.0350120050529 -0.0110037730166 0.177 1.46616148738e-38
0.0358804760956 -0.0110659412258 0.178 1.49385576932e-38
0.0367564826789 -0.0111281094349 0.179 1.45697751738e-38
0.0376400248026 -0.011190277644 0.18 1.36478188751e-38
0.0385311024669 -0.0112524458532 0.181 1.34623542208e-38
0.0392130688822 -0.0112524458532 0.181 1.47530930389e-38
0.0401154498572 -0.0113146140623 0.182 1.44765061493e-38
0.0412495487026 -0.0114389504806 0.184 1.44765061493e-38
0.0428546188293 -0.0116876233171 0.188 1.41999192597e-38
0.0437946775068 -0.0117497915262 0.189 1.44765061493e-38
0.0435648435216 -0.0115011186897 0.185 1.44765061493e-38
0.0433048673743 -0.0112524458532 0.181 9.59013776652e-39
0.043014749065 -0.0110037730166 0.177 2.95241535266e-39
0.0426944885937 -0.0107551001801 0.173 3.04461098253e-39
0.043346312847 -0.0107551001801 0.173 6.54840084714e-39
0.0439981371004 -0.0107551001801 0.173 1.39240512362e-38
0.0454242381402 -0.0109416048075 0.176 1.40162468661e-38
0.0453017856071 -0.0107551001801 0.173 1.39240498349e-38
0.0451567264524 -0.0105685955527 0.17 1.3831854205e-38
0.0463360385408 -0.010692931971 0.172 1.37396585752e-38
0.0475304217102 -0.0108172683892 0.174 1.36467454805e-38
0.0490168070741 -0.0110037730166 0.177 1.36467454805e-38
0.0491223046411 -0.0108794365984 0.175 1.35545498506e-38
0.0497816644349 -0.0108794365984 0.175 1.35545498506e-38
0.0498645553804 -0.0107551001801 0.173 1.36467454805e-38
0.0499323752449 -0.0106307637618 0.171 1.36467454805e-38
0.0499851240284 -0.0105064273436 0.169 1.36467454805e-38
0.0512209526706 -0.0106307637618 0.171 1.35545498506e-38
0.0515619358783 -0.0105685955527 0.17 1.35545498506e-38
0.0525095300963 -0.0106307637618 0.171 1.35545498506e-38
0.0534646598548 -0.010692931971 0.172 1.36467454805e-38
0.053798107522 -0.0106307637618 0.171 1.36467454805e-38
0.0531688898901 -0.0103820909253 0.167 1.37389411104e-38
0.0544423962348 -0.0105064273436 0.169 1.37389411104e-38
0.0554050615338 -0.0105685955527 0.17 1.37389411104e-38
0.0560455824764 -0.0105685955527 0.17 1.37389411104e-38
0.056686103419 -0.0105685955527 0.17 1.39233323701e-38
0.057663839799 -0.0106307637618 0.171 1.39233323701e-38
0.0589900949272 -0.0107551001801 0.173 1.39233323701e-38
0.0589524172247 -0.0106307637618 0.171 1.39233323701e-38
0.0592481871893 -0.0105685955527 0.17 1.39233323701e-38
0.0595364216135 -0.0105064273436 0.169 1.39233323701e-38
0.0605292290745 -0.0105685955527 0.17 1.39233323701e-38
0.061529572076 -0.0106307637618 0.171 1.39233323701e-38
0.0618102709597 -0.0105685955527 0.17 1.41077264324e-38
0.0617160767034 -0.0104442591344 0.168 1.41077264324e-38
0.0619779367358 -0.0103820909253 0.167 1.41077264324e-38
0.0637318337874 -0.0105685955527 0.17 1.41077264324e-38
0.0636150329097 -0.0104442591344 0.168 1.41999220623e-38
0.0638655896313 -0.0103820909253 0.167 1.41999220623e-38
0.0648810037139 -0.0104442591344 0.168 1.41999220623e-38
0.0655139891159 -0.0104442591344 0.168 1.41999220623e-38
0.0669344385004 -0.0105685955527 0.17 1.42921148896e-38
0.0667799599201 -0.0104442591344 0.168 1.42921148896e-38
0.0682154803856 -0.0105685955527 0.17 1.43843105194e-38
0.0684509660262 -0.0105064273436 0.169 1.43843105194e-38
0.0694965222707 -0.0105685955527 0.17 1.42921148896e-38
0.0709621848982 -0.010692931971 0.172 1.42921148896e-38
0.0724429186066 -0.0108172683892 0.174 1.43843105194e-38
0.0722582978644 -0.010692931971 0.172 1.43843105194e-38
0.0707869835815 -0.0103820909253 0.167 1.44772236141e-38
0.0718438431368 -0.0104442591344 0.168 1.4569419244e-38
0.0733396479263 -0.0105685955527 0.17 1.4569419244e-38
0.0744153463328 -0.0106307637618 0.171 1.44772236141e-38
0.0750596350456 -0.0106307637618 0.171 1.43850279842e-38
0.0770320627718 -0.0108172683892 0.174 1.43850279842e-38
0.0759017316966 -0.0105685955527 0.17 1.42928323544e-38
0.0774427497291 -0.010692931971 0.172 1.42928323544e-38
-0.317108731479 -0.0310106330469 0.531 2.12014635964e-39
-0.315108045476 -0.0310106330469 0.531 2.39673324923e-39
-0.317234951783 -0.031419436119 0.538 2.58112450896e-39
-0.319309109305 -0.0318282391912 0.545 2.4889288791e-39
-0.313762951497 -0.0314778365579 0.539 2.39673324923e-39
-0.310575417865 -0.0313610356802 0.537 2.30453761937e-39
-0.30855212524 -0.0313610356802 0.537 2.30453761937e-39
-0.303674746651 -0.0310690334857 0.532 2.12049948686e-39
-0.29996914461 -0.0308938321691 0.529 2.12049948686e-39
-0.303045529019 -0.031419436119 0.538 2.12049948686e-39
-0.29989944086 -0.0313026352413 0.536 2.12049948686e-39
-0.29621267767 -0.0311274339246 0.533 2.02830385699e-39
-0.29862028286 -0.0315946374357 0.541 2.02830385699e-39
-0.30261223544 -0.0322370422634 0.552 2.02830385699e-39
-0.307065739876 -0.03293784753 0.564 1.93610822713e-39
-0.311969492857 -0.0336970532355 0.577 2.58075877006e-39
-0.311406211205 -0.0338722545521 0.58 2.39636751033e-39
-0.316684857326 -0.0346898606965 0.594 9.21237432521e-40
-0.124428728638 -0.0150089127929 0.257 1.32768867638e-38
-0.116734941787 -0.0141913066486 0.243 1.30002998742e-38
-0.115342750679 -0.0141329062097 0.242 1.45676255819e-38
-0.113958095112 -0.0140745057708 0.241 6.36221452408e-39
-0.113519149878 -0.0141329062097 0.242 2.58219369969e-39
-0.113072669103 -0.0141913066486 0.243 1.44754299521e-38
-0.111695549076 -0.0141329062097 0.242 1.30924955041e-38
-0.113988237274 -0.0145417092819 0.249 1.37378649132e-38
-0.109871948275 -0.0141329062097 0.242 1.35534736534e-38
-0.107159153695 -0.0138993044541 0.238 1.44754299521e-38
-0.107155385925 -0.0140161053319 0.24 1.40144518027e-38
-0.104480269047 -0.0137825035764 0.236 1.17095610562e-38
-0.103152130033 -0.0137241031375 0.235 4.0573237775e-39
-0.103137058952 -0.0138409040153 0.237 1.28159086145e-38
-0.100949868322 -0.0136657026986 0.234 1.43832343222e-38
-0.0992129262365 -0.0135489018208 0.232 1.44754299521e-38
-0.103425293377 -0.0142497070874 0.244 1.27237129847e-38
-0.0966244680744 -0.0134321009431 0.23 4.88708444627e-39
-0.0957578809168 -0.0134321009431 0.23 1.19861479457e-38
-0.0944787229168 -0.0133737005042 0.229 1.45676255819e-38
-0.0936159035294 -0.0133737005042 0.229 1.34612780236e-38
-0.0915379782362 -0.0131984991876 0.226 1.3830060543e-38
-0.0955016725398 -0.0138993044541 0.238 1.37378649132e-38
-0.0902324458444 -0.0132568996264 0.227 1.40144518027e-38
-0.0901646259799 -0.0133737005042 0.229 1.43832343222e-38
-0.0873519854879 -0.0130816983098 0.224 2.67438652695e-39
-0.0880527907545 -0.0133153000653 0.228 3.78073408531e-39
-0.0887234538591 -0.0135489018208 0.232 1.40144490001e-38
-0.0916359402628 -0.0141329062097 0.242 1.41988402599e-38
-0.0836011702035 -0.0130232978709 0.223 1.49364052988e-38
-0.0831320828073 -0.0130816983098 0.224 1.37378621106e-38
-0.0826554598707 -0.0131400987487 0.225 1.42910358897e-38
-0.0821713013935 -0.0131984991876 0.226 1.43832315196e-38
-0.0809599632579 -0.0131400987487 0.225 1.45676255819e-38
-0.0847409207043 -0.0138993044541 0.238 1.84462866078e-39
-0.0789121801268 -0.0130816983098 0.224 5.53245385531e-39
-0.0756285683534 -0.0126728952376 0.217 1.51207993611e-38
-0.0744662112312 -0.0126144947987 0.216 1.49364081014e-38
-0.0743343392724 -0.0127312956765 0.218 1.43832343222e-38
-0.0735129653578 -0.0127312956765 0.218 1.45676255819e-38
-0.0776933064507 -0.0136073022597 0.233 1.51207993611e-38
-0.0725295773224 -0.0128480965543 0.22 1.45676255819e-38
-0.0703970193606 -0.0126144947987 0.216 1.48442124715e-38
-0.0679724592044 -0.0123224926043 0.211 4.79488881641e-39
-0.0684509660262 -0.0125560943598 0.215 5.44025822545e-39
-0.0663824601587 -0.0123224926043 0.211 1.50286037312e-38
-0.0696283942295 -0.0130816983098 0.224 1.50286037312e-38
-0.06632782749 -0.0126144947987 0.216 1.47520168416e-38
-0.0649073781056 -0.012497693921 0.214 1.51207993611e-38
-0.0632024620672 -0.0123224926043 0.211 9.77452762495e-39
-0.0629990024737 -0.0124392934821 0.213 1.28169834104e-38
-0.063364476188 -0.0126728952376 0.217 1.52140697869e-38
-0.0611056979228 -0.0123808930432 0.212 1.17106358521e-38
-0.0588845973602 -0.0120888908488 0.207 8.85257132632e-39
-0.0586660666856 -0.0122056917265 0.209 1.46608960077e-38
-0.0573247404764 -0.0120888908488 0.207 1.41999178584e-38
-0.0565448120346 -0.0120888908488 0.207 1.40155265987e-38
-0.0552260924469 -0.011972089971 0.205 1.46608960077e-38
-0.0600318834014 -0.0131984991876 0.226 5.25694176165e-39
-0.0562999069683 -0.0125560943598 0.215 4.88815924219e-39
-0.0536831905293 -0.0121472912877 0.208 1.42921134883e-38
-0.0526451698253 -0.0120888908488 0.207 1.45687003778e-38
-0.0503619010535 -0.0117384882155 0.201 1.57672435661e-38
-0.0520724687472 -0.0123224926043 0.211 1.50296785272e-38
-0.0498193421374 -0.011972089971 0.205 1.45687003778e-38
-0.0526357503997 -0.0128480965543 0.22 1.4660897409e-38
-0.0536907260698 -0.0133153000653 0.228 1.53984624479e-38
-0.0481973170446 -0.0121472912877 0.208 1.49374842986e-38
-0.0465018204318 -0.0119136895321 0.204 5.6257256824e-39
-0.0455090129708 -0.0118552890932 0.203 4.62770410052e-40
-0.0445237410503 -0.0117968886544 0.202 1.08808765846e-38
-0.0444125918279 -0.011972089971 0.205 1.56750493375e-38
-0.04278868285 -0.0117384882155 0.201 1.49374842986e-38
-0.0470500310033 -0.0131400987487 0.225 1.49378388271e-38
-0.0457915957396 -0.0130232978709 0.223 1.48456431972e-38
-0.0415245959309 -0.0120304904099 0.206 1.53988169764e-38
-0.0399572035067 -0.0117968886544 0.202 1.49374828973e-38
-0.0388080335803 -0.0116800877766 0.2 1.41999178584e-38
-0.0384350243255 -0.0117968886544 0.202 1.48452886687e-38
-0.0378604393623 -0.0118552890932 0.203 3.32083493582e-39
-0.0367301082871 -0.0117384882155 0.201 2.03009611773e-39
-0.037404539162 -0.0122056917265 0.209 1.42921134883e-38
-0.0381938870295 -0.0127312956765 0.218 1.50296785272e-38
-0.0346295763725 -0.0117968886544 0.202 1.50296785272e-38
-0.0331978236773 -0.0115632868988 0.198 1.46608960077e-38
-0.0324518051677 -0.0115632868988 0.198 1.52140697869e-38
-0.0315456564224 -0.0115048864599 0.197 1.11574620729e-38
-0.0311161306139 -0.0116216873377 0.199 1.29091790403e-38
-0.0299085602486 -0.0114464860211 0.196 1.45687003778e-38
-0.0288724234297 -0.0113296851433 0.194 1.6504808605e-38
-0.0306074816301 -0.0123224926043 0.211 1.06964839236e-38
-0.0285408596476 -0.0117968886544 0.202 9.59013636522e-39
-0.0270921519863 -0.0115048864599 0.197 1.47530916376e-38
-0.026349901247 -0.0115048864599 0.197 1.43843091181e-38
-0.0253476743603 -0.0113880855822 0.195 1.4476504748e-38
-0.0248653997683 -0.0115048864599 0.197 1.52140697869e-38
-0.0246129591615 -0.0117384882155 0.201 1.17106358521e-38
-0.0230248440009 -0.0113296851433 0.194 8.3227039432e-40
-0.0222938965723 -0.0113296851433 0.194 5.07326936803e-39
-0.022229844478 -0.0116800877766 0.2 1.36474629453e-38
-0.0214762904279 -0.0116800877766 0.2 1.47538105037e-38
-0.0201010542865 -0.0113296851433 0.194 1.49382017634e-38
-0.0194699527695 -0.0113880855822 0.195 1.41084410946e-38
-0.0186391594293 -0.0113296851433 0.194 1.43850279842e-38
-0.0177235912584 -0.0112128842655 0.192 1.44772236141e-38
-0.0178856053792 -0.0117968886544 0.202 1.40162468661e-38
-0.016785416466 -0.0115632868988 0.198 1.44772250154e-38
-0.0154723485337 -0.0111544838266 0.191 1.44772250154e-38
-0.0147527044159 -0.0111544838266 0.191 5.34985765892e-39
-0.0141065318179 -0.0112128842655 0.192 2.21520624357e-39
-0.0132437124306 -0.0110960833878 0.19 6.45620521728e-39
-0.0123959641242 -0.01097928251 0.188 1.5399181314e-38
-0.0118741279445 -0.0111544838266 0.191 1.43850293855e-38
-0.0110376829489 -0.0110376829489 0.189 1.3831854205e-38
-0.0105987377147 -0.0113296851433 0.194 1.39244057647e-38
-0.0104273041683 -0.011972089971 0.205 1.42931854816e-38
-0.00941942562628 -0.0116800877766 0.2 1.42931854816e-38
-0.0084058954289 -0.0113296851433 0.194 1.42009926543e-38
-0.00751670164978 -0.0110960833878 0.19 1.42928323544e-38
-0.00672923766742 -0.01097928251 0.188 1.33705215272e-38
-0.00598887081319 -0.0109208820711 0.187 3.87437445389e-39
-0.00531255605322 -0.01097928251 0.188 2.12373648631e-39
-0.00462870575276 -0.0110376829489 0.189 6.54912391715e-39
-0.00393731991179 -0.0110960833878 0.19 1.49392807632e-38
-0.00325535349644 -0.0112128842655 0.192 1.30953653634e-38
-0.00276931113413 -0.0122640921654 0.21 1.41095172919e-38
-0.00194040167901 -0.0120304904099 0.206 1.44783026139e-38
-0.0010964211429 -0.0113296851433 0.194 1.44779480854e-38
-0.000357938173799 -0.0110960833878 0.19 1.40169727387e-38
0.000354170403548 -0.01097928251 0.188 1.44772250154e-38
0.00105685955527 -0.0109208820711 0.187 1.42928337557e-38
0.00175201316649 -0.0108624816322 0.186 1.52147900543e-38
0.00245281843308 -0.0108624816322 0.186 1.24489211584e-38
0.00318753363193 -0.01097928251 0.188 4.1513144707e-39
0.00387515170265 -0.0109208820711 0.187 4.8888795096e-39
0.00455523423287 -0.0108624816322 0.186 1.40162468661e-38
0.00528429777635 -0.0109208820711 0.187 1.4753811905e-38
0.00598887081319 -0.0109208820711 0.187 1.38329304023e-38
0.00669344385004 -0.0109208820711 0.187 1.43861041814e-38
0.00727933212399 -0.0107456807545 0.184 1.53080604801e-38
0.00805926056585 -0.0108624816322 0.186 1.21734090647e-38
0.00876006583244 -0.0108624816322 0.186 5.35093245484e-39
0.00946087109904 -0.0108624816322 0.186 8.85436638965e-39
0.0101616763656 -0.0108624816322 0.186 1.42017129217e-38
0.0108040811933 -0.0108040811933 0.185 1.43861041814e-38
0.0113767822714 -0.0106872803156 0.183 1.59519991634e-38
0.0121322202067 -0.0107456807545 0.184 1.38314996765e-38
0.0127557861831 -0.0106872803156 0.183 1.35552687168e-38
0.0132983450992 -0.0105704794378 0.181 1.5214788653e-38
0.0139803115145 -0.0105704794378 0.181 1.49382017634e-38
0.0148242920506 -0.0106872803156 0.183 1.50307533231e-38
0.0155137940065 -0.0106872803156 0.183 1.49385548906e-38
0.0161147533614 -0.0106288798767 0.182 1.47541636309e-38
0.0168927979182 -0.0106872803156 0.183 1.41988458651e-38
0.0176783780154 -0.0107456807545 0.184 3.68854125805e-39
0.0183716477415 -0.0107456807545 0.184 1.93790329046e-39
0.0189613037857 -0.0106872803156 0.183 6.08742269783e-39
0.0197581871937 -0.0107456807545 0.184 1.62289405815e-38
0.0204514569198 -0.0107456807545 0.184 1.44783026139e-38
0.020799975668 -0.0105704794378 0.181 1.44790186774e-38
0.0214819420833 -0.0105704794378 0.181 1.49399968267e-38
0.0220414559655 -0.0105120789989 0.18 1.47541608283e-38
0.0227196546106 -0.0105120789989 0.18 1.48463592608e-38
0.0233978532557 -0.0105120789989 0.18 1.48463592608e-38
0.0240760519008 -0.0105120789989 0.18 1.53995358425e-38
0.0244792033176 -0.0103952781212 0.178 1.50303973933e-38
0.0251498664222 -0.0103952781212 0.178 1.49382017634e-38
0.0258205295268 -0.0103952781212 0.178 1.50303987946e-38
0.0264911926314 -0.0103952781212 0.178 6.54840084714e-39
0.027161855736 -0.0103952781212 0.178 4.98071920966e-39
0.0278325188405 -0.0103952781212 0.178 1.56948090471e-39
0.0285031819451 -0.0103952781212 0.178 1.19879430091e-38
0.0293377430556 -0.0104536785601 0.179 1.54913755426e-38
0.0301798397066 -0.0105120789989 0.18 1.5214788653e-38
0.0308580383517 -0.0105120789989 0.18 1.49385576932e-38
0.0315362369968 -0.0105120789989 0.18 1.51229461503e-38
0.0318564974681 -0.0103952781212 0.178 1.4661968001e-38
0.0327098974298 -0.0104536785601 0.179 1.47548867009e-38
0.0335708329321 -0.0105120789989 0.18 1.4662691071e-38
0.0340587591795 -0.0104536785601 0.179 1.45704954412e-38
0.0345391498865 -0.0103952781212 0.178 1.47538105037e-38
0.0350120050529 -0.0103368776823 0.177 1.44772236141e-38
0.0356789003872 -0.0103368776823 0.177 1.5306266818e-38
0.0363457957216 -0.0103368776823 0.177 1.0604289695e-38
0.0370126910559 -0.0103368776823 0.177 4.79596501363e-39
0.0376795863903 -0.0103368776823 0.177 5.62752214703e-39
0.038563128514 -0.0103952781212 0.178 1.34641506854e-38
0.0390133770589 -0.0103368776823 0.177 1.40173244646e-38
0.0394560900634 -0.0102784772434 0.176 1.41095200945e-38
0.0410310180281 -0.0105120789989 0.18 1.39251288347e-38
0.0430995238956 -0.0108624816322 0.186 1.40173244646e-38
0.0442713004435 -0.01097928251 0.188 1.4386106984e-38
0.0449796412506 -0.01097928251 0.188 1.20812162375e-38
0.0439868337896 -0.0105704794378 0.181 6.91646730308e-39
0.0429412775451 -0.0101616763656 0.174 7.56183671213e-39
0.0435968695687 -0.0101616763656 0.174 1.18028356858e-38
0.0442524615923 -0.0101616763656 0.174 1.38311395428e-38
0.0454242381402 -0.0102784772434 0.176 1.34623570234e-38
0.0453017856071 -0.0101032759268 0.173 1.4384313322e-38
0.0459536098604 -0.0101032759268 0.173 1.21716182053e-38
0.0460666429679 -0.00998647504899 0.171 1.18950313157e-38
0.0469840950239 -0.0100448754879 0.172 1.30013788741e-38
0.0487398759606 -0.0102784772434 0.176 1.41077264324e-38
0.0485609068737 -0.0101032759268 0.173 1.36467482831e-38
0.049497197781 -0.0101616763656 0.174 1.33701613935e-38
0.0498645553804 -0.0101032759268 0.173 1.3738943913e-38
0.0499323752449 -0.00998647504899 0.171 1.36467482831e-38
0.0505766639578 -0.00998647504899 0.171 1.38311395428e-38
0.0506218772008 -0.00986967417122 0.169 1.36467482831e-38
0.0512586303731 -0.00986967417122 0.169 1.35552673155e-38
0.0528166033717 -0.0100448754879 0.172 1.35552673155e-38
0.0534646598548 -0.0100448754879 0.172 1.35552673155e-38
0.053483498706 -0.0099280746101 0.17 1.35552673155e-38
0.0531688898901 -0.00975287329346 0.167 1.35552673155e-38
0.0541202518784 -0.00981127373234 0.168 1.36474629453e-38
0.0544273251538 -0.00975287329346 0.167 1.3831854205e-38
0.0553862226826 -0.00981127373234 0.168 1.40162454648e-38
0.0563526557518 -0.00986967417122 0.169 1.39240498349e-38
0.0566521934867 -0.00981127373234 0.168 1.40162454648e-38
0.0583081285118 -0.00998647504899 0.171 1.40162454648e-38
0.0596419191805 -0.0101032759268 0.173 1.39240498349e-38
0.0592481871893 -0.0099280746101 0.17 1.39240498349e-38
0.0602409946503 -0.00998647504899 0.171 1.40162454648e-38
0.0608852833632 -0.00998647504899 0.171 1.40162454648e-38
0.061529572076 -0.00998647504899 0.171 1.37396585752e-38
0.0614466811305 -0.00986967417122 0.169 1.38311367402e-38
0.0628181495017 -0.00998647504899 0.171 1.39233323701e-38
0.0616068113662 -0.00969447285457 0.166 1.39233323701e-38
0.0641067269274 -0.00998647504899 0.171 1.4015528e-38
0.06437235473 -0.0099280746101 0.17 1.41999192597e-38
0.0650128756726 -0.0099280746101 0.17 1.41999192597e-38
0.0656533966152 -0.0099280746101 0.17 1.41999192597e-38
0.065124024895 -0.00975287329346 0.167 1.41999192597e-38
0.066146974518 -0.00981127373234 0.168 1.44765061493e-38
0.0663824601587 -0.00975287329346 0.167 1.44765061493e-38
0.0670116777905 -0.00975287329346 0.167 1.44765061493e-38
0.0688560013281 -0.0099280746101 0.17 1.44765061493e-38
0.0699053253429 -0.00998647504899 0.171 1.42921148896e-38
0.071787326583 -0.0101616763656 0.174 1.42921148896e-38
0.072026579994 -0.0101032759268 0.173 1.43843105194e-38
0.0718381914814 -0.00998647504899 0.171 1.43843105194e-38
0.0716347318879 -0.00986967417122 0.169 1.45694206453e-38
0.0722714850602 -0.00986967417122 0.169 1.45694206453e-38
0.0737710576199 -0.00998647504899 0.171 1.45694206453e-38
0.0744153463328 -0.00998647504899 0.171 1.45694206453e-38
0.0754985802798 -0.0100448754879 0.172 1.42006381258e-38
0.0765893497673 -0.0101032759268 0.173 1.42006381258e-38
0.0754552509219 -0.00986967417122 0.169 1.42006381258e-38
0.0787934953639 -0.0102200768045 0.175 1.42006381258e-38
-0.308748049293 -0.028245089683 0.517 2.12014635964e-39
-0.312140926404 -0.0287367837007 0.526 2.39673324923e-39
-0.314286671561 -0.0291192123811 0.533 2.58112450896e-39
-0.315793779662 -0.0294470083929 0.539 2.4889288791e-39
-0.314345072 -0.0295016410615 0.54 2.4889288791e-39
-0.311153770598 -0.0293923757243 0.538 2.4889288791e-39
-0.307402955314 -0.0292284777184 0.535 2.39673324923e-39
-0.301391477879 -0.0288460490379 0.528 2.30489354918e-39
-0.298267996341 -0.0287367837007 0.526 2.30489354918e-39
-0.296849430842 -0.0287914163693 0.527 2.30489354918e-39
-0.291506732627 -0.0284636203575 0.521 2.30489354918e-39
-0.288987978214 -0.0284089876889 0.52 2.21269791932e-39
-0.293652477785 -0.0290645797125 0.532 2.21269791932e-39
-0.30261223544 -0.0301572330851 0.552 2.12050228945e-39
-0.311965725087 -0.0313045191264 0.573 2.12050228945e-39
-0.317916918198 -0.0321240091559 0.588 1.93538936102e-39
-0.321070541898 -0.0326703358422 0.598 2.39636751033e-39
-0.339076715925 -0.0347463772502 0.636 5.2544320361e-39
-0.12783667683 -0.0143137591817 0.262 8.66710527067e-39
-0.120071302343 -0.0135489018208 0.248 1.42910386923e-38
-0.115774160373 -0.0131664731404 0.241 1.3830060543e-38
-0.115819373616 -0.0132757384777 0.243 1.41066474326e-38
-0.115849515778 -0.013385003815 0.245 6.36221452408e-39
-0.114926412066 -0.013385003815 0.245 6.36221452408e-39
-0.113072669103 -0.0132757384777 0.243 1.35534736534e-38
-0.112157100932 -0.0132757384777 0.243 1.45676255819e-38
-0.113988237274 -0.0136035344895 0.249 1.39222561729e-38
-0.108963915645 -0.0131118404718 0.24 1.41988430625e-38
-0.107159153695 -0.0130025751345 0.238 1.41066474326e-38
-0.105815943601 -0.0129479424659 0.237 1.47520168416e-38
-0.104480269047 -0.0128933097973 0.236 5.99343200463e-39
-0.107541582375 -0.013385003815 0.245 2.02901992051e-39
-0.105312946272 -0.0132211058091 0.242 1.35534736534e-38
-0.103538326484 -0.0131118404718 0.24 1.36456692833e-38
-0.100495852007 -0.0128386771286 0.235 1.36456692833e-38
-0.100034300151 -0.0128933097973 0.236 1.45676255819e-38
-0.0970445744574 -0.0126201464541 0.231 1.41066474326e-38
-0.10241929872 -0.0134396364836 0.246 1.39222561729e-38
-0.0973667188138 -0.0128933097973 0.236 1.17095610562e-38
-0.0940247066016 -0.0125655137855 0.23 1.84462866078e-39
-0.0919430135382 -0.0124016157796 0.227 9.12808341998e-39
-0.0930940673497 -0.0126747791227 0.232 1.47520168416e-38
-0.0906299456059 -0.0124562484482 0.228 1.32768867638e-38
-0.0944956778829 -0.0131118404718 0.24 1.45676255819e-38
-0.0885218781507 -0.0124016157796 0.227 1.23549276626e-38
-0.0872803978532 -0.0123469831109 0.226 1.32768839612e-38
-0.086811310457 -0.0124016157796 0.227 1.4752014039e-38
-0.0867133484305 -0.0125108811168 0.229 1.15251669938e-38
-0.0832262770636 -0.0121284524364 0.222 7.56075490971e-39
-0.0849877096557 -0.0125108811168 0.229 1.43832315196e-38
-0.0826554598707 -0.0122923504423 0.225 1.42910358897e-38
-0.0814441217351 -0.0122377177737 0.224 1.40144490001e-38
-0.0791608529633 -0.0120191870991 0.22 1.36456692833e-38
-0.0783319435082 -0.0120191870991 0.22 3.87293251777e-39
-0.0760938879794 -0.0118006564246 0.216 9.68125719916e-39
-0.0749315308571 -0.011746023756 0.215 1.57661687701e-38
-0.0734319582974 -0.0116367584187 0.213 1.53051906208e-38
-0.0739933560647 -0.0118552890932 0.217 1.47520168416e-38
-0.0735129653578 -0.0119099217619 0.218 1.48442124715e-38
-0.0736919344447 -0.0120738197678 0.221 1.47520168416e-38
-0.069892138147 -0.0115821257501 0.212 1.45676255819e-38
-0.0690933708539 -0.0115821257501 0.212 1.19861479457e-38
-0.067650314848 -0.0114728604128 0.21 4.61694212832e-40
-0.0668590830954 -0.0114728604128 0.21 6.91538830326e-39
-0.0654386337109 -0.0113635950756 0.208 1.48442124715e-38
-0.0718042815492 -0.0126201464541 0.231 1.43832343222e-38
-0.0666349007655 -0.0118552890932 0.217 1.49364081014e-38
-0.0646040726004 -0.0116367584187 0.213 1.41988430625e-38
-0.0629029243323 -0.0114728604128 0.21 1.4476504748e-38
-0.0624074625444 -0.0115274930814 0.211 1.48452872674e-38
-0.0619044652159 -0.0115821257501 0.212 1.42921134883e-38
-0.0605292290745 -0.0114728604128 0.21 3.41302916438e-39
-0.0648583970923 -0.0124562484482 0.228 2.39887723588e-39
-0.0628765499406 -0.0122377177737 0.224 1.41077222285e-38
-0.0584324649301 -0.0115274930814 0.211 1.39233309688e-38
-0.0565448120346 -0.0113089624069 0.207 1.40155265987e-38
-0.0554954880198 -0.0112543297383 0.206 1.43843091181e-38
-0.0552505829535 -0.0113635950756 0.208 1.46608960077e-38
-0.0544668867414 -0.0113635950756 0.208 1.49374828973e-38
-0.054715559578 -0.0115821257501 0.212 1.50296785272e-38
-0.0579859841554 -0.0124562484482 0.228 1.35545484493e-38
-0.0526169115484 -0.0114728604128 0.21 4.51937672274e-39
-0.0523192576986 -0.0115821257501 0.212 8.20720191727e-39
-0.0500623633186 -0.0112543297383 0.206 1.50296785272e-38
-0.0495254560579 -0.0113089624069 0.207 1.52140711882e-38
-0.048745527616 -0.0113089624069 0.207 1.48452886687e-38
-0.0470387276925 -0.0110904317324 0.203 1.50296799285e-38
-0.0478695210328 -0.0114728604128 0.21 9.22135524707e-39
-0.0468541069503 -0.0114182277442 0.209 7.19305139008e-39
-0.04474415561 -0.0110904317324 0.203 1.4660897409e-38
-0.0439792982491 -0.0110904317324 0.203 1.54906580778e-38
-0.0425758038308 -0.0109265337265 0.2 1.43843105194e-38
-0.0430769172741 -0.0112543297383 0.206 1.31861218597e-38
-0.0414793826879 -0.0110357990638 0.202 1.53988169764e-38
-0.0403151416805 -0.0109265337265 0.2 1.46612519375e-38
-0.0397593955685 -0.0109811663951 0.201 1.49374828973e-38
-0.0388080335803 -0.0109265337265 0.2 1.54906566765e-38
-0.0378642071325 -0.0108719010579 0.199 1.18028328832e-38
-0.0373009254801 -0.0109265337265 0.2 2.78379150326e-40
-0.03654737143 -0.0109265337265 0.2 3.96620434486e-39
-0.0375835082489 -0.0114728604128 0.21 1.54906566765e-38
-0.0367922764963 -0.0114728604128 0.21 1.47530916376e-38
-0.0337724086405 -0.0107626357206 0.197 1.47530916376e-38
-0.0326948263488 -0.0106533703833 0.195 1.50296785272e-38
-0.0321240091559 -0.010708003052 0.196 1.47530916376e-38
-0.0313855261868 -0.010708003052 0.196 1.57672435661e-38
-0.0311161306139 -0.0108719010579 0.199 1.50296785272e-38
-0.0300611549437 -0.0107626357206 0.197 1.46608960077e-38
-0.0293189042044 -0.0107626357206 0.197 1.14340489625e-38
-0.0311877182486 -0.011746023756 0.215 1.93789908657e-39
-0.0288234424164 -0.011145064401 0.204 2.21448597616e-39
-0.026817104758 -0.0106533703833 0.195 1.39233309688e-38
-0.0260823895592 -0.0106533703833 0.195 1.43843091181e-38
-0.025087698213 -0.0105441050461 0.193 1.4476504748e-38
-0.0246129591615 -0.0106533703833 0.195 1.41999178584e-38
-0.0242456015621 -0.0108172683892 0.198 1.50296785272e-38
-0.0231435287638 -0.0106533703833 0.195 1.41084410946e-38
-0.0227535645429 -0.0108172683892 0.198 1.46616148738e-38
-0.0244528289258 -0.0120191870991 0.22 1.42928323544e-38
-0.0226574864015 -0.0115274930814 0.211 1.42928323544e-38
-0.0206191226959 -0.0108719010579 0.199 7.10157322503e-39
-0.0195697986812 -0.010708003052 0.196 4.24350869926e-39
-0.0184470031465 -0.0104894723774 0.192 1.3186484796e-38
-0.0176312808873 -0.0104348397088 0.191 1.40162454648e-38
-0.0170001793703 -0.0104894723774 0.192 1.49382031647e-38
-0.0164463171435 -0.0105987377147 0.194 1.43850293855e-38
-0.0156343626545 -0.0105441050461 0.193 1.45694206453e-38
-0.0157568151876 -0.011145064401 0.204 8.76109596386e-39
-0.0156494337355 -0.0116367584187 0.213 4.8888795096e-39
-0.0138013424276 -0.0108172683892 0.198 1.30942905674e-38
-0.0125937720623 -0.0104348397088 0.191 1.38318556063e-38
-0.0117497915262 -0.0103255743715 0.189 1.46616162751e-38
-0.0109208820711 -0.0102163090343 0.187 1.28177022766e-38
-0.0103255743715 -0.0103255743715 0.189 1.28177022766e-38
-0.00971519559095 -0.0104348397088 0.191 1.45697751738e-38
-0.00894845434497 -0.0103802070402 0.19 1.38322073323e-38
-0.00827590735525 -0.0104348397088 0.191 1.41087970244e-38
-0.00759582482504 -0.0104894723774 0.192 1.42928323544e-38
-0.00715876347598 -0.0109265337265 0.2 1.30939346376e-38
-0.00618102709597 -0.0105441050461 0.193 3.04461378512e-39
-0.00531255605322 -0.0102709417029 0.188 1.75495116426e-39
-0.0045797247395 -0.0102163090343 0.187 9.86852252204e-39
-0.00389587443903 -0.0102709417029 0.188 1.42939113542e-38
-0.00323839853032 -0.0104348397088 0.191 1.42017129217e-38
-0.0025583160001 -0.0105987377147 0.194 1.47548867009e-38
-0.00184620742275 -0.010708003052 0.196 1.41095200945e-38
-0.00106816286602 -0.0103255743715 0.189 1.40173258659e-38
-0.000352286518423 -0.0102163090343 0.187 1.42013611958e-38
0.000352286518423 -0.0102163090343 0.187 1.43850293855e-38
0.00105685955527 -0.0102163090343 0.187 1.43850293855e-38
0.00176143259212 -0.0102163090343 0.187 1.4753811905e-38
0.00245281843308 -0.0101616763656 0.186 7.00937899646e-39
0.00317057866581 -0.0102163090343 0.187 3.41374943179e-39
0.00385442896628 -0.0101616763656 0.186 1.93861935398e-39
0.00455523423287 -0.0101616763656 0.186 1.32786818272e-38
0.00528429777635 -0.0102163090343 0.187 1.4753811905e-38
0.00592481871893 -0.010107043697 0.185 1.4017321662e-38
0.00665765003266 -0.0101616763656 0.186 1.42017129217e-38
0.00731889371162 -0.010107043697 0.185 1.41095172919e-38
0.00797260185009 -0.0100524110284 0.184 1.4662691071e-38
0.00876006583244 -0.0101616763656 0.186 1.47548867009e-38
0.00946087109904 -0.0101616763656 0.186 1.49392779606e-38
0.0101616763656 -0.0101616763656 0.186 1.48470823308e-38
0.0108040811933 -0.010107043697 0.185 1.44782998113e-38
0.0115011186897 -0.010107043697 0.185 1.11578264105e-38
0.012198156186 -0.010107043697 0.185 3.22900224225e-39
0.0128254899327 -0.0100524110284 0.184 2.21520624357e-39
0.013445288139 -0.00999777835974 0.183 1.3186484796e-38
0.0140575508047 -0.00994314569111 0.182 1.47538105037e-38
0.0147432849903 -0.00994314569111 0.182 1.47541664335e-38
0.0154290191759 -0.00994314569111 0.182 1.4661968001e-38
0.0161147533614 -0.00994314569111 0.182 1.49385548906e-38
0.016800487547 -0.00994314569111 0.182 1.56750521401e-38
0.0177744561568 -0.010107043697 0.185 1.06964881275e-38
0.0184714936531 -0.010107043697 0.185 8.29939894843e-39
0.0191685311495 -0.010107043697 0.185 1.34630730869e-38
0.0196508057416 -0.00999777835974 0.183 1.45694206453e-38
0.020229158475 -0.00994314569111 0.182 1.53080632827e-38
0.020799975668 -0.00988851302247 0.181 1.45704982438e-38
0.0213632573204 -0.00983388035384 0.18 1.20812162375e-38
0.0220414559655 -0.00983388035384 0.18 1.2633664144e-38
0.022845874914 -0.00988851302247 0.181 1.53995330399e-38
0.0235278413293 -0.00988851302247 0.181 1.49385576932e-38
0.023808540213 -0.00972461501658 0.178 1.52151445828e-38
0.0244792033176 -0.00972461501658 0.178 1.50307533231e-38
0.0251498664222 -0.00972461501658 0.178 1.5214788653e-38
0.0258205295268 -0.00972461501658 0.178 1.50303973933e-38
0.0264911926314 -0.00972461501658 0.178 6.08742129653e-39
0.027161855736 -0.00972461501658 0.178 2.30740187343e-39
0.0278325188405 -0.00972461501658 0.178 3.78253195124e-39
0.0285031819451 -0.00972461501658 0.178 1.30942905674e-38
0.0293377430556 -0.00977924768521 0.179 1.51225930231e-38
0.0300121739305 -0.00977924768521 0.179 1.44772236141e-38
0.0305151712589 -0.00972461501658 0.178 1.53073402127e-38
0.0311858343635 -0.00972461501658 0.178 1.51229489529e-38
0.032035466555 -0.00977924768521 0.179 1.50307533231e-38
0.0327098974298 -0.00977924768521 0.179 1.47548867009e-38
0.0335708329321 -0.00983388035384 0.18 1.4662691071e-38
0.0340587591795 -0.00977924768521 0.179 1.45704954412e-38
0.0345391498865 -0.00972461501658 0.178 1.47538105037e-38
0.0352098129911 -0.00972461501658 0.178 1.50303973933e-38
0.0358804760956 -0.00972461501658 0.178 1.36467454805e-38
0.0365511392002 -0.00972461501658 0.178 5.07255190322e-39
0.0374309135537 -0.00977924768521 0.179 2.8598567865e-39
0.0381053444286 -0.00977924768521 0.179 1.29432754345e-39
0.0389964220928 -0.00983388035384 0.18 1.16202380881e-38
0.0392337916186 -0.00972461501658 0.178 1.45704982438e-38
0.0396802723933 -0.00966998234794 0.177 1.41095200945e-38
0.0405751178278 -0.00972461501658 0.178 1.39251288347e-38
0.0417092166732 -0.00983388035384 0.18 1.38329332049e-38
0.0430938722403 -0.00999777835974 0.183 1.39251288347e-38
0.044022627607 -0.0100524110284 0.184 1.39251288347e-38
0.0452019396954 -0.0101616763656 0.186 1.42921176921e-38
0.0449155891564 -0.00994314569111 0.182 1.39233351727e-38
0.044849653177 -0.00977924768521 0.179 1.44765089519e-38
0.0452697595599 -0.00972461501658 0.178 1.41999220623e-38
0.0456823304024 -0.00966998234794 0.177 1.41999220623e-38
0.0458255056719 -0.00956071701068 0.175 1.08808793872e-38
0.0462192376631 -0.00950608434205 0.174 3.87401151759e-39
0.0466054341137 -0.00945145167341 0.173 3.41303336828e-39
0.0472572583671 -0.00945145167341 0.173 8.94477116008e-39
0.047632151507 -0.00939681900478 0.172 1.38311395428e-38
0.0482802079901 -0.00939681900478 0.172 1.36467482831e-38
0.0489282644732 -0.00939681900478 0.172 1.36467482831e-38
0.0492880865321 -0.00934218633615 0.171 1.36467482831e-38
0.0499323752449 -0.00934218633615 0.171 1.34623570234e-38
0.0505766639578 -0.00934218633615 0.171 1.36467482831e-38
0.0512209526706 -0.00934218633615 0.171 1.36467482831e-38
0.050955324868 -0.00917828833025 0.168 1.35552673155e-38
0.0522024568209 -0.00928755366752 0.17 1.35552673155e-38
0.0531538188091 -0.00934218633615 0.171 1.35552673155e-38
0.0531688898901 -0.00923292099888 0.169 1.35552673155e-38
0.0538056430625 -0.00923292099888 0.169 1.35552673155e-38
0.0547645405912 -0.00928755366752 0.17 1.36474629453e-38
0.0547532372805 -0.00917828833025 0.168 1.3831854205e-38
0.0553862226826 -0.00917828833025 0.168 1.39240498349e-38
0.056686103419 -0.00928755366752 0.17 1.39240498349e-38
0.057663839799 -0.00934218633615 0.171 1.40162454648e-38
0.0583081285118 -0.00934218633615 0.171 1.40162454648e-38
0.0589524172247 -0.00934218633615 0.171 1.39240498349e-38
0.0592481871893 -0.00928755366752 0.17 1.39240498349e-38
0.0598887081319 -0.00928755366752 0.17 1.40162454648e-38
0.0605292290745 -0.00928755366752 0.17 1.39240498349e-38
0.061529572076 -0.00934218633615 0.171 1.37396585752e-38
0.0618102709597 -0.00928755366752 0.17 1.38311367402e-38
0.0620834343028 -0.00923292099888 0.169 1.38311367402e-38
0.0616068113662 -0.00906902299299 0.166 1.39233323701e-38
0.0633569406475 -0.00923292099888 0.169 1.39233323701e-38
0.0647510156402 -0.00934218633615 0.171 1.41999192597e-38
0.0646304469922 -0.00923292099888 0.169 1.41999192597e-38
0.0644948072632 -0.00912365566162 0.167 1.41999192597e-38
0.0647340606741 -0.00906902299299 0.166 1.41999192597e-38
0.066146974518 -0.00917828833025 0.168 1.44765061493e-38
0.0663824601587 -0.00912365566162 0.167 1.44765061493e-38
0.0690180154489 -0.00939681900478 0.172 1.44765061493e-38
0.0708811778378 -0.00956071701068 0.175 1.44765061493e-38
0.0711317345595 -0.00950608434205 0.174 1.42921148896e-38
0.0705496140557 -0.00934218633615 0.171 1.42921148896e-38
0.0707775641559 -0.00928755366752 0.17 1.43843105194e-38
0.0718381914814 -0.00934218633615 0.171 1.43843105194e-38
0.0720586060411 -0.00928755366752 0.17 1.43850293855e-38
0.0718438431368 -0.00917828833025 0.168 1.43850293855e-38
0.0733396479263 -0.00928755366752 0.17 1.43850293855e-38
0.0744153463328 -0.00934218633615 0.171 1.43850293855e-38
0.0746206898114 -0.00928755366752 0.17 1.42928337557e-38
0.0765893497673 -0.00945145167341 0.173 1.42928337557e-38
0.0785806163447 -0.00961534967931 0.176 1.42928337557e-38
-0.308748049293 -0.0262971524635 0.517 2.12014635964e-39
-0.31036065496 -0.0266023418538 0.523 2.39673324923e-39
-0.313107359473 -0.0270092610408 0.531 2.58112450896e-39
-0.31403611484 -0.0272635855327 0.536 2.67332013882e-39
-0.313762951497 -0.0274161802279 0.539 2.67332013882e-39
-0.313467181532 -0.027568774923 0.542 2.67332013882e-39
-0.30855212524 -0.0273144504311 0.537 2.67332013882e-39
-0.299108209107 -0.0266532067521 0.524 2.4889288791e-39
-0.292597502114 -0.0262462875651 0.516 2.4889288791e-39
-0.290653332665 -0.0262462875651 0.516 2.4889288791e-39
-0.289268677098 -0.0262971524635 0.517 2.4889288791e-39
-0.288987978214 -0.0264497471586 0.52 2.58112450896e-39
-0.30193215291 -0.0278230994149 0.547 2.4889288791e-39
-0.311383604583 -0.0288912622809 0.568 2.4889288791e-39
-0.316865710298 -0.0296033708583 0.582 2.39673324923e-39
-0.315213543043 -0.0296542357567 0.583 2.94954128951e-39
-0.318386005594 -0.0301628847405 0.593 2.02758499088e-39
-0.134724160848 -0.0139369821567 0.274 1.56804177119e-39
-0.12393326685 -0.012919684189 0.254 6.17782326436e-39
-0.120071302343 -0.0126144947987 0.248 1.41066474326e-38
-0.115774160373 -0.01225844051 0.241 1.3184691134e-38
-0.116295996552 -0.0124110352052 0.244 1.37378649132e-38
-0.117268081277 -0.0126144947987 0.248 1.40144518027e-38
-0.115395499462 -0.012512765002 0.246 1.39222561729e-38
-0.113072669103 -0.0123601703068 0.243 1.45676255819e-38
-0.110772445365 -0.0122075756117 0.24 5.34806259559e-39
-0.109868180505 -0.0122075756117 0.24 6.36221452408e-39
-0.10941793196 -0.01225844051 0.241 1.42910386923e-38
-0.112111887689 -0.0126653596971 0.249 1.3184691134e-38
-0.107155385925 -0.0122075756117 0.24 1.41066474326e-38
