VERSION .7
FIELDS x y z rgb
SIZE 4 4 4 4
TYPE F F F F
COUNT 1 1 1 1
WIDTH 856
HEIGHT 1
VIEWPOINT 0 0 0 1 0 0 0
POINTS 856
DATA ascii
-0.0343262708673 0.0240025803809 0.137 1.31846883314e-38
-0.0343036642458 0.0243529830142 0.139 1.33690795911e-38
-0.0335369229998 0.0241777816975 0.138 1.32768839612e-38
-0.0330169707053 0.0241777816975 0.138 1.33690795911e-38
-0.03226153277 0.0240025803809 0.137 1.31846883314e-38
-0.0315136303753 0.0238273790643 0.136 1.31846883314e-38
-0.0310012136212 0.0238273790643 0.136 1.32768839612e-38
-0.0307129791971 0.0240025803809 0.137 1.29081014418e-38
-0.0299763801131 0.0238273790643 0.136 1.33690795911e-38
-0.0290306697802 0.023476976431 0.134 1.3461275221e-38
-0.0289515466049 0.0238273790643 0.136 1.32768839612e-38
-0.0280209073531 0.023476976431 0.134 1.31850428599e-38
-0.0275160261395 0.023476976431 0.134 1.309284723e-38
-0.0272127206343 0.0236521777476 0.135 1.31850428599e-38
-0.0267040716505 0.0236521777476 0.135 1.31850428599e-38
-0.0258073423309 0.0233017751143 0.133 1.32772384897e-38
-0.0254965012852 0.023476976431 0.134 1.33694341196e-38
-0.0248051154443 0.0233017751143 0.133 1.35538253793e-38
-0.0243040020009 0.0233017751143 0.133 1.31850428599e-38
-0.0239818576445 0.023476976431 0.134 1.32768839612e-38
-0.0233017751143 0.0233017751143 0.133 1.32768839612e-38
-0.0226292281246 0.0231265737977 0.132 1.31846883314e-38
-0.0221318824515 0.0231265737977 0.132 1.32768839612e-38
-0.0217984347843 0.0233017751143 0.133 1.32768839612e-38
-0.0214574515767 0.023476976431 0.134 1.35534708508e-38
-0.0211089328285 0.0236521777476 0.135 1.33690795911e-38
-0.0206002838447 0.0236521777476 0.135 1.31846883314e-38
-0.019942807936 0.023476976431 0.134 1.31846883314e-38
-0.0192928675678 0.0233017751143 0.133 1.30924927015e-38
-0.0189330455088 0.023476976431 0.134 1.30002970716e-38
-0.0185656879094 0.0236521777476 0.135 1.31846883314e-38
-0.0184583064573 0.0241777816975 0.138 1.3461275221e-38
-0.0179383541627 0.0241777816975 0.138 1.3461275221e-38
-0.0172921815647 0.0240025803809 0.137 1.3461275221e-38
-0.016408639441 0.023476976431 0.134 1.32768839612e-38
-0.0159037582274 0.023476976431 0.134 1.30935717013e-38
-0.0155137940065 0.0236521777476 0.135 1.30013760715e-38
-0.0152274434675 0.0240025803809 0.137 1.30935717013e-38
-0.0147112589431 0.0240025803809 0.137 1.30935717013e-38
-0.0140914607369 0.0238273790643 0.136 1.31857673312e-38
-0.0135790439829 0.0238273790643 0.136 1.30013760715e-38
-0.0130666272288 0.0238273790643 0.136 1.30013760715e-38
-0.0125542104747 0.0238273790643 0.136 1.30935717013e-38
-0.0120417937206 0.0238273790643 0.136 1.30935703e-38
-0.0116141517972 0.0240025803809 0.137 1.31857659299e-38
-0.0110979672729 0.0240025803809 0.137 1.31857659299e-38
-0.0105045434584 0.0238273790643 0.136 1.30935703e-38
-0.00999212670436 0.0238273790643 0.136 1.30935703e-38
-0.00954941369993 0.0240025803809 0.137 1.30013746702e-38
-0.00909916515499 0.0241777816975 0.138 1.30935703e-38
-0.00864138106955 0.0243529830142 0.139 1.31857659299e-38
-0.00811766100473 0.0243529830142 0.139 1.32779615598e-38
-0.00759394093991 0.0243529830142 0.139 1.31857659299e-38
-0.00696849107833 0.0240025803809 0.137 1.30935703e-38
-0.00640520942587 0.0238273790643 0.136 1.30935703e-38
-0.0058927926718 0.0238273790643 0.136 1.30013746702e-38
-0.00541993750536 0.0240025803809 0.137 1.30013746702e-38
-0.00493954679842 0.0241777816975 0.138 1.30013746702e-38
-0.00445162055098 0.0243529830142 0.139 1.30935703e-38
-0.00389964220928 0.0241777816975 0.138 1.32779615598e-38
-0.00335519940808 0.0240025803809 0.137 1.30935703e-38
-0.00283901488376 0.0240025803809 0.137 1.29091790403e-38
-0.00232283035944 0.0240025803809 0.137 1.30935703e-38
-0.00180664583512 0.0240025803809 0.137 1.29091790403e-38
-0.00129988073643 0.0241777816975 0.138 1.29091790403e-38
-0.000785580097232 0.0243529830142 0.139 1.30013746702e-38
-0.000261860032411 0.0243529830142 0.139 1.30935703e-38
0.000261860032411 0.0243529830142 0.139 1.30935703e-38
0.000779928441856 0.0241777816975 0.138 1.28169834104e-38
0.0012904613108 0.0240025803809 0.137 1.30013746702e-38
0.001819833031 0.0241777816975 0.138 1.30013746702e-38
0.0023567402917 0.0243529830142 0.139 1.31857659299e-38
0.0029011830929 0.0245281843308 0.14 1.30935703e-38
0.00342867092797 0.0245281843308 0.14 1.30935703e-38
0.00389964220928 0.0241777816975 0.138 1.30935703e-38
0.00438756845672 0.0240025803809 0.137 1.29091790403e-38
0.00490375298104 0.0240025803809 0.137 1.30935703e-38
0.00541993750536 0.0240025803809 0.137 1.30013746702e-38
0.00597945138757 0.0241777816975 0.138 1.30935703e-38
0.00654650081027 0.0243529830142 0.139 1.30013746702e-38
0.00707022087509 0.0243529830142 0.139 1.30935703e-38
0.00759394093991 0.0243529830142 0.139 1.30013746702e-38
0.00805926056585 0.0241777816975 0.138 1.29091790403e-38
0.00864138106955 0.0243529830142 0.139 1.30017306e-38
0.00916510113438 0.0243529830142 0.139 1.30939262298e-38
0.00975852494883 0.0245281843308 0.14 1.30939262298e-38
0.0103594843038 0.0247033856475 0.141 1.30939262298e-38
0.0108907399091 0.0247033856475 0.141 1.30017306e-38
0.0114219955144 0.0247033856475 0.141 1.31861218597e-38
0.0120380259504 0.0248785869641 0.142 1.32783174896e-38
0.0124845067251 0.0247033856475 0.141 1.30939262298e-38
0.0130157623304 0.0247033856475 0.141 1.31868379232e-38
0.0135470179357 0.0247033856475 0.141 1.31868379232e-38
0.014078273541 0.0247033856475 0.141 1.3094645096e-38
0.0147131428283 0.0248785869641 0.142 1.3094645096e-38
0.0152481662038 0.0248785869641 0.142 1.29102538362e-38
0.0157831895794 0.0248785869641 0.142 1.3094645096e-38
0.0162032959623 0.0247033856475 0.141 1.30942891661e-38
0.0167345515677 0.0247033856475 0.141 1.30020935363e-38
0.017265807173 0.0247033856475 0.141 1.32779629611e-38
0.0179232830817 0.0248785869641 0.142 1.31857673312e-38
0.0185882945309 0.0250537882808 0.143 1.34623528195e-38
0.0191270856767 0.0250537882808 0.143 1.34623528195e-38
0.0196658768226 0.0250537882808 0.143 1.33701571896e-38
0.0203459593528 0.0252289895974 0.144 1.34623528195e-38
0.0207434591142 0.0250537882808 0.143 1.33705131194e-38
0.02128225026 0.0250537882808 0.143 1.34627087493e-38
0.0218210414059 0.0250537882808 0.143 1.35545484493e-38
0.0223598325517 0.0250537882808 0.143 1.34623528195e-38
0.0230587539331 0.0252289895974 0.144 1.37389397091e-38
0.0236013128492 0.0252289895974 0.144 1.35545484493e-38
0.0241438717653 0.0252289895974 0.144 1.34623528195e-38
0.0248578642278 0.0254041909141 0.145 1.34623528195e-38
0.0254041909141 0.0254041909141 0.145 1.34623528195e-38
0.0259505176004 0.0254041909141 0.145 1.33701571896e-38
0.0264968442867 0.0254041909141 0.145 1.30935703e-38
0.0270431709731 0.0254041909141 0.145 1.32779615598e-38
0.0275894976594 0.0254041909141 0.145 1.34623528195e-38
0.0281358243457 0.0254041909141 0.145 1.32779615598e-38
0.0288799589702 0.0255793922307 0.146 1.34623528195e-38
0.0294300534268 0.0255793922307 0.146 1.33701571896e-38
0.030185491362 0.0257545935474 0.147 1.33701571896e-38
0.0307393535888 0.0257545935474 0.147 1.32779615598e-38
0.0312932158156 0.0257545935474 0.147 1.33708760557e-38
0.0318470780425 0.0257545935474 0.147 1.32786804259e-38
0.0324009402693 0.0257545935474 0.147 1.32786804259e-38
0.0329548024961 0.0257545935474 0.147 1.32786804259e-38
0.0335086647229 0.0257545935474 0.147 1.3186484796e-38
0.0340625269498 0.0257545935474 0.147 1.3186484796e-38
0.0348518748173 0.025929794864 0.148 1.32786804259e-38
0.0354095048143 0.025929794864 0.148 1.32786804259e-38
0.0359671348114 0.025929794864 0.148 1.32779615598e-38
0.0365247648085 0.025929794864 0.148 1.31857659299e-38
0.0370823948056 0.025929794864 0.148 1.32779615598e-38
0.0376400248026 0.025929794864 0.148 1.33701571896e-38
0.0384557470619 0.0261049961807 0.149 1.32779615598e-38
0.0390171448292 0.0261049961807 0.149 1.31857659299e-38
0.0395785425965 0.0261049961807 0.149 1.30013746702e-38
0.0401399403639 0.0261049961807 0.149 1.30013746702e-38
0.0407013381312 0.0261049961807 0.149 1.31857673312e-38
0.0412627358985 0.0261049961807 0.149 1.31857673312e-38
0.0418241336658 0.0261049961807 0.149 1.31857673312e-38
0.0426699980871 0.0262801974973 0.15 1.31857673312e-38
0.0432351636246 0.0262801974973 0.15 1.31857673312e-38
0.0438003291622 0.0262801974973 0.15 1.32779629611e-38
0.0446612646645 0.026455398814 0.151 1.32779629611e-38
0.0452301979723 0.026455398814 0.151 1.30935717013e-38
0.0457991312801 0.026455398814 0.151 1.30013746702e-38
0.046368064588 0.026455398814 0.151 1.30013746702e-38
0.0469369978958 0.026455398814 0.151 1.30935703e-38
0.0475059312036 0.026455398814 0.151 1.31857659299e-38
0.0483932410976 0.0266306001306 0.152 1.30935703e-38
0.0489659421757 0.0266306001306 0.152 1.30935703e-38
0.0495386432538 0.0266306001306 0.152 1.30935703e-38
0.0504410242288 0.0268058014473 0.153 1.30935703e-38
0.0513509407443 0.0269810027639 0.154 1.30013746702e-38
0.0519311773628 0.0269810027639 0.154 1.30013746702e-38
0.0525114139814 0.0269810027639 0.154 1.30013746702e-38
0.0530916506 0.0269810027639 0.154 1.30935703e-38
0.0536718872186 0.0269810027639 0.154 1.31857659299e-38
0.0542521238372 0.0269810027639 0.154 1.30935703e-38
0.0548323604557 0.0269810027639 0.154 1.30013746702e-38
0.0561322411922 0.0273314053972 0.156 1.28169834104e-38
0.0567200133512 0.0273314053972 0.156 1.31846883314e-38
0.0573077855103 0.0273314053972 0.156 1.30924927015e-38
0.0575244322997 0.0271562040806 0.155 1.30924927015e-38
0.0588582229684 0.0275066067139 0.157 1.31846883314e-38
0.0594497628977 0.0275066067139 0.157 1.30002970716e-38
0.0600413028271 0.0275066067139 0.157 1.31846883314e-38
0.0606328427564 0.0275066067139 0.157 1.32768839612e-38
0.0616143469067 0.0276818080305 0.158 1.31846883314e-38
0.0622096546062 0.0276818080305 0.158 1.30013760715e-38
0.0632024620672 0.0278570093472 0.159 1.30013760715e-38
0.0638015375371 0.0278570093472 0.159 1.29091804416e-38
0.0644006130069 0.0278570093472 0.159 1.29091804416e-38
0.0649996884767 0.0278570093472 0.159 1.30935717013e-38
0.0705496140557 0.029959425147 0.171 1.30935717013e-38
0.190743368932 0.078840592492 0.45 1.28169848117e-38
0.199708778243 0.081819014875 0.467 1.28169848117e-38
0.212253569292 0.0861990477913 0.492 1.27247891819e-38
0.220634974215 0.088827067541 0.507 1.27247891819e-38
0.222984178966 0.0890022688576 0.508 1.28169848117e-38
0.22357006724 0.0884766649077 0.505 1.28169848117e-38
0.221454464244 0.0868998530579 0.496 1.27247891819e-38
0.220171538474 0.0856734438413 0.489 1.27247891819e-38
0.217019798659 0.0837462293582 0.478 1.30002998742e-38
0.218363008754 0.0835710280415 0.477 1.30002998742e-38
0.222929546297 0.0846222359414 0.483 1.30002998742e-38
0.225214698954 0.0847974372581 0.484 1.30002998742e-38
0.230321911529 0.0860238464746 0.491 1.30002998742e-38
0.239737569385 0.088827067541 0.507 1.30002998742e-38
0.244984189459 0.0900534767575 0.514 1.30002998742e-38
0.243558088419 0.088827067541 0.507 1.29081042444e-38
0.245468347936 0.088827067541 0.507 1.30002970716e-38
0.241523492484 0.0867246517412 0.495 1.29081014418e-38
0.241421762687 0.0860238464746 0.491 1.29081014418e-38
0.24574904682 0.0868998530579 0.496 1.30002970716e-38
0.261097058935 0.0916302886074 0.523 1.27237101821e-38
0.26507959209 0.092331093874 0.527 1.26315145522e-38
0.265038146617 0.0916302886074 0.523 1.27237101821e-38
0.273645617754 0.0939079057238 0.536 1.28159058119e-38
0.289551259867 0.0986383412733 0.563 1.27247919845e-38
0.297371267022 0.100565555756 0.574 1.28169876143e-38
0.301621311864 0.101266361023 0.578 1.28169876143e-38
0.304324687019 0.10144156234 0.579 1.27247919845e-38
0.308623712875 0.102142367606 0.583 1.28169876143e-38
0.313486020383 0.10301837419 0.588 1.28169876143e-38
0.30764786038 0.10039035444 0.573 1.28169876143e-38
0.306562742548 0.0993391465399 0.567 1.28169876143e-38
0.309243511081 0.0995143478566 0.568 1.28159086145e-38
0.309190762298 0.09881354259 0.564 1.27237129847e-38
0.307451936327 0.0975871333734 0.557 1.25393217249e-38
0.302881631013 0.0954847175737 0.545 1.25393217249e-38
0.306054093564 0.0958351202069 0.547 1.26315173548e-38
0.305861937281 0.0951343149404 0.543 1.26315173548e-38
0.306773737682 0.0947839123071 0.541 1.27237129847e-38
0.307099649809 0.0942583083571 0.538 1.27237129847e-38
0.307402955314 0.0937327044072 0.535 1.25393217249e-38
0.299008363196 0.0905790807075 0.517 1.26315173548e-38
0.286985408326 0.0863742491079 0.493 1.26315173548e-38
0.265407388102 0.079366196442 0.453 1.27237129847e-38
0.253552099008 0.075336566159 0.43 1.26315173548e-38
0.247457730628 0.0730589490426 0.417 1.26315173548e-38
0.244251358145 0.0716573385094 0.409 1.25393217249e-38
-0.10271695257 0.0307826829467 0.172 1.27233500484e-38
-0.100288624643 0.030245775686 0.169 1.30921325678e-38
-0.0984725593823 0.0298878375122 0.167 1.24467631588e-38
-0.098378365126 0.030245775686 0.169 1.29077413081e-38
-0.0971632592203 0.0300668065991 0.168 1.27233500484e-38
-0.0976794437446 0.0304247447729 0.17 1.26311544185e-38
-0.0981805571879 0.0307826829467 0.172 1.28159058119e-38
-0.095264303014 0.0300668065991 0.168 1.25393189223e-38
-0.093504754307 0.0297088684253 0.166 1.30002970716e-38
-0.0939983322098 0.0300668065991 0.168 1.27237101821e-38
-0.0939210929197 0.030245775686 0.169 1.28159058119e-38
-0.0910764263805 0.0295298993384 0.165 1.29081014418e-38
-0.0910029548607 0.0297088684253 0.166 1.27237101821e-38
-0.0898330621979 0.0295298993384 0.165 1.30002970716e-38
-0.0892113801065 0.0295298993384 0.165 1.29995838107e-38
-0.0885896980152 0.0295298993384 0.165 1.27229969211e-38
-0.0885011554143 0.0297088684253 0.166 1.25386056614e-38
-0.0857582186719 0.0289929920777 0.162 1.2815192551e-38
-0.0846222359414 0.0288140229908 0.161 1.30917794406e-38
-0.0850592972905 0.0291719611646 0.163 1.2815192551e-38
-0.0834090139208 0.0288140229908 0.161 1.27229969211e-38
-0.0802308997144 0.0279191775563 0.156 1.26308012913e-38
-0.082706324769 0.0289929920777 0.162 1.27229941185e-38
-0.0810824157911 0.0286350539039 0.16 1.25386028588e-38
-0.0799765752225 0.028456084817 0.159 1.29073853783e-38
-0.0788782701945 0.0282771157301 0.158 1.27229941185e-38
-0.0797693478588 0.0288140229908 0.161 1.28151897484e-38
-0.07670426676 0.0279191775563 0.156 1.27229941185e-38
-0.0746527158586 0.0273822702956 0.153 1.27229941185e-38
-0.076012880919 0.0280981466432 0.157 1.28151897484e-38
-0.0763821224035 0.028456084817 0.159 1.23549276626e-38
-0.0729233093136 0.0273822702956 0.153 1.24471232925e-38
-0.0714011301324 0.0270243321218 0.151 1.22627320327e-38
-0.0727085464093 0.0277402084694 0.155 1.25393189223e-38
-0.0730551812723 0.0280981466432 0.157 1.26315145522e-38
-0.0710789857759 0.0275612393825 0.154 1.24471232925e-38
-0.0700409650719 0.0273822702956 0.153 1.26315145522e-38
-0.070372528854 0.0277402084694 0.155 1.25393189223e-38
-0.0684377788303 0.0272033012087 0.152 1.30921325678e-38
-0.0669721162029 0.0268453630349 0.15 1.29999369379e-38
-0.0655215246564 0.0264874248611 0.148 1.29077413081e-38
-0.0671586208303 0.0273822702956 0.153 1.29999369379e-38
-0.066146974518 0.0272033012087 0.152 1.28155456782e-38
-0.0642800443589 0.026666393948 0.149 1.29077413081e-38
-0.0628633627447 0.0263084557742 0.147 1.30921325678e-38
-0.0640049971306 0.0270243321218 0.151 1.31843281977e-38
-0.061755638291 0.0263084557742 0.147 1.34605591574e-38
-0.0607854374515 0.0261294866873 0.146 1.27229941185e-38
-0.060235342995 0.0261294866873 0.146 1.28151897484e-38
-0.0596852485384 0.0261294866873 0.146 1.34605591574e-38
-0.0587301187799 0.0259505176004 0.145 1.31839722679e-38
-0.0577825245619 0.0257715485135 0.144 1.3091776638e-38
-0.0572399656458 0.0257715485135 0.144 1.3091776638e-38
-0.0563036747386 0.0255925794266 0.143 1.29995810081e-38
-0.0573247404764 0.0263084557742 0.147 1.29081042444e-38
-0.0563846817989 0.0261294866873 0.146 1.3184691134e-38
-0.0554521586619 0.0259505176004 0.145 1.32768867638e-38
-0.0537698492451 0.0254136103397 0.142 1.3184691134e-38
-0.0539846121494 0.0257715485135 0.144 1.35534736534e-38
-0.0534420532333 0.0257715485135 0.144 1.3184691134e-38
-0.0532668519166 0.0259505176004 0.145 1.28159086145e-38
-0.0516297557428 0.0254136103397 0.142 1.35534736534e-38
-0.0518143764851 0.0257715485135 0.144 1.31846883314e-38
-0.0509157632803 0.0255925794266 0.143 1.31846883314e-38
-0.0493201125792 0.0250556721659 0.14 1.32768839612e-38
-0.0487926247442 0.0250556721659 0.14 1.30924927015e-38
-0.0482651369091 0.0250556721659 0.14 1.33690795911e-38
-0.0480786322817 0.0252346412528 0.141 1.3461275221e-38
-0.0478845921138 0.0254136103397 0.142 1.32768839612e-38
-0.0463492257367 0.024876703079 0.139 1.30924927015e-38
-0.0458255056719 0.024876703079 0.139 1.32768839612e-38
-0.0456276977337 0.0250556721659 0.14 1.33690795911e-38
-0.0451002098987 0.0250556721659 0.14 1.32768839612e-38
-0.0448910986497 0.0252346412528 0.141 1.33690795911e-38
-0.0443598430444 0.0252346412528 0.141 1.30002970716e-38
-0.0435177463934 0.0250556721659 0.14 1.32768839612e-38
-0.0432973318338 0.0252346412528 0.141 1.33690795911e-38
-0.0424627707233 0.0250556721659 0.14 1.32768839612e-38
-0.0413362074184 0.0246977339921 0.138 1.30935717013e-38
-0.0411120250885 0.024876703079 0.139 1.32779629611e-38
-0.0402963028292 0.0246977339921 0.138 1.31857673312e-38
-0.0397763505347 0.0246977339921 0.138 1.31857673312e-38
-0.0392563982401 0.0246977339921 0.138 1.32779629611e-38
-0.0390171448292 0.024876703079 0.139 1.30013760715e-38
-0.0379395625376 0.0245187649052 0.137 1.31857673312e-38
-0.0371502146701 0.0243397958183 0.136 1.30013760715e-38
-0.0363684023431 0.0241608267314 0.135 1.32768839612e-38
-0.0363910089646 0.0245187649052 0.137 1.33690795911e-38
-0.0358748244403 0.0245187649052 0.137 1.33690795911e-38
-0.0356167321781 0.0246977339921 0.138 1.31846883314e-38
-0.0345881308997 0.0243397958183 0.136 1.31846883314e-38
-0.0340757141456 0.0243397958183 0.136 1.32768839612e-38
-0.033810086343 0.0245187649052 0.137 1.31846883314e-38
-0.0330508806375 0.0243397958183 0.136 1.35534708508e-38
-0.0325384638834 0.0243397958183 0.136 1.31846883314e-38
-0.03226153277 0.0245187649052 0.137 1.31846883314e-38
-0.0312819125049 0.0241608267314 0.135 1.32768839612e-38
-0.0310012136212 0.0243397958183 0.136 1.31846883314e-38
-0.0302646145373 0.0241608267314 0.135 1.33690795911e-38
-0.0297559655534 0.0241608267314 0.135 1.32768839612e-38
-0.0292473165696 0.0241608267314 0.135 1.31846883314e-38
-0.0287386675858 0.0241608267314 0.135 1.31846883314e-38
-0.028230018602 0.0241608267314 0.135 1.31850456625e-38
-0.0275160261395 0.0239818576445 0.134 1.30928500326e-38
-0.0272127206343 0.0241608267314 0.135 1.33694369222e-38
-0.0265062637124 0.0239818576445 0.134 1.30928500326e-38
-0.0258073423309 0.0238028885576 0.133 1.31850456625e-38
-0.0254965012852 0.0239818576445 0.134 1.33694369222e-38
-0.0246186108169 0.0236239194707 0.132 1.30928500326e-38
-0.0241212651438 0.0236239194707 0.132 1.31850456625e-38
-0.0236239194707 0.0236239194707 0.132 1.31846883314e-38
-0.0233017751143 0.0238028885576 0.133 1.32768839612e-38
-0.022800661671 0.0238028885576 0.133 1.32768839612e-38
-0.0222995482277 0.0238028885576 0.133 1.31846883314e-38
-0.0216345367785 0.0236239194707 0.132 1.30924927015e-38
-0.0211371911054 0.0236239194707 0.132 1.30924927015e-38
-0.0207962078977 0.0238028885576 0.133 1.32768839612e-38
-0.0204476891495 0.0239818576445 0.134 1.32768839612e-38
-0.0197939810111 0.0238028885576 0.133 1.31846883314e-38
-0.0192928675678 0.0238028885576 0.133 1.32768839612e-38
-0.0189330455088 0.0239818576445 0.134 1.31846883314e-38
-0.0185656879094 0.0241608267314 0.135 1.31846883314e-38
-0.0181907947695 0.0243397958183 0.136 1.33690795911e-38
-0.0176783780154 0.0243397958183 0.136 1.32768839612e-38
-0.0171659612613 0.0243397958183 0.136 1.32768839612e-38
-0.0166535445073 0.0243397958183 0.136 1.32768839612e-38
-0.0161411277532 0.0243397958183 0.136 1.30935717013e-38
-0.0156287109991 0.0243397958183 0.136 1.32779629611e-38
-0.0151162942451 0.0243397958183 0.136 1.31857673312e-38
-0.0147112589431 0.0245187649052 0.137 1.30935717013e-38
-0.0141950744188 0.0245187649052 0.137 1.30935717013e-38
-0.0136788898945 0.0245187649052 0.137 1.30013760715e-38
-0.0131627053702 0.0245187649052 0.137 1.31857673312e-38
-0.0126465208459 0.0245187649052 0.137 1.31857673312e-38
-0.0122188789224 0.0246977339921 0.138 1.29095349701e-38
-0.0116989266278 0.0246977339921 0.138 1.30939262298e-38
-0.0111789743333 0.0246977339921 0.138 1.31861218597e-38
-0.0106590220387 0.0246977339921 0.138 1.30939262298e-38
-0.0101390697441 0.0246977339921 0.138 1.30939262298e-38
-0.00961911744956 0.0246977339921 0.138 1.30017306e-38
-0.00909916515499 0.0246977339921 0.138 1.31861218597e-38
-0.00857921286042 0.0246977339921 0.138 1.30939262298e-38
-0.00805926056585 0.0246977339921 0.138 1.31857659299e-38
-0.00753930827128 0.0246977339921 0.138 1.30013746702e-38
-0.00701935597671 0.0246977339921 0.138 1.30935703e-38
-0.00649940368214 0.0246977339921 0.138 1.30013746702e-38
-0.00597945138757 0.0246977339921 0.138 1.30935703e-38
-0.00545949909299 0.0246977339921 0.138 1.31857659299e-38
-0.0049753406158 0.024876703079 0.139 1.32779615598e-38
-0.00445162055098 0.024876703079 0.139 1.30935703e-38
-0.00392790048616 0.024876703079 0.139 1.29091790403e-38
-0.00340418042134 0.024876703079 0.139 1.29091790403e-38
-0.00288046035652 0.024876703079 0.139 1.29091790403e-38
-0.0023567402917 0.024876703079 0.139 1.30013746702e-38
-0.00183302022688 0.024876703079 0.139 1.29091790403e-38
-0.00131871958768 0.0250556721659 0.14 1.30013746702e-38
-0.000796883407984 0.0252346412528 0.141 1.30013746702e-38
-0.000265627802661 0.0252346412528 0.141 1.28169834104e-38
0.000265627802661 0.0252346412528 0.141 1.30013746702e-38
0.000796883407984 0.0252346412528 0.141 1.30935703e-38
0.00132813901331 0.0252346412528 0.141 1.30013746702e-38
0.00185939461863 0.0252346412528 0.141 1.30935703e-38
0.00239065022395 0.0252346412528 0.141 1.30935703e-38
0.00292190582927 0.0252346412528 0.141 1.30935703e-38
0.00347765194122 0.0254136103397 0.142 1.30935703e-38
0.00398441703992 0.0252346412528 0.141 1.29091790403e-38
0.00451567264524 0.0252346412528 0.141 1.30935703e-38
0.00504692825056 0.0252346412528 0.141 1.30013746702e-38
0.00557818385589 0.0252346412528 0.141 1.30013746702e-38
0.00615276881909 0.0254136103397 0.142 1.30013746702e-38
0.00673488932279 0.0255925794266 0.143 1.30013746702e-38
0.00727368046862 0.0255925794266 0.143 1.30013746702e-38
0.00781247161444 0.0255925794266 0.143 1.29091790403e-38
0.00835126276026 0.0255925794266 0.143 1.29091790403e-38
0.00889005390609 0.0255925794266 0.143 1.30017306e-38
0.00942884505191 0.0255925794266 0.143 1.30939262298e-38
0.00996763619773 0.0255925794266 0.143 1.30939262298e-38
0.0105064273436 0.0255925794266 0.143 1.30939262298e-38
0.0110452184894 0.0255925794266 0.143 1.31861218597e-38
0.0115840096352 0.0255925794266 0.143 1.31861218597e-38
0.012122800781 0.0255925794266 0.143 1.31861218597e-38
0.0126615919269 0.0255925794266 0.143 1.31861218597e-38
0.0132003830727 0.0255925794266 0.143 1.30024466635e-38
0.0138352523599 0.0257715485135 0.144 1.30946422934e-38
0.014377811276 0.0257715485135 0.144 1.3094645096e-38
0.014920370192 0.0257715485135 0.144 1.3094645096e-38
0.0154629291081 0.0257715485135 0.144 1.30024494661e-38
0.0160054880242 0.0257715485135 0.144 1.30024494661e-38
0.0165480469403 0.0257715485135 0.144 1.30020935363e-38
0.0170906058563 0.0257715485135 0.144 1.29098979064e-38
0.0177556173055 0.0259505176004 0.145 1.31857673312e-38
0.0183019439919 0.0259505176004 0.145 1.32779629611e-38
0.0188482706782 0.0259505176004 0.145 1.32779615598e-38
0.0193945973645 0.0259505176004 0.145 1.32779615598e-38
0.0199409240508 0.0259505176004 0.145 1.33701571896e-38
0.0204872507372 0.0259505176004 0.145 1.34623528195e-38
0.0210335774235 0.0259505176004 0.145 1.35549043792e-38
0.0215799041098 0.0259505176004 0.145 1.33705131194e-38
0.0221262307961 0.0259505176004 0.145 1.33701571896e-38
0.0226725574825 0.0259505176004 0.145 1.31857659299e-38
0.0233790144044 0.0261294866873 0.146 1.32779615598e-38
0.023929108861 0.0261294866873 0.146 1.32779615598e-38
0.0244792033176 0.0261294866873 0.146 1.34623528195e-38
0.0250292977742 0.0261294866873 0.146 1.34623528195e-38
0.0255793922307 0.0261294866873 0.146 1.34623528195e-38
0.0261294866873 0.0261294866873 0.146 1.33701571896e-38
0.0266795811439 0.0261294866873 0.146 1.32779615598e-38
0.0272296756005 0.0261294866873 0.146 1.31857659299e-38
0.027779770057 0.0261294866873 0.146 1.32779615598e-38
0.0283298645136 0.0261294866873 0.146 1.33701571896e-38
0.0290777669083 0.0263084557742 0.147 1.33701571896e-38
0.0296316291352 0.0263084557742 0.147 1.33701571896e-38
0.030185491362 0.0263084557742 0.147 1.33701571896e-38
0.0307393535888 0.0263084557742 0.147 1.33701571896e-38
0.0312932158156 0.0263084557742 0.147 1.3186484796e-38
0.0318470780425 0.0263084557742 0.147 1.32786804259e-38
0.0324009402693 0.0263084557742 0.147 1.32786804259e-38
0.033178984826 0.0264874248611 0.148 1.30942891661e-38
0.0337366148231 0.0264874248611 0.148 1.30942891661e-38
0.0342942448202 0.0264874248611 0.148 1.29098979064e-38
0.0348518748173 0.0264874248611 0.148 1.30942891661e-38
0.0354095048143 0.0264874248611 0.148 1.30942891661e-38
0.0359671348114 0.0264874248611 0.148 1.32779615598e-38
0.0365247648085 0.0264874248611 0.148 1.32779615598e-38
0.0370823948056 0.0264874248611 0.148 1.32779615598e-38
0.0378943492945 0.026666393948 0.149 1.31857659299e-38
0.0384557470619 0.026666393948 0.149 1.32779615598e-38
0.0390171448292 0.026666393948 0.149 1.31857659299e-38
0.0395785425965 0.026666393948 0.149 1.30935703e-38
0.0401399403639 0.026666393948 0.149 1.30935703e-38
0.0407013381312 0.026666393948 0.149 1.31857673312e-38
0.0412627358985 0.026666393948 0.149 1.31857673312e-38
0.0418241336658 0.026666393948 0.149 1.31857673312e-38
0.0426699980871 0.0268453630349 0.15 1.31857673312e-38
0.0429469292005 0.026666393948 0.149 1.31857673312e-38
0.0435083269678 0.026666393948 0.149 1.31857673312e-38
0.0440697247351 0.026666393948 0.149 1.31857673312e-38
0.0446311225025 0.026666393948 0.149 1.30935717013e-38
0.0451925202698 0.026666393948 0.149 1.30013746702e-38
0.0457539180371 0.026666393948 0.149 1.29091790403e-38
0.0463153158044 0.026666393948 0.149 1.29091790403e-38
0.0468767135718 0.026666393948 0.149 1.30013746702e-38
0.0474381113391 0.026666393948 0.149 1.30013746702e-38
0.0479995091064 0.026666393948 0.149 1.30013746702e-38
0.0488868190004 0.0268453630349 0.15 1.30013746702e-38
0.049451984538 0.0268453630349 0.15 1.30013746702e-38
0.0500171500756 0.0268453630349 0.15 1.30935703e-38
0.0505823156132 0.0268453630349 0.15 1.29091790403e-38
0.0511474811507 0.0268453630349 0.15 1.28169834104e-38
0.0517126466883 0.0268453630349 0.15 1.28169834104e-38
0.0526263309741 0.0270243321218 0.151 1.30935703e-38
0.0531952642819 0.0270243321218 0.151 1.30013746702e-38
0.0537641975897 0.0270243321218 0.151 1.30013746702e-38
0.0543331308975 0.0270243321218 0.151 1.30935703e-38
0.0549020642054 0.0270243321218 0.151 1.32768839612e-38
0.0554709975132 0.0270243321218 0.151 1.32768839612e-38
0.056039930821 0.0270243321218 0.151 1.31846883314e-38
0.0566088641288 0.0270243321218 0.151 1.30002970716e-38
0.0575564583469 0.0272033012087 0.152 1.30002970716e-38
0.0581291594249 0.0272033012087 0.152 1.30002970716e-38
0.058701860503 0.0272033012087 0.152 1.30002970716e-38
0.0592745615811 0.0272033012087 0.152 1.30924927015e-38
0.0598472626592 0.0272033012087 0.152 1.30013760715e-38
0.0604199637372 0.0272033012087 0.152 1.30013760715e-38
0.0609926648153 0.0272033012087 0.152 1.29091804416e-38
0.0611603305915 0.0270243321218 0.151 1.29091804416e-38
0.0617292638993 0.0270243321218 0.151 1.30935717013e-38
0.0676616181587 0.0293509302515 0.164 1.30935717013e-38
0.156279574451 0.0665765003266 0.372 1.29091804416e-38
0.178874892643 0.0755249546716 0.422 1.25403979221e-38
0.192866507468 0.0807150581916 0.451 1.2632593552e-38
0.205351014194 0.0851892853641 0.476 1.27247891819e-38
0.212801779864 0.0875158834938 0.489 1.28169848117e-38
0.218594726624 0.0891266052759 0.498 1.28169848117e-38
0.218700224191 0.0884107289283 0.494 1.28169848117e-38
0.220561502695 0.0884107289283 0.494 1.28169848117e-38
0.217470047204 0.0864420689724 0.483 1.28169848117e-38
0.214295700768 0.0844734090165 0.472 1.30002998742e-38
0.217905224668 0.0851892853641 0.476 1.30002998742e-38
0.222467994442 0.0862630998855 0.482 1.29081042444e-38
0.22568001858 0.0868000071462 0.485 1.29081042444e-38
0.230790998925 0.0880527907545 0.492 1.26315173548e-38
0.237373293553 0.0898424816235 0.502 1.29081042444e-38
0.242601074775 0.0910952652318 0.509 1.30924955041e-38
0.241156134884 0.0898424816235 0.502 1.30002998742e-38
0.243531714027 0.0900214507104 0.503 1.30002970716e-38
0.242499344978 0.088947636189 0.497 1.29081014418e-38
0.240930068669 0.0876948525807 0.49 1.29081014418e-38
0.246244508607 0.088947636189 0.497 1.30002970716e-38
0.26259474761 0.0941377397091 0.526 1.30924927015e-38
0.267594578732 0.0952115542305 0.532 1.30002970716e-38
0.265038146617 0.0936008324484 0.523 1.28159058119e-38
0.275177216361 0.0964643378388 0.539 1.28159058119e-38
0.290065560506 0.100938565011 0.564 1.24482050949e-38
0.297371267022 0.10272825588 0.574 1.25404007247e-38
0.296924786247 0.101833410446 0.569 1.26325963546e-38
0.301696667269 0.10272825588 0.574 1.26325963546e-38
0.306506225994 0.103623101315 0.579 1.27247919845e-38
0.312952880893 0.10505485401 0.587 1.27247919845e-38
0.309795489423 0.103265163141 0.577 1.27247919845e-38
0.308184767641 0.102012379533 0.57 1.27247919845e-38
0.309243511081 0.101654441359 0.568 1.29081014418e-38
0.304256867155 0.0993278432292 0.555 1.27237101821e-38
0.304692044619 0.0987909359685 0.552 1.24471232925e-38
0.301214392677 0.0970012450995 0.542 1.23549304652e-38
0.303816038035 0.0971802141864 0.543 1.22627348353e-38
0.299102557452 0.0950325851436 0.531 1.23549332678e-38
0.302804391723 0.0955694924043 0.534 1.24471288977e-38
0.299108209107 0.0937798015353 0.524 1.26315201574e-38
0.302231690645 0.0941377397091 0.526 1.26315173548e-38
0.292068130394 0.0903793888842 0.505 1.26315173548e-38
0.281746323793 0.0866210380593 0.484 1.26315173548e-38
0.266579164649 0.0814309345392 0.455 1.26315173548e-38
0.254141755053 0.0771356764536 0.431 1.26315173548e-38
0.247457730628 0.0746301092371 0.417 1.25393217249e-38
0.243056974976 0.0728404183681 0.407 1.23549304652e-38
-0.100328186231 0.0306997920012 0.168 1.29992180718e-38
-0.0996952008286 0.0306997920012 0.168 1.22616530329e-38
-0.0984725593823 0.030517055144 0.167 1.30914137017e-38
-0.0984292300244 0.0306997920012 0.168 1.31836121342e-38
-0.0977962446223 0.0306997920012 0.168 1.29992208744e-38
-0.0960065537533 0.0303343182869 0.166 1.27226339848e-38
-0.0953811038918 0.0303343182869 0.166 1.3275807764e-38
-0.0953264712231 0.030517055144 0.167 1.30921325678e-38
-0.0935631547459 0.0301515814297 0.165 1.30921325678e-38
-0.093504754307 0.0303343182869 0.166 1.29999369379e-38
-0.0934388183276 0.030517055144 0.167 1.31843281977e-38
-0.0928096006958 0.030517055144 0.167 1.27233500484e-38
-0.0916284047222 0.0303343182869 0.166 1.28155456782e-38
-0.0915511654321 0.030517055144 0.167 1.27233500484e-38
-0.0909219478003 0.030517055144 0.167 1.30921325678e-38
-0.0892113801065 0.0301515814297 0.165 1.30921325678e-38
-0.0880527907545 0.0299688445726 0.164 1.28155456782e-38
-0.086901736943 0.0297861077154 0.163 1.29999369379e-38
-0.0846994752316 0.029237897144 0.16 1.27233500484e-38
-0.0846222359414 0.0294206340011 0.161 1.29077413081e-38
-0.0850592972905 0.0297861077154 0.163 1.30921325678e-38
-0.0839270823302 0.0296033708583 0.162 1.23545675289e-38
-0.0822881022712 0.029237897144 0.16 1.25389587886e-38
-0.0837273905069 0.0299688445726 0.164 1.27233500484e-38
-0.0820959459884 0.0296033708583 0.162 1.28155456782e-38
-0.080479572551 0.029237897144 0.16 1.26311544185e-38
-0.0823728771019 0.0301515814297 0.165 1.27233500484e-38
-0.0807602714346 0.0297861077154 0.163 1.26307984887e-38
-0.0776876547953 0.0288724234297 0.158 1.27229941185e-38
-0.0766044208483 0.0286896865725 0.157 1.29995810081e-38
-0.0779495148278 0.0294206340011 0.161 1.26307984887e-38
-0.0768625131105 0.029237897144 0.16 1.24456911654e-38
-0.0743531781236 0.0285069497154 0.156 1.27229969211e-38
-0.0718739852988 0.0277760022868 0.152 1.22620187718e-38
-0.0741158085979 0.0288724234297 0.158 1.28159086145e-38
-0.0735205008983 0.0288724234297 0.158 1.22627348353e-38
-0.0710789857759 0.0281414760011 0.154 1.27229941185e-38
-0.0709565332428 0.0283242128582 0.155 1.24467631588e-38
-0.0726426104299 0.029237897144 0.16 1.29992180718e-38
-0.0711392701 0.0288724234297 0.158 1.25386028588e-38
-0.0678650777523 0.0277760022868 0.152 1.29995810081e-38
-0.0690632286919 0.0285069497154 0.156 1.29995810081e-38
-0.0702312374696 0.029237897144 0.16 1.28151897484e-38
-0.0678876843738 0.0285069497154 0.156 1.28151897484e-38
-0.0647114540526 0.0274105285725 0.15 1.29995810081e-38
-0.0645739304384 0.0275932654296 0.151 1.29073853783e-38
-0.0669721162029 0.0288724234297 0.158 1.31839722679e-38
-0.0630159574398 0.0274105285725 0.15 1.32761707003e-38
-0.0599527602262 0.0263141074296 0.144 1.30917794406e-38
-0.060235342995 0.0266795811439 0.146 1.25386056614e-38
-0.0629556731158 0.0281414760011 0.154 1.29073881809e-38
-0.0607552952895 0.0274105285725 0.15 1.2815192551e-38
-0.0581837920936 0.0264968442867 0.145 1.35527575899e-38
-0.0564449661229 0.0259486337153 0.142 1.29995838107e-38
-0.0582723346944 0.0270450548582 0.148 1.29073881809e-38
-0.0604444542439 0.0283242128582 0.155 1.30921325678e-38
-0.0579294676017 0.0274105285725 0.15 1.31843281977e-38
-0.0562170160228 0.026862318001 0.147 1.32768839612e-38
-0.0549058319756 0.0264968442867 0.145 1.32779629611e-38
-0.0562339709889 0.0274105285725 0.15 1.33701585909e-38
-0.0545554293423 0.026862318001 0.147 1.26315145522e-38
-0.0532668519166 0.0264968442867 0.145 1.31843281977e-38
-0.0516297557428 0.0259486337153 0.142 1.35531107171e-38
-0.0518143764851 0.0263141074296 0.144 1.35527547873e-38
-0.052339980435 0.026862318001 0.147 1.33683635276e-38
-0.0503769721345 0.0261313705724 0.143 1.33683635276e-38
-0.0491411434923 0.0257658968581 0.141 1.31839722679e-38
-0.0482651369091 0.025583160001 0.14 1.32761678977e-38
-0.048760598697 0.0261313705724 0.143 1.32761678977e-38
-0.0485590229886 0.0263141074296 0.144 1.33683635276e-38
-0.047016121071 0.0257658968581 0.141 1.33683635276e-38
-0.045495825775 0.0252176862867 0.138 1.34612780236e-38
-0.0446499613537 0.0250349494295 0.137 1.32761678977e-38
-0.0447780655422 0.0254004231438 0.139 1.29073853783e-38
-0.0448910986497 0.0257658968581 0.141 1.32758049614e-38
-0.0437306254126 0.0254004231438 0.139 1.33680005913e-38
-0.0435177463934 0.025583160001 0.14 1.30921325678e-38
-0.0426831852829 0.0254004231438 0.139 1.35531093158e-38
-0.041856159713 0.0252176862867 0.138 1.34616325521e-38
-0.0413362074184 0.0252176862867 0.138 1.33690823937e-38
-0.0408162551238 0.0252176862867 0.138 1.33690823937e-38
-0.0402963028292 0.0252176862867 0.138 1.29081014418e-38
-0.0397763505347 0.0252176862867 0.138 1.30928500326e-38
-0.0389719315862 0.0250349494295 0.137 1.30013746702e-38
-0.0390171448292 0.0254004231438 0.139 1.32779629611e-38
-0.0373857003107 0.0246694757152 0.135 1.28169876143e-38
-0.0368770513269 0.0246694757152 0.135 1.30013788741e-38
-0.0363684023431 0.0246694757152 0.135 1.31839722679e-38
-0.0361253811619 0.0248522125724 0.136 1.31843281977e-38
-0.0358748244403 0.0250349494295 0.137 1.33694369222e-38
-0.0353586399159 0.0250349494295 0.137 1.31850456625e-38
-0.0345881308997 0.0248522125724 0.136 1.35538281819e-38
-0.0340757141456 0.0248522125724 0.136 1.29084587729e-38
-0.0335632973916 0.0248522125724 0.136 1.30921325678e-38
-0.0325648382752 0.0244867388581 0.134 1.3091776638e-38
-0.0322992104725 0.0246694757152 0.135 1.29084559703e-38
-0.0317905614887 0.0246694757152 0.135 1.32772412923e-38
-0.0310501946345 0.0244867388581 0.134 1.32772412923e-38
-0.0307732635211 0.0246694757152 0.135 1.31850456625e-38
-0.0302646145373 0.0246694757152 0.135 1.2816263143e-38
-0.0297559655534 0.0246694757152 0.135 1.31846883314e-38
-0.0290306697802 0.0244867388581 0.134 1.3461275221e-38
-0.0287386675858 0.0246694757152 0.135 1.28159058119e-38
-0.0280209073531 0.0244867388581 0.134 1.30002970716e-38
-0.0275160261395 0.0244867388581 0.134 1.31846883314e-38
-0.0270111449259 0.0244867388581 0.134 1.30924927015e-38
-0.0263084557742 0.0243040020009 0.133 1.31846883314e-38
-0.025613302163 0.0241212651438 0.132 1.31846883314e-38
-0.0254965012852 0.0244867388581 0.134 1.32768839612e-38
-0.0246186108169 0.0241212651438 0.132 1.27237101821e-38
-0.0241212651438 0.0241212651438 0.132 1.3461275221e-38
-0.0236239194707 0.0241212651438 0.132 1.31846883314e-38
-0.022951372481 0.0239385282866 0.131 1.31846883314e-38
-0.0224577945782 0.0239385282866 0.131 1.31843281977e-38
-0.0219642166754 0.0239385282866 0.131 1.29999369379e-38
-0.0214706387726 0.0239385282866 0.131 1.29999369379e-38
-0.0211371911054 0.0241212651438 0.132 1.33687194574e-38
-0.0207962078977 0.0243040020009 0.133 1.32768839612e-38
-0.0202950944544 0.0243040020009 0.133 1.31846883314e-38
-0.0197939810111 0.0243040020009 0.133 1.28169834104e-38
-0.0192928675678 0.0243040020009 0.133 1.32779615598e-38
-0.0187917541244 0.0243040020009 0.133 1.28169834104e-38
-0.0182906406811 0.0243040020009 0.133 1.28169834104e-38
-0.0177895272378 0.0243040020009 0.133 1.33701571896e-38
-0.0174184018681 0.0244867388581 0.134 1.27247877806e-38
-0.0167873003512 0.0243040020009 0.133 1.31857659299e-38
-0.0162861869078 0.0243040020009 0.133 1.30013746702e-38
-0.0157850734645 0.0243040020009 0.133 1.32772412923e-38
-0.0152839600212 0.0243040020009 0.133 1.32772412923e-38
-0.0148939958003 0.0244867388581 0.134 1.31850456625e-38
-0.0143891145867 0.0244867388581 0.134 1.32772412923e-38
-0.0138842333731 0.0244867388581 0.134 1.30006544028e-38
-0.0133793521596 0.0244867388581 0.134 1.30928500326e-38
-0.012874470946 0.0244867388581 0.134 1.30928500326e-38
-0.0123695897324 0.0244867388581 0.134 1.32772412923e-38
-0.0118647085189 0.0244867388581 0.134 1.30921283639e-38
-0.0113598273053 0.0244867388581 0.134 1.32772412923e-38
-0.0109359531521 0.0246694757152 0.135 1.29091804416e-38
-0.0104273041683 0.0246694757152 0.135 1.30942905674e-38
-0.00991865518448 0.0246694757152 0.135 1.3370877457e-38
-0.00941000620066 0.0246694757152 0.135 1.27247891819e-38
-0.00890135721684 0.0246694757152 0.135 1.34616325521e-38
-0.00845487644215 0.0248522125724 0.136 1.34609108834e-38
-0.00794245968808 0.0248522125724 0.136 1.28169834104e-38
-0.00743004293401 0.0248522125724 0.136 1.32779615598e-38
-0.00691762617994 0.0248522125724 0.136 1.31850428599e-38
-0.00640520942587 0.0248522125724 0.136 1.33694341196e-38
-0.0058927926718 0.0248522125724 0.136 1.33694341196e-38
-0.00538037591773 0.0248522125724 0.136 1.31850428599e-38
-0.00486795916366 0.0248522125724 0.136 1.30935703e-38
-0.00435554240959 0.0248522125724 0.136 1.30935703e-38
-0.00384312565552 0.0248522125724 0.136 1.32783174896e-38
-0.00333070890145 0.0248522125724 0.136 1.30017306e-38
-0.00281829214738 0.0248522125724 0.136 1.30928500326e-38
-0.00230587539331 0.0248522125724 0.136 1.29081014418e-38
-0.00179345863924 0.0248522125724 0.136 1.31846883314e-38
-0.0012904613108 0.0250349494295 0.137 1.30006544028e-38
-0.000774276786481 0.0250349494295 0.137 1.27251437104e-38
-0.00025809226216 0.0250349494295 0.137 1.27251437104e-38
0.00025809226216 0.0250349494295 0.137 1.29098979064e-38
0.000779928441856 0.0252176862867 0.138 1.29091790403e-38
0.00129988073643 0.0252176862867 0.138 1.29081014418e-38
0.001819833031 0.0252176862867 0.138 1.33690823937e-38
0.00233978532557 0.0252176862867 0.138 1.26315173548e-38
0.00285973762014 0.0252176862867 0.138 1.32768839612e-38
0.00340418042134 0.0254004231438 0.139 1.30935703e-38
0.00392790048616 0.0254004231438 0.139 1.27255066467e-38
0.00445162055098 0.0254004231438 0.139 1.30013746702e-38
0.0049753406158 0.0254004231438 0.139 1.31857659299e-38
0.00549906068063 0.0254004231438 0.139 1.2816263143e-38
0.00602278074545 0.0254004231438 0.139 1.31850456625e-38
0.0065935979384 0.025583160001 0.14 1.33694369222e-38
0.00712108577347 0.025583160001 0.14 1.32772412923e-38
0.00770320627718 0.0257658968581 0.141 1.30013746702e-38
0.0082344618825 0.0257658968581 0.141 1.32779615598e-38
0.00876571748782 0.0257658968581 0.141 1.30013746702e-38
0.00929697309314 0.0257658968581 0.141 1.30935703e-38
0.00982822869847 0.0257658968581 0.141 1.28173393402e-38
0.0103594843038 0.0257658968581 0.141 1.33705131194e-38
0.0108907399091 0.0257658968581 0.141 1.31861218597e-38
0.0115030025748 0.0259486337153 0.142 1.25407524507e-38
0.0120380259504 0.0259486337153 0.142 1.31861218597e-38
0.012573049326 0.0259486337153 0.142 1.26329480805e-38
0.0131080727015 0.0259486337153 0.142 1.30024494661e-38
0.0137391742185 0.0261313705724 0.143 1.30020935363e-38
0.0142779653643 0.0261313705724 0.143 1.30935703e-38
0.0148167565101 0.0261313705724 0.143 1.31857659299e-38
0.015355547656 0.0261313705724 0.143 1.32779615598e-38
0.0158943388018 0.0261313705724 0.143 1.30013746702e-38
0.0164331299476 0.0261313705724 0.143 1.32772384897e-38
0.0169719210934 0.0261313705724 0.143 1.30006516002e-38
0.0175107122393 0.0261313705724 0.143 1.31857659299e-38
0.0181757236885 0.0263141074296 0.144 1.31857659299e-38
0.0187182826046 0.0263141074296 0.144 1.3186484796e-38
0.0192608415206 0.0263141074296 0.144 1.28177022766e-38
0.0198034004367 0.0263141074296 0.144 1.32786804259e-38
0.0203459593528 0.0263141074296 0.144 1.37389397091e-38
0.0210335774235 0.0264968442867 0.145 1.31850456625e-38
0.0215799041098 0.0264968442867 0.145 1.37375005755e-38
0.0221262307961 0.0264968442867 0.145 1.35531107171e-38
0.0226725574825 0.0264968442867 0.145 1.31850456625e-38
0.0232188841688 0.0264968442867 0.145 1.32779615598e-38
0.0237652108551 0.0264968442867 0.145 1.35556232453e-38
0.0243115375414 0.0264968442867 0.145 1.32790363557e-38
0.0250292977742 0.0266795811439 0.146 1.34630716856e-38
0.0255793922307 0.0266795811439 0.146 1.33701585909e-38
0.0261294866873 0.0266795811439 0.146 1.34623542208e-38
0.0266795811439 0.0266795811439 0.146 1.3738943913e-38
0.0272296756005 0.0266795811439 0.146 1.32779629611e-38
0.027779770057 0.0266795811439 0.146 1.27247891819e-38
0.0283298645136 0.0266795811439 0.146 1.31857673312e-38
0.0290777669083 0.026862318001 0.147 1.30942905674e-38
0.0296316291352 0.026862318001 0.147 1.3370877457e-38
0.030185491362 0.026862318001 0.147 1.32786818272e-38
0.0307393535888 0.026862318001 0.147 1.32786804259e-38
0.0315060948348 0.0270450548582 0.148 1.30942891661e-38
0.0320637248319 0.0270450548582 0.148 1.30942891661e-38
0.0326213548289 0.0270450548582 0.148 1.33701585909e-38
0.033178984826 0.0270450548582 0.148 1.31846883314e-38
0.0337366148231 0.0270450548582 0.148 1.31846883314e-38
0.0342942448202 0.0270450548582 0.148 1.30935717013e-38
0.0350873604579 0.0272277917153 0.149 1.30942891661e-38
0.0358880116361 0.0274105285725 0.15 1.30942891661e-38
0.0364531771737 0.0274105285725 0.15 1.35538281819e-38
0.0370183427113 0.0274105285725 0.15 1.34616325521e-38
0.0375835082489 0.0274105285725 0.15 1.30928500326e-38
0.0381486737865 0.0274105285725 0.15 1.30013746702e-38
0.0389719315862 0.0275932654296 0.151 1.30935703e-38
0.039540864894 0.0275932654296 0.151 1.28177022766e-38
0.0401097982018 0.0275932654296 0.151 1.2541115387e-38
0.0406787315097 0.0275932654296 0.151 1.28177022766e-38
0.0412476648175 0.0275932654296 0.151 1.3461275221e-38
0.0418165981253 0.0275932654296 0.151 1.31846883314e-38
0.0423855314332 0.0275932654296 0.151 1.33690795911e-38
0.042954464741 0.0275932654296 0.151 1.32768839612e-38
0.0435233980488 0.0275932654296 0.151 1.30935717013e-38
0.0440923313566 0.0275932654296 0.151 1.30935717013e-38
0.0452528045938 0.0279587391439 0.153 1.32779629611e-38
0.0458292734421 0.0279587391439 0.153 1.30013760715e-38
0.0461024367853 0.0277760022868 0.152 1.26318718833e-38
0.0466751378634 0.0277760022868 0.152 1.30006544028e-38
0.0472478389414 0.0277760022868 0.152 1.30928500326e-38
0.0484497576514 0.0281414760011 0.154 1.33690795911e-38
0.0490299942699 0.0281414760011 0.154 1.30013760715e-38
0.0496102308885 0.0281414760011 0.154 1.30935745039e-38
0.0505163796338 0.0283242128582 0.155 1.30935745039e-38
0.0511003840226 0.0283242128582 0.155 1.30013788741e-38
0.0516843884114 0.0283242128582 0.155 1.30013760715e-38
0.0526056082377 0.0285069497154 0.156 1.30013760715e-38
0.0531933803968 0.0285069497154 0.156 1.2632593552e-38
0.0537811525558 0.0285069497154 0.156 1.2632593552e-38
0.0543689247149 0.0285069497154 0.156 1.30006544028e-38
0.054956696874 0.0285069497154 0.156 1.30928500326e-38
0.0559005233218 0.0286896865725 0.157 1.30928500326e-38
0.0564920632511 0.0286896865725 0.157 1.30006544028e-38
0.0570836031804 0.0286896865725 0.157 1.3552391851e-38
0.0580425007092 0.0288724234297 0.158 1.35523946536e-38
0.0586378084087 0.0288724234297 0.158 1.32761678977e-38
0.0592331161083 0.0288724234297 0.158 1.33683663302e-38
0.0598284238079 0.0288724234297 0.158 1.26315201574e-38
0.0608061601879 0.0290551602868 0.159 1.24471260951e-38
0.0614052356578 0.0290551602868 0.159 1.21716154027e-38
0.0620043111276 0.0290551602868 0.159 1.26325921507e-38
0.0626033865974 0.0290551602868 0.159 1.28169848117e-38
0.0635999618287 0.029237897144 0.16 1.28169848117e-38
0.0642028050688 0.029237897144 0.16 1.30013760715e-38
0.0648056483088 0.029237897144 0.16 1.27247891819e-38
0.0654084915489 0.029237897144 0.16 1.25403979221e-38
0.0684867598436 0.0303343182869 0.166 1.29091804416e-38
0.154599148919 0.0672471634312 0.368 1.27247891819e-38
0.176755521877 0.0762012694315 0.417 1.28169848117e-38
0.187734804387 0.0802214802888 0.439 1.22638110326e-38
0.199311278482 0.0844244280033 0.462 1.23560052611e-38
0.207579650297 0.0871654808605 0.477 1.27247877806e-38
0.213766329048 0.088992849432 0.487 1.29084587729e-38
0.214715807151 0.0886273757177 0.485 1.30924927015e-38
0.215650214173 0.0882619020034 0.483 1.30924955041e-38
0.216569550114 0.0878964282891 0.481 1.30003026768e-38
0.212933651823 0.0857035860033 0.469 1.28159058119e-38
0.216531872412 0.0864345334319 0.473 1.29081042444e-38
0.221083338875 0.0875309545748 0.479 1.29073881809e-38
0.222422781199 0.0873482177177 0.478 1.24464100315e-38
0.226100124963 0.0880791651463 0.482 1.19861507483e-38
0.233590452221 0.0902720074321 0.494 1.22627376379e-38
0.244507566522 0.0937440077179 0.513 1.23563695987e-38
0.243558088419 0.092647586575 0.507 1.25411167883e-38
0.245952506413 0.0928303234322 0.508 1.2816263143e-38
0.243475197473 0.0911856917178 0.499 1.30006544028e-38
0.24289684474 0.0902720074321 0.494 1.29081014418e-38
0.243767199668 0.0899065337178 0.492 1.29081014418e-38
0.260098599819 0.0952059025751 0.521 1.30002970716e-38
0.26809757606 0.0973987448609 0.533 1.27247919845e-38
0.265544911716 0.0957541131466 0.524 1.24482050949e-38
0.272624552016 0.0975814817181 0.534 1.20794225754e-38
0.286979756671 0.10196716629 0.558 1.19861451432e-38
0.295298993384 0.104160008575 0.57 1.2078340773e-38
0.293271932989 0.102698113718 0.562 1.2448200891e-38
0.29538941987 0.102698113718 0.562 1.22638096313e-38
0.301741880512 0.104160008575 0.57 1.27247891819e-38
0.30975404395 0.106170114004 0.581 1.26325963546e-38
0.306574045859 0.104342745433 0.571 1.27237157873e-38
0.305481392486 0.10324632429 0.565 1.28155554873e-38
0.30869906828 0.103611798004 0.567 1.26311642276e-38
0.303160446012 0.101053482004 0.553 1.24467729679e-38
0.304140066277 0.10068800829 0.551 1.19861507483e-38
0.297879916006 0.0979469554324 0.536 1.14329769692e-38
0.299339926978 0.0977642185752 0.535 1.13407813393e-38
0.292906459275 0.095023165718 0.52 1.19861507483e-38
0.291463403269 0.0939267445751 0.514 1.23549304652e-38
0.290545951213 0.0930130602893 0.509 1.25393217249e-38
0.295336671087 0.0939267445751 0.514 1.28159086145e-38
0.285127897593 0.0900892705749 0.493 1.26315173548e-38
0.274760877748 0.0862517965748 0.472 1.26315173548e-38
0.261306170184 0.0815006382889 0.446 1.26315201574e-38
0.249424506699 0.0772976905744 0.423 1.27237157873e-38
0.243303763927 0.0749221114315 0.41 1.22627376379e-38
