VERSION .7
FIELDS x y z rgb
SIZE 4 4 4 4
TYPE F F F F
COUNT 1 1 1 1
WIDTH 853
HEIGHT 1
VIEWPOINT 0 0 0 1 0 0 0
POINTS 853
DATA ascii
-0.00094947810313 0.0180400839595 0.168 1.18039062779e-38
-0.000316492701043 0.0180400839595 0.168 1.27258625765e-38
0.000318376586168 0.0181474654116 0.169 1.24489197571e-38
0.000955129758505 0.0181474654116 0.169 1.2541115387e-38
0.00159188293084 0.0181474654116 0.169 1.2541115387e-38
0.00222863610318 0.0181474654116 0.169 1.24489197571e-38
0.00286538927552 0.0181474654116 0.169 1.23567241272e-38
0.00350214244785 0.0181474654116 0.169 1.2541115387e-38
0.00413889562019 0.0181474654116 0.169 1.28177022766e-38
0.00480390706941 0.0182548468637 0.17 1.26333110168e-38
0.00544442801199 0.0182548468637 0.17 1.23567241272e-38
0.00608494895458 0.0182548468637 0.17 1.23567241272e-38
0.00672546989717 0.0182548468637 0.17 1.23567241272e-38
0.00736599083975 0.0182548468637 0.17 1.23567241272e-38
0.00805360891047 0.0183622283159 0.171 1.16191590883e-38
0.00869789762331 0.0183622283159 0.171 8.39231204311e-39
0.00934218633615 0.0183622283159 0.171 6.82498633544e-39
0.00998647504899 0.0183622283159 0.171 9.49865960147e-39
0.0105685955527 0.0182548468637 0.17 1.24492756869e-38
0.0112750524747 0.0183622283159 0.171 1.2357080057e-38
0.0119193411875 0.0183622283159 0.171 1.22645284974e-38
0.0126371014202 0.018469609768 0.172 1.22645284974e-38
0.0133623971934 0.0185769912202 0.173 6.08742269783e-39
0.0140142214468 0.0185769912202 0.173 2.76838002275e-39
0.0143269463776 0.0181474654116 0.169 3.41339350198e-39
0.0149636995499 0.0181474654116 0.169 4.79632794993e-39
0.0159696942068 0.0185769912202 0.173 1.26308012913e-38
0.0170058310257 0.0190065170287 0.177 1.27229969211e-38
0.0181719559182 0.0195434242894 0.182 1.27229969211e-38
0.0187540764219 0.0194360428373 0.181 1.17088449926e-38
0.0188991355766 0.0188991355766 0.176 4.05660771399e-39
0.0193399646959 0.0186843726723 0.174 3.50343393481e-39
0.0203403076974 0.0190065170287 0.177 3.13465141535e-39
0.0216006268462 0.0195434242894 0.182 5.90052031125e-39
0.0228986236975 0.0200803315501 0.187 1.25403979221e-38
0.0233507561276 0.0198655686458 0.185 1.2632593552e-38
0.0231378771084 0.0191138984809 0.178 1.22638110326e-38
0.0230060051496 0.018469609768 0.172 1.26315173548e-38
0.0237915852469 0.0185769912202 0.173 7.8373446019e-39
0.0248672836534 0.0188991355766 0.176 3.68782519453e-39
0.0261106478361 0.0193286613851 0.18 5.43954216194e-39
0.0272353272558 0.0196508057416 0.183 1.09705638902e-38
0.0273144504311 0.019221279933 0.179 1.2078340773e-38
0.0275197939098 0.0188991355766 0.176 1.28159058119e-38
0.0280227912382 0.0187917541244 0.175 1.24474806236e-38
0.028682151032 0.0187917541244 0.175 1.27240675132e-38
0.029509176602 0.0188991355766 0.176 1.34616325521e-38
0.0303437377125 0.0190065170287 0.177 1.22630865613e-38
0.0304850290969 0.0186843726723 0.174 1.20786953015e-38
0.0306037138598 0.0183622283159 0.171 1.29084559703e-38
0.0312480025726 0.0183622283159 0.171 1.23560052611e-38
0.0318922912855 0.0183622283159 0.171 1.2448200891e-38
0.0325365799983 0.0183622283159 0.171 1.23560052611e-38
0.0331808687112 0.0183622283159 0.171 1.23560052611e-38
0.0340229653621 0.018469609768 0.172 1.18950271118e-38
0.0346710218452 0.018469609768 0.172 1.21716140014e-38
0.0353190783283 0.018469609768 0.172 1.21716140014e-38
0.0359671348114 0.018469609768 0.172 1.23560052611e-38
0.0368280703136 0.0185769912202 0.173 1.2541115387e-38
0.037479894567 0.0185769912202 0.173 1.16191590883e-38
0.03835213338 0.0186843726723 0.174 1.20801372376e-38
0.0387835430737 0.0185769912202 0.173 1.17113547182e-38
0.039435367327 0.0185769912202 0.173 1.24489197571e-38
0.0403189094508 0.0186843726723 0.174 1.27255066467e-38
0.041209987115 0.0187917541244 0.175 1.2541115387e-38
0.0421086003197 0.0188991355766 0.176 1.23567241272e-38
0.043014749065 0.0190065170287 0.177 1.22645284974e-38
0.0436816443993 0.0190065170287 0.177 1.23567241272e-38
0.0438474262904 0.0187917541244 0.175 1.23567241272e-38
0.0445067860842 0.0187917541244 0.175 1.22645284974e-38
0.0449080536159 0.0186843726723 0.174 1.21723328675e-38
0.0458255056719 0.0187917541244 0.175 1.1158180939e-38
0.047813004479 0.0193286613851 0.18 1.04206159001e-38
0.048760598697 0.0194360428373 0.181 1.09737896793e-38
0.0480767483966 0.0188991355766 0.176 1.25403979221e-38
0.0487398759606 0.0188991355766 0.176 1.25403979221e-38
0.0505257990594 0.0193286613851 0.18 1.25403979221e-38
0.0526263309741 0.0198655686458 0.185 1.25403979221e-38
0.0553410094395 0.0206172388108 0.192 1.03277028054e-38
0.0554804169388 0.0204024759065 0.19 4.42718249418e-39
0.0538301335691 0.0195434242894 0.182 2.67546552677e-39
0.053317716815 0.0191138984809 0.178 4.24279123445e-39
0.0552016019403 0.0195434242894 0.182 1.19850689459e-38
0.0580368490538 0.0202950944544 0.189 1.24460470952e-38
0.0606140039051 0.0209393831672 0.195 1.29988649446e-38
0.0610341102881 0.0208320017151 0.194 1.32754518342e-38
0.0576261620965 0.0194360428373 0.181 9.49543381241e-39
0.0566974067297 0.0188991355766 0.176 4.2402829102e-39
0.0576864464205 0.0190065170287 0.177 4.33248134266e-39
0.0590127015487 0.019221279933 0.179 3.50272067389e-39
0.0603540277579 0.0194360428373 0.181 9.22135524707e-39
0.0620476404855 0.0197581871937 0.184 1.1987224143e-38
0.0613769773809 0.0193286613851 0.18 1.23560066624e-38
0.0606761721143 0.0188991355766 0.176 1.21705392055e-38
0.0613392996784 0.0188991355766 0.176 1.20783435756e-38
0.0623547137609 0.0190065170287 0.177 5.5317377918e-39
0.0630216090952 0.0190065170287 0.177 3.50343393481e-39
0.0644081485474 0.019221279933 0.179 4.42467416992e-39
0.0639918099347 0.0188991355766 0.176 8.57598864062e-39
0.0650222950982 0.0190065170287 0.177 1.25404007247e-38
0.0656891904326 0.0190065170287 0.177 1.20794225754e-38
0.065981192627 0.0188991355766 0.176 1.28159086145e-38
0.0670229811013 0.0190065170287 0.177 1.30924955041e-38
0.0676898764356 0.0190065170287 0.177 1.25386028588e-38
0.0679705753193 0.0188991355766 0.176 1.05102990018e-38
0.0686337028834 0.0188991355766 0.176 1.06943301278e-38
0.0700842944298 0.0191138984809 0.178 1.17095610562e-38
0.0707549575344 0.0191138984809 0.178 1.24471260951e-38
0.0722281557024 0.0193286613851 0.18 1.23549304652e-38
0.0725013190455 0.019221279933 0.179 1.27237129847e-38
0.0731757499204 0.019221279933 0.179 1.29081042444e-38
0.0738501807952 0.019221279933 0.179 1.22627348353e-38
0.0749409502827 0.0193286613851 0.18 1.22627348353e-38
0.0756191489278 0.0193286613851 0.18 1.21705392055e-38
0.0775689700325 0.0196508057416 0.183 1.25403979221e-38
0.0782584719883 0.0196508057416 0.183 1.1987224143e-38
0.0780851545568 0.0194360428373 0.181 1.22638110326e-38
0.0778967660443 0.019221279933 0.179 1.22638110326e-38
0.0781322516849 0.0191138984809 0.178 1.21716154027e-38
0.0792456277939 0.019221279933 0.179 1.21716154027e-38
0.0808130202181 0.0194360428373 0.181 1.24482022923e-38
0.0810447380886 0.0193286613851 0.18 1.23560066624e-38
0.0835390019944 0.0197581871937 0.184 1.17106372534e-38
0.0842322717205 0.0197581871937 0.184 1.20794197728e-38
0.0835408858795 0.0194360428373 0.181 1.20794197728e-38
0.0842228522949 0.0194360428373 0.181 1.21716154027e-38
0.0849048187102 0.0194360428373 0.181 1.1987224143e-38
0.0884239161242 0.0200803315501 0.187 1.21716154027e-38
0.0910349809078 0.0205098573587 0.191 1.18950285131e-38
0.0903134529048 0.0201877130023 0.188 1.13418547339e-38
0.0895693182803 0.0198655686458 0.185 1.1156387277e-38
0.0897784295292 0.0197581871937 0.184 1.17095610562e-38
0.0875215351492 0.0191138984809 0.178 1.21705392055e-38
0.0891831218297 0.0193286613851 0.18 1.20783435756e-38
0.0923574682657 0.0198655686458 0.185 1.23549304652e-38
0.094060500419 0.0200803315501 0.187 1.24471260951e-38
0.0947650734558 0.0200803315501 0.187 1.15251697964e-38
0.0944485807548 0.0198655686458 0.185 7.74514897203e-39
0.0956599188903 0.019972950098 0.186 4.51830472942e-39
0.099987203023 0.020724620263 0.193 5.90123917736e-39
0.0986270379626 0.0202950944544 0.189 9.68126000176e-39
0.0993391465399 0.0202950944544 0.189 1.23549332678e-38
0.0989925116769 0.0200803315501 0.187 1.24471288977e-38
0.100230224204 0.0201877130023 0.188 1.25393245275e-38
0.102549286793 0.0205098573587 0.191 1.21705420081e-38
0.111919731406 0.0222279605929 0.207 6.63880421627e-39
0.183650541436 0.0359727864668 0.335 4.24028571279e-39
0.200920116379 0.0390868485788 0.364 4.97856681522e-39
0.215073745325 0.041556621978 0.387 1.097164289e-38
0.224365066763 0.043059962308 0.401 1.17095638588e-38
0.238160757535 0.0451002098987 0.42 1.28148296147e-38
0.240884855426 0.0453149728029 0.422 9.86349045926e-39
0.240751099582 0.0449928284465 0.419 4.70053798951e-39
0.24117308985 0.0447780655422 0.417 4.42467136733e-39
0.263118467674 0.0485364163671 0.452 4.61050035928e-39
0.265993276376 0.0487511792714 0.454 9.49758900945e-39
0.252205121144 0.0456371171594 0.425 1.22627376379e-38
0.256195189839 0.0460666429679 0.429 1.21691042758e-38
-0.101288967645 0.0193399646959 0.174 1.56732570768e-39
-0.0977416119537 0.0187842185839 0.169 3.41123830494e-39
-0.095955688855 0.0185619201392 0.167 1.10634755836e-38
-0.0936140196443 0.018228472472 0.164 1.22627320327e-38
-0.0924290559005 0.0181173232496 0.163 1.22627320327e-38
-0.0912516276972 0.0180061740272 0.162 1.22627320327e-38
-0.0912007627988 0.0181173232496 0.163 1.22627320327e-38
-0.090030870136 0.0180061740272 0.162 1.21705364029e-38
-0.0910764263805 0.0183396216944 0.165 1.21705364029e-38
-0.0920993760036 0.0186730693615 0.168 1.21705364029e-38
-0.0903775049991 0.0184507709168 0.166 1.21705364029e-38
-0.0875893550137 0.0180061740272 0.162 1.24464100315e-38
-0.0859051617117 0.0177838755824 0.16 1.19854318822e-38
-0.0858354579621 0.0178950248048 0.161 7.83662853838e-39
-0.0862875903921 0.0181173232496 0.163 5.90052031125e-39
-0.0851478398914 0.0180061740272 0.162 9.21956298633e-39
-0.0840156249311 0.0178950248048 0.161 1.16166493628e-38
-0.0834090139208 0.0178950248048 0.161 1.20776275121e-38
-0.0833167035496 0.0180061740272 0.162 1.20776275121e-38
-0.083216857638 0.0181173232496 0.163 1.0786888694e-38
-0.0826027110871 0.0181173232496 0.163 3.87221645426e-39
-0.0814855672079 0.0180061740272 0.162 3.22684704522e-39
-0.0808751884273 0.0180061740272 0.162 4.14880334385e-39
-0.0802648096467 0.0180061740272 0.162 1.08790843239e-38
-0.0801461248838 0.0181173232496 0.163 1.20776275121e-38
-0.0800199045804 0.018228472472 0.164 1.20776275121e-38
-0.0798861487365 0.0183396216944 0.165 9.40395424606e-39
-0.0768625131105 0.0177838755824 0.16 2.58112450896e-39
-0.0772129157438 0.0180061740272 0.162 3.13465421795e-39
-0.0813310886276 0.0191176662511 0.172 4.42538743084e-39
-0.0773994203712 0.0183396216944 0.165 1.15248068601e-38
-0.075381779402 0.0180061740272 0.162 1.19857850094e-38
-0.0738482969101 0.0177838755824 0.16 1.22620159692e-38
-0.0769077263535 0.0186730693615 0.168 1.13400652758e-38
-0.0803608877881 0.0196734123631 0.177 7.55968852158e-39
-0.0774427497291 0.0191176662511 0.172 6.72956491651e-39
-0.0727763662738 0.0181173232496 0.163 9.86493239538e-39
-0.0717195067185 0.0180061740272 0.162 1.1987224143e-38
-0.0750596350456 0.0190065170287 0.171 1.18035503481e-38
-0.0770264111164 0.0196734123631 0.177 1.18957459779e-38
-0.0711825994578 0.0183396216944 0.165 1.23560066624e-38
-0.0684227077493 0.0177838755824 0.16 1.24464100315e-38
-0.0665482420497 0.0174504279153 0.157 1.20769114486e-38
-0.0672170212692 0.0177838755824 0.16 1.1710640056e-38
-0.0670305166418 0.0178950248048 0.161 1.18028356858e-38
-0.0651861931041 0.0175615771376 0.158 1.18028356858e-38
-0.0649996884767 0.01767272636 0.159 1.18950313157e-38
-0.0644006130069 0.01767272636 0.159 1.16184444261e-38
-0.0642028050688 0.0177838755824 0.16 1.18950313157e-38
-0.0632024620672 0.01767272636 0.159 1.16184444261e-38
-0.0626033865974 0.01767272636 0.159 1.19872269456e-38
-0.0627842395694 0.0178950248048 0.161 1.1987224143e-38
-0.0617914321084 0.0177838755824 0.16 1.1987224143e-38
-0.0611885888683 0.0177838755824 0.16 1.1987224143e-38
-0.0609644065384 0.0178950248048 0.161 1.1987224143e-38
-0.0588582229684 0.0174504279153 0.157 1.21716154027e-38
-0.0590089337784 0.01767272636 0.159 1.25403979221e-38
-0.0595119311069 0.0180061740272 0.162 1.27247891819e-38
-0.0578107828388 0.01767272636 0.159 1.23560066624e-38
-0.0572117073689 0.01767272636 0.159 1.21705364029e-38
-0.0573247404764 0.0178950248048 0.161 1.22627320327e-38
-0.0567181294661 0.0178950248048 0.161 1.25393189223e-38
-0.0557629997076 0.0177838755824 0.16 1.15251669938e-38
-0.0555049074454 0.0178950248048 0.161 7.37636364998e-39
-0.0596720613425 0.0194511139183 0.175 7.00758113053e-39
-0.0569894089241 0.0187842185839 0.169 1.01422325459e-38
-0.0536850744144 0.0178950248048 0.161 1.26315145522e-38
-0.0524191036103 0.01767272636 0.159 1.26318690807e-38
-0.0524718523938 0.0178950248048 0.161 1.21705364029e-38
-0.0560531180169 0.0193399646959 0.174 9.03589059272e-39
-0.0569894089241 0.0198957108078 0.179 2.67403900494e-39
-0.0522250634424 0.0184507709168 0.166 2.39745211535e-39
-0.0500454083525 0.0178950248048 0.161 4.97928287873e-39
-0.0491317240667 0.0177838755824 0.16 1.15251669938e-38
-0.0512586303731 0.0187842185839 0.169 1.20786953015e-38
-0.0518200281404 0.0192288154735 0.173 1.26318718833e-38
-0.0473231943465 0.0177838755824 0.16 8.29831994862e-39
-0.0458443445231 0.0174504279153 0.157 3.22756591133e-39
-0.0446763357455 0.0172281294705 0.155 3.7803837607e-39
-0.0440923313566 0.0172281294705 0.155 4.05697065029e-39
-0.0443504236188 0.0175615771376 0.158 1.16173682289e-38
-0.0434781848058 0.0174504279153 0.157 1.18017538834e-38
-0.0431598082196 0.0175615771376 0.158 1.23552849937e-38
-0.0422951049471 0.0174504279153 0.157 1.11553082772e-38
-0.0417035650178 0.0174504279153 0.157 4.88600544645e-39
-0.0408501650561 0.0173392786929 0.156 3.5030709985e-39
-0.0405204851592 0.0174504279153 0.157 6.5458869177e-39
-0.0401832697217 0.0175615771376 0.158 1.14322553005e-38
-0.0393374053005 0.0174504279153 0.157 1.19861479457e-38
-0.0387458653712 0.0174504279153 0.157 1.22627348353e-38
-0.0381543254418 0.0174504279153 0.157 1.23549304652e-38
-0.0375627855125 0.0174504279153 0.157 1.1800324559e-38
-0.0367357599425 0.0173392786929 0.156 1.04181061746e-38
-0.0361479877834 0.0173392786929 0.156 1.10634755836e-38
-0.0357881657245 0.0174504279153 0.157 1.26315173548e-38
-0.0349724434653 0.0173392786929 0.156 1.19861479457e-38
-0.0348255004255 0.0175615771376 0.158 1.25403979221e-38
-0.0350967798835 0.0180061740272 0.162 1.22638110326e-38
-0.0338477640455 0.01767272636 0.159 1.22638110326e-38
-0.0328304660779 0.0174504279153 0.157 1.20794183715e-38
-0.0324442696272 0.0175615771376 0.158 1.21716140014e-38
-0.0316473862192 0.0174504279153 0.157 1.23560052611e-38
-0.033825157424 0.0190065170287 0.171 1.22638096313e-38
-0.0343451097186 0.0196734123631 0.177 1.21716140014e-38
-0.0317754904077 0.0185619201392 0.167 1.20794183715e-38
-0.0302137496389 0.0180061740272 0.162 1.20794183715e-38
-0.029237897144 0.0177838755824 0.16 1.23560052611e-38
-0.0295298993384 0.0183396216944 0.165 1.25403965208e-38
-0.0308354317302 0.0195622631407 0.176 1.23560052611e-38
-0.0298294370733 0.0193399646959 0.174 1.21716140014e-38
-0.0274971872883 0.018228472472 0.164 1.21716140014e-38
-0.0262236809436 0.0177838755824 0.16 1.22638096313e-38
-0.0256208377035 0.0177838755824 0.16 1.21716140014e-38
-0.0253307193942 0.0180061740272 0.162 1.25403965208e-38
-0.0250255300039 0.018228472472 0.164 1.20794183715e-38
-0.024109961833 0.0180061740272 0.162 1.21716140014e-38
-0.0230644055885 0.01767272636 0.159 1.2448200891e-38
-0.0221827473499 0.0174504279153 0.157 1.28169834104e-38
-0.0215912074206 0.0174504279153 0.157 1.20794183715e-38
-0.0209996674912 0.0174504279153 0.157 1.2448200891e-38
-0.0205381156356 0.0175615771376 0.158 1.21716140014e-38
-0.019942807936 0.0175615771376 0.158 7.56183250823e-39
-0.0192250477032 0.0174504279153 0.157 3.78181168383e-39
-0.0186335077739 0.0174504279153 0.157 4.70269318654e-39
-0.0181568848372 0.0175615771376 0.158 1.1156387277e-38
-0.0177838755824 0.0177838755824 0.16 1.26315173548e-38
-0.0172884137945 0.0178950248048 0.161 1.27237129847e-38
-0.016785416466 0.0180061740272 0.162 1.28159086145e-38
-0.0162748835971 0.0181173232496 0.163 7.65295334217e-39
-0.0157568151876 0.018228472472 0.164 3.50414999832e-39
-0.0152312112377 0.0183396216944 0.165 3.87293251777e-39
-0.0146980717473 0.0184507709168 0.166 3.68926432806e-39
-0.0141573967163 0.0185619201392 0.167 1.19872269456e-38
-0.0135281790845 0.0185619201392 0.167 1.23560066624e-38
-0.0128989614526 0.0185619201392 0.167 1.27240675132e-38
-0.0123432153407 0.0186730693615 0.168 1.28159058119e-38
-0.0117799336882 0.0187842185839 0.169 4.70197432043e-39
-0.0112750524747 0.0190065170287 0.171 2.7658716985e-39
-0.010692931971 0.0191176662511 0.172 2.67296000512e-39
-0.0099280746101 0.0188953678063 0.17 9.12987708202e-39
-0.00901439032435 0.0183396216944 0.165 1.26333110168e-38
-0.00849443802978 0.0185619201392 0.167 1.23567241272e-38
-0.00805360891047 0.0190065170287 0.171 1.24489197571e-38
-0.00762596698704 0.0195622631407 0.176 1.24482022923e-38
-0.00712108577347 0.0200068600302 0.18 8.02281205884e-39
-0.00629971185886 0.0195622631407 0.176 7.19305139008e-39
-0.00544442801199 0.0188953678063 0.17 1.03277028054e-38
-0.00474739051565 0.0186730693615 0.168 1.24489197571e-38
-0.00416338612682 0.0188953678063 0.17 1.2541115387e-38
-0.00360575612974 0.0193399646959 0.174 1.22645284974e-38
-0.00303493893679 0.0198957108078 0.179 1.22645284974e-38
-0.00234732086607 0.0197845615854 0.178 1.22645284974e-38
-0.00160130235647 0.0188953678063 0.17 1.24489197571e-38
-0.000960781413881 0.0188953678063 0.17 1.30942891661e-38
-0.000322144356419 0.0190065170287 0.171 1.2541115387e-38
0.000324028241544 0.0191176662511 0.172 1.24489197571e-38
0.000983388035384 0.0193399646959 0.174 1.2541115387e-38
0.00161072178209 0.0190065170287 0.171 1.24489197571e-38
0.0022154489073 0.0186730693615 0.168 1.23567241272e-38
0.00284843430939 0.0186730693615 0.168 1.26333110168e-38
0.00350214244785 0.0187842185839 0.169 1.24489197571e-38
0.00413889562019 0.0187842185839 0.169 1.21723328675e-38
0.00477564879253 0.0187842185839 0.169 1.23567241272e-38
0.00544442801199 0.0188953678063 0.17 1.23567241272e-38
0.00608494895458 0.0188953678063 0.17 1.23567241272e-38
0.00668590830954 0.0187842185839 0.169 1.23567241272e-38
0.00732266148187 0.0187842185839 0.169 1.23567241272e-38
0.00800651178234 0.0188953678063 0.17 1.2541115387e-38
0.00864703272493 0.0188953678063 0.17 1.22645284974e-38
0.00928755366752 0.0188953678063 0.17 1.21723328675e-38
0.0099280746101 0.0188953678063 0.17 1.2541115387e-38
0.0105685955527 0.0188953678063 0.17 1.2357080057e-38
0.0112091164953 0.0188953678063 0.17 1.2357080057e-38
0.0118496374379 0.0188953678063 0.17 1.22645284974e-38
0.0124901583805 0.0188953678063 0.17 1.22645284974e-38
0.0132079186132 0.0190065170287 0.171 1.11581823403e-38
0.0139332143864 0.0191176662511 0.172 6.17961832769e-39
0.0144964960389 0.0190065170287 0.171 6.45584928747e-39
0.0151407847517 0.0190065170287 0.171 9.77489196255e-39
0.0158773838357 0.0191176662511 0.172 1.28159086145e-38
0.0166215184601 0.0192288154735 0.173 1.27237129847e-38
0.0173731886251 0.0193399646959 0.174 1.25393217249e-38
0.0179251669668 0.0192288154735 0.173 1.16173654263e-38
0.0182548468637 0.0188953678063 0.17 4.14951940736e-39
0.0188953678063 0.0188953678063 0.17 3.22756310873e-39
0.0197657227342 0.0191176662511 0.172 2.95097621914e-39
0.0208885182688 0.0195622631407 0.176 6.63880141367e-39
0.0219190034324 0.0198957108078 0.179 1.2632593552e-38
0.0225934343072 0.0198957108078 0.179 1.22638110326e-38
0.0228779009611 0.0195622631407 0.176 1.2632593552e-38
0.0231397609935 0.0192288154735 0.173 1.12485829068e-38
0.023929108861 0.0193399646959 0.174 3.043171849e-39
0.0250085750378 0.0196734123631 0.177 3.41123830494e-39
0.0262557069907 0.0201180092526 0.181 2.48928200631e-39
0.0275329811056 0.0205626061422 0.185 8.48128188391e-39
0.0274670451262 0.0200068600302 0.18 1.26318718833e-38
0.0275197939098 0.0195622631407 0.176 1.26318718833e-38
0.0283430517095 0.0196734123631 0.177 1.2816263143e-38
0.0295016410615 0.0200068600302 0.18 1.20786981041e-38
0.0308505028112 0.0204514569198 0.184 7.8373417993e-39
0.0318866396301 0.0206737553646 0.186 4.70269038395e-39
0.0313610356802 0.0198957108078 0.179 6.8231898708e-39
0.0309616520336 0.0192288154735 0.173 1.18017538834e-38
0.0310652657155 0.0188953678063 0.17 1.22638096313e-38
0.0317057866581 0.0188953678063 0.17 1.22638096313e-38
0.0323463076007 0.0188953678063 0.17 1.25403965208e-38
0.0333749088791 0.0191176662511 0.172 1.2448200891e-38
0.0344185812384 0.0193399646959 0.174 1.26325921507e-38
0.035074173262 0.0193399646959 0.174 1.13418533326e-38
0.0357297652856 0.0193399646959 0.174 1.22638096313e-38
0.0363853573092 0.0193399646959 0.174 1.2448200891e-38
0.0370409493328 0.0193399646959 0.174 1.18957459779e-38
0.0379131881458 0.0194511139183 0.175 1.21723328675e-38
0.0387929624993 0.0195622631407 0.176 1.24489197571e-38
0.0392319077335 0.0194511139183 0.175 1.21723328675e-38
0.0398912675273 0.0194511139183 0.175 1.21723328675e-38
0.0407823451916 0.0195622631407 0.176 1.22645284974e-38
0.0414454727557 0.0195622631407 0.176 1.23567241272e-38
0.0421086003197 0.0195622631407 0.176 1.23567241272e-38
0.0427717278838 0.0195622631407 0.176 1.22645284974e-38
0.0434348554479 0.0195622631407 0.176 1.23567241272e-38
0.044097983012 0.0195622631407 0.176 1.23567241272e-38
0.0447611105761 0.0195622631407 0.176 1.22645284974e-38
0.0454242381402 0.0195622631407 0.176 1.24489197571e-38
0.0463492257367 0.0196734123631 0.177 1.22645284974e-38
0.0472817488737 0.0197845615854 0.178 1.23567241272e-38
0.0479524119783 0.0197845615854 0.178 1.26333110168e-38
0.0478035850534 0.0194511139183 0.175 1.25403979221e-38
0.0481860137338 0.0193399646959 0.174 1.25403979221e-38
0.0491223046411 0.0194511139183 0.175 1.25403979221e-38
0.0503505977427 0.0196734123631 0.177 1.25403979221e-38
0.0518821963496 0.0200068600302 0.18 1.33701585909e-38
0.0522683928003 0.0198957108078 0.179 1.00511159158e-38
0.0517597438164 0.0194511139183 0.175 9.49794213666e-39
0.0530181790801 0.0196734123631 0.177 1.01433115457e-38
0.0548982964351 0.0201180092526 0.181 1.2446407229e-38
0.057422702503 0.020784904587 0.187 1.27229941185e-38
0.0596814807681 0.0213406506989 0.192 1.29073853783e-38
0.0607195014722 0.0214517999213 0.193 1.2815192551e-38
0.0582629152688 0.0203403076974 0.183 1.0786888694e-38
0.0570195510862 0.0196734123631 0.177 5.16295807494e-39
0.0576864464205 0.0196734123631 0.177 3.41124110754e-39
0.0593423814456 0.0200068600302 0.18 4.05661051658e-39
0.0626881614281 0.0208960538094 0.188 9.77452902625e-39
0.06407093311 0.0211183522541 0.19 1.18950285131e-38
0.0627409102116 0.0204514569198 0.184 1.23560066624e-38
0.0610209230922 0.0196734123631 0.177 1.24471260951e-38
0.0616878184265 0.0196734123631 0.177 1.01422353485e-38
0.0630592867977 0.0198957108078 0.179 4.14880334385e-39
0.0648018805386 0.020229158475 0.182 3.87221645426e-39
0.066567080901 0.0205626061422 0.185 3.41052224143e-39
0.0658097590806 0.0201180092526 0.181 7.65403234199e-39
0.0657570102971 0.0198957108078 0.179 1.22638138352e-38
0.0660603158023 0.0197845615854 0.178 1.20794225754e-38
0.065981192627 0.0195622631407 0.176 1.27237129847e-38
0.0670229811013 0.0196734123631 0.177 1.24471260951e-38
0.0688371624769 0.0200068600302 0.18 8.2976038851e-39
0.0679705753193 0.0195622631407 0.176 4.24099617112e-39
0.0682437386624 0.0194511139183 0.175 4.70161418673e-39
0.070478026421 0.0198957108078 0.179 8.75930090053e-39
0.0711524572958 0.0198957108078 0.179 1.25393217249e-38
0.071425620639 0.0197845615854 0.178 1.27237129847e-38
0.0716912484417 0.0196734123631 0.177 1.23549304652e-38
0.072358143776 0.0196734123631 0.177 1.23549304652e-38
0.0730250391103 0.0196734123631 0.177 1.25393217249e-38
0.0741082730574 0.0197845615854 0.178 1.1156387277e-38
0.074778936162 0.0197845615854 0.178 1.08798003874e-38
0.0762973475729 0.0200068600302 0.18 1.15262459937e-38
0.0774031881414 0.0201180092526 0.181 1.22638110326e-38
0.0776537448631 0.0200068600302 0.18 1.23560066624e-38
0.0783319435082 0.0200068600302 0.18 1.21716154027e-38
0.0794490873875 0.0201180092526 0.181 1.22638110326e-38
0.0801310538028 0.0201180092526 0.181 1.21716154027e-38
0.0808130202181 0.0201180092526 0.181 1.18950285131e-38
0.0810447380886 0.0200068600302 0.18 1.18950285131e-38
0.0817229367336 0.0200068600302 0.18 1.17106372534e-38
0.0824011353787 0.0200068600302 0.18 1.18950285131e-38
0.0830793340238 0.0200068600302 0.18 1.22638110326e-38
0.083292213043 0.0198957108078 0.179 1.21716154027e-38
0.0834975565216 0.0197845615854 0.178 1.18028328832e-38
0.0855867851256 0.0201180092526 0.181 1.18028328832e-38
0.0872219974143 0.0203403076974 0.183 1.18950285131e-38
0.0874311086632 0.020229158475 0.182 1.18950285131e-38
0.0881168428488 0.020229158475 0.182 1.19861479457e-38
0.0888025770344 0.020229158475 0.182 1.21705392055e-38
0.08948831122 0.020229158475 0.182 1.23549304652e-38
0.0906695071935 0.0203403076974 0.183 1.23549304652e-38
0.0918582387075 0.0204514569198 0.184 1.22627348353e-38
0.0935575030905 0.0206737553646 0.186 1.20783435756e-38
0.0947650734558 0.020784904587 0.187 1.22627348353e-38
0.0944485807548 0.0205626061422 0.185 1.15251697964e-38
0.0951456182511 0.0205626061422 0.185 1.06032163004e-38
0.0973968609758 0.0208960538094 0.188 1.06032163004e-38
0.099670710322 0.0212295014765 0.191 1.17095638588e-38
0.10039035444 0.0212295014765 0.191 1.23549332678e-38
0.103227485438 0.0216740983661 0.195 1.24471288977e-38
0.103429061147 0.0215629491437 0.194 1.23549332678e-38
0.102012379533 0.0211183522541 0.19 1.23549332678e-38
0.106512981097 0.0218963968109 0.197 9.03589059272e-39
0.121955187469 0.0248974258154 0.224 5.52994272847e-39
0.148016854291 0.0300102900453 0.27 4.9778479491e-39
0.212295014765 0.042459002953 0.382 1.1157110347e-38
0.231638747231 0.0460157780695 0.414 1.21712622755e-38
0.242697152917 0.047571867183 0.428 1.2630438355e-38
0.238601586654 0.0464603749591 0.418 9.4947079398e-39
0.243049439435 0.047016121071 0.423 4.51614672978e-39
0.24117308985 0.0463492257367 0.417 4.70125825692e-39
0.256715142134 0.0490168070741 0.441 3.22756591133e-39
0.258962617088 0.0491279562965 0.442 8.29904582122e-39
0.254731411097 0.0480164640726 0.432 1.16180884963e-38
0.248051154443 0.0464603749591 0.418 1.19861507483e-38
0.252014848746 0.0469049718486 0.422 1.22612999057e-38
-0.10956110723 0.0214894776238 0.187 1.7517169674e-39
-0.100124726637 0.0197657227342 0.172 1.84391259727e-39
-0.0971632592203 0.0193060547636 0.168 5.90052031125e-39
-0.0953811038918 0.0190762207784 0.166 1.25386056614e-38
-0.0941848368372 0.0189613037857 0.165 1.22627320327e-38
-0.0924290559005 0.0187314698004 0.163 1.22627320327e-38
-0.0912516276972 0.0186165528078 0.162 1.22627320327e-38
-0.0912007627988 0.0187314698004 0.163 1.22627320327e-38
-0.0911423623599 0.0188463867931 0.164 1.21705364029e-38
-0.0943882964308 0.0196508057416 0.171 1.21705364029e-38
-0.0948404288608 0.0198806397268 0.173 1.21705364029e-38
-0.0920108334027 0.0194209717563 0.169 1.21705364029e-38
-0.0881300300446 0.0187314698004 0.163 1.19854318822e-38
-0.0864420689724 0.0185016358151 0.161 1.25386056614e-38
-0.0879680159239 0.0189613037857 0.165 1.18932362524e-38
-0.0889344489931 0.0193060547636 0.168 1.19854318822e-38
-0.0861990477913 0.0188463867931 0.164 1.19854318822e-38
-0.0834937887514 0.0183867188225 0.16 1.20776275121e-38
-0.081336740283 0.0180419678446 0.157 1.18932362524e-38
-0.0812595009928 0.0181568848372 0.158 1.2169823142e-38
-0.0821957919001 0.0185016358151 0.161 1.16166493628e-38
-0.0815891808898 0.0185016358151 0.161 6.26930283071e-39
-0.080479572551 0.0183867188225 0.16 5.43954216194e-39
-0.0813744179855 0.0187314698004 0.163 7.74443290852e-39
-0.0807602714346 0.0187314698004 0.163 1.15244537329e-38
-0.0806378189015 0.0188463867931 0.164 1.2169823142e-38
-0.0790440520855 0.0186165528078 0.162 1.20776275121e-38
-0.0789178317821 0.0187314698004 0.163 8.38980231756e-39
-0.0768625131105 0.0183867188225 0.16 2.76551576869e-39
-0.0762596698704 0.0183867188225 0.16 2.58148043877e-39
-0.0766025369632 0.0186165528078 0.162 5.07075683989e-39
-0.0755230707864 0.0185016358151 0.161 1.161700249e-38
-0.0744511401502 0.0183867188225 0.16 1.17091981199e-38
-0.0738482969101 0.0183867188225 0.16 1.22620159692e-38
-0.0741610218409 0.0186165528078 0.162 7.74443571112e-39
-0.0744586756907 0.0188463867931 0.164 2.94990702841e-39
-0.0742910099145 0.0189613037857 0.165 2.57968537544e-39
-0.0727763662738 0.0187314698004 0.163 6.08419550746e-39
-0.0717195067185 0.0186165528078 0.162 1.17088449926e-38
-0.0776933064507 0.0203403076974 0.177 1.16184416235e-38
-0.0800726533639 0.0211447266459 0.184 1.18950285131e-38
-0.0720454188452 0.019191137771 0.167 1.13400624732e-38
-0.0688503496728 0.0185016358151 0.161 7.09834743596e-39
-0.0686676128156 0.0186165528078 0.162 7.00507560888e-39
-0.0718381914814 0.0196508057416 0.171 1.04199012379e-38
-0.0728592572193 0.0201104737121 0.175 1.19872269456e-38
-0.0664239056314 0.0185016358151 0.161 1.1710640056e-38
-0.0649996884767 0.0182718018299 0.159 1.19872269456e-38
-0.0644006130069 0.0182718018299 0.159 1.20794225754e-38
-0.0650053401321 0.0186165528078 0.162 1.20794225754e-38
-0.0643949613515 0.0186165528078 0.162 1.21716182053e-38
-0.0629971185886 0.0183867188225 0.16 1.18950313157e-38
-0.0623942753485 0.0183867188225 0.16 1.1987224143e-38
-0.0606328427564 0.0180419678446 0.157 1.1987224143e-38
-0.0600413028271 0.0180419678446 0.157 1.1987224143e-38
-0.0605857456283 0.0183867188225 0.16 1.1987224143e-38
-0.0584833298285 0.0179270508519 0.156 1.22638110326e-38
-0.0586378084087 0.0181568848372 0.158 1.18950285131e-38
-0.058777215908 0.0183867188225 0.16 1.17106372534e-38
-0.0578107828388 0.0182718018299 0.159 1.1987224143e-38
-0.05685188531 0.0181568848372 0.158 1.21705364029e-38
-0.0566126318991 0.0182718018299 0.159 1.22627320327e-38
-0.0563658429477 0.0183867188225 0.16 1.2078340773e-38
-0.0547174434631 0.0180419678446 0.157 1.24471232925e-38
-0.0541259035338 0.0180419678446 0.157 1.24471232925e-38
-0.0542163300198 0.0182718018299 0.159 1.24471232925e-38
-0.0526056082377 0.0179270508519 0.156 1.24471232925e-38
-0.0520178360786 0.0179270508519 0.156 1.21705364029e-38
-0.0514300639195 0.0179270508519 0.156 1.19861451432e-38
-0.0518200281404 0.0182718018299 0.159 1.24471260951e-38
-0.0554088293041 0.0197657227342 0.172 1.18939551185e-38
-0.0544423962348 0.0196508057416 0.171 7.74515177463e-39
-0.0509666281787 0.0186165528078 0.162 7.5607605149e-39
-0.0491128852154 0.0181568848372 0.158 1.06032163004e-38
-0.0497458706175 0.0186165528078 0.162 1.26315173548e-38
-0.0542916854248 0.0205701416827 0.179 1.16173626237e-38
-0.0548154054896 0.0210298096532 0.183 1.20786981041e-38
-0.0485062742051 0.0188463867931 0.164 8.8514937278e-39
-0.0467203511064 0.0183867188225 0.16 2.85878339188e-39
-0.0449645701696 0.0179270508519 0.156 2.48964494261e-39
-0.0475059312036 0.019191137771 0.167 5.99307887742e-39
-0.0479995091064 0.0196508057416 0.171 1.18017594886e-38
-0.0448628403729 0.0186165528078 0.162 1.2078340773e-38
-0.0434329715628 0.0182718018299 0.159 1.19865024743e-38
-0.0422951049471 0.0180419678446 0.157 8.75822190071e-39
-0.0414379372152 0.0179270508519 0.156 3.22648410891e-39
-0.0411120250885 0.0180419678446 0.157 3.41087536864e-39
-0.040262392897 0.0179270508519 0.156 4.14880054125e-39
-0.0399289452298 0.0180419678446 0.157 1.16166465602e-38
-0.0390868485788 0.0179270508519 0.156 1.20783435756e-38
-0.0384990764198 0.0179270508519 0.156 1.20783435756e-38
-0.0379113042607 0.0179270508519 0.156 1.08798003874e-38
-0.0370842786907 0.0178121338593 0.155 4.42467416992e-39
-0.0365002743019 0.0178121338593 0.155 3.04245578549e-39
-0.0363797056538 0.0180419678446 0.157 5.25515090221e-39
-0.0362440659248 0.0182718018299 0.159 1.19861479457e-38
-0.0354208081251 0.0181568848372 0.158 1.24471260951e-38
-0.0348255004255 0.0181568848372 0.158 1.18028328832e-38
-0.0342301927259 0.0181568848372 0.158 1.24482022923e-38
-0.033209126988 0.0179270508519 0.156 1.15262459937e-38
-0.0328304660779 0.0180419678446 0.157 1.05120926639e-38
-0.0322389261485 0.0180419678446 0.157 1.15262445924e-38
-0.0312442348024 0.0178121338593 0.155 1.20794183715e-38
-0.0318470780425 0.0185016358151 0.161 1.18028314819e-38
-0.0320166277037 0.0189613037857 0.165 1.18950271118e-38
-0.0300630388289 0.0181568848372 0.158 1.19872227417e-38
-0.0294677311293 0.0181568848372 0.158 1.21716140014e-38
-0.0285069497154 0.0179270508519 0.156 1.23560052611e-38
-0.0293509302515 0.0188463867931 0.164 1.22638096313e-38
-0.0304850290969 0.0199955567195 0.174 1.2448200891e-38
-0.0291437028877 0.0195358887489 0.17 1.22638096313e-38
-0.0269941899598 0.0185016358151 0.161 1.23560052611e-38
-0.0260597829377 0.0182718018299 0.159 1.25403965208e-38
-0.0254607074678 0.0182718018299 0.159 1.21716140014e-38
-0.0259561692558 0.0190762207784 0.166 1.20794183715e-38
-0.0262462875651 0.0197657227342 0.172 1.19872227417e-38
-0.0253005772322 0.0195358887489 0.17 1.23560052611e-38
-0.0234995830525 0.0186165528078 0.162 1.21716140014e-38
-0.0226066215031 0.0183867188225 0.16 1.20794183715e-38
-0.0221413018771 0.0185016358151 0.161 1.25403965208e-38
-0.0219359583985 0.0188463867931 0.164 1.23560052611e-38
-0.021837996372 0.0193060547636 0.168 1.26325921507e-38
-0.0207001297563 0.0188463867931 0.164 1.22638096313e-38
-0.0193475002364 0.0181568848372 0.158 1.17106358521e-38
-0.0186335077739 0.0180419678446 0.157 1.21705392055e-38
-0.0180419678446 0.0180419678446 0.157 1.29081042444e-38
-0.01767272636 0.0182718018299 0.159 1.24471260951e-38
-0.0171810323423 0.0183867188225 0.16 1.27237129847e-38
-0.0165781891023 0.0183867188225 0.16 1.30002998742e-38
-0.0159753458622 0.0183867188225 0.16 1.03266266082e-38
-0.0154685807635 0.0185016358151 0.161 4.79488881641e-39
-0.0149542801243 0.0186165528078 0.162 3.41195436846e-39
-0.0144324439446 0.0187314698004 0.163 8.29904582122e-39
-0.0138182973938 0.0187314698004 0.163 1.27247919845e-38
-0.0132041508429 0.0187314698004 0.163 1.20794197728e-38
-0.0125900042921 0.0187314698004 0.163 1.2816263143e-38
-0.0120493292611 0.0188463867931 0.164 1.19861451432e-38
-0.0115011186897 0.0189613037857 0.165 3.13464861276e-39
-0.0109453725777 0.0190762207784 0.166 4.5175886659e-39
-0.010257754507 0.0189613037857 0.165 2.94954689471e-39
-0.00963607241569 0.0189613037857 0.165 8.20792078339e-39
-0.00901439032435 0.0189613037857 0.165 1.29098979064e-38
-0.00839270823302 0.0189613037857 0.165 1.21723328675e-38
-0.00781812326982 0.0190762207784 0.166 1.2632593552e-38
-0.00723600276611 0.019191137771 0.167 9.40467030957e-39
-0.00664634672191 0.0193060547636 0.168 3.22684704522e-39
-0.00601336131982 0.0193060547636 0.168 2.30489074658e-39
-0.00531632382348 0.0190762207784 0.166 4.88636838276e-39
-0.00471913223877 0.019191137771 0.167 1.20801386389e-38
-0.00416338612682 0.0195358887489 0.17 1.22645298987e-38
-0.00360575612974 0.0199955567195 0.174 1.24489211584e-38
-0.00300102900453 0.0203403076974 0.177 1.23567255285e-38
-0.00234732086607 0.02045522469 0.178 1.16191604896e-38
-0.00160130235647 0.0195358887489 0.17 7.83913966523e-39
-0.000966433069257 0.0196508057416 0.171 8.02353092496e-39
-0.000331563782045 0.0202253907048 0.176 1.09737910806e-38
0.000342867092797 0.0209148926606 0.182 1.2541115387e-38
0.00106251121064 0.0216043946164 0.188 1.2541115387e-38
0.00169549661273 0.0206850586753 0.18 1.24489197571e-38
0.00222863610318 0.0194209717563 0.169 1.21723328675e-38
0.00284843430939 0.0193060547636 0.168 1.22645284974e-38
0.00350214244785 0.0194209717563 0.169 1.23567241272e-38
0.00421236714007 0.0197657227342 0.172 1.24489197571e-38
0.0049451984538 0.0201104737121 0.175 1.22645284974e-38
0.00554050615338 0.0198806397268 0.173 1.23567241272e-38
0.00612074277196 0.0196508057416 0.171 1.23567241272e-38
0.00672546989717 0.0195358887489 0.17 1.23567241272e-38
0.00732266148187 0.0194209717563 0.169 1.23567241272e-38
0.00795941465421 0.0194209717563 0.169 1.19879416078e-38
0.00859616782655 0.0194209717563 0.169 1.19879416078e-38
0.00923292099888 0.0194209717563 0.169 1.20801372376e-38
0.00975287329346 0.019191137771 0.167 1.21723328675e-38
0.0103820909253 0.019191137771 0.167 1.22648844272e-38
0.0110113085571 0.019191137771 0.167 1.22648844272e-38
0.0117102299386 0.0193060547636 0.168 1.23567241272e-38
0.0123432153407 0.0193060547636 0.168 1.23567241272e-38
0.0129762007428 0.0193060547636 0.168 1.25411167883e-38
0.0136091861449 0.0193060547636 0.168 1.24489211584e-38
0.0142421715469 0.0193060547636 0.168 1.23563695987e-38
0.014875156949 0.0193060547636 0.168 1.26329564883e-38
0.0155081423511 0.0193060547636 0.168 1.25403979221e-38
0.0162372058946 0.0194209717563 0.169 1.25403979221e-38
0.0169738049786 0.0195358887489 0.17 1.25403979221e-38
0.0176143259212 0.0195358887489 0.17 1.23560066624e-38
0.0182548468637 0.0195358887489 0.17 9.03696398734e-39
0.0188953678063 0.0195358887489 0.17 5.81011694213e-39
0.0196508057416 0.0196508057416 0.171 6.45548635117e-39
0.0202950944544 0.0196508057416 0.171 1.04198984353e-38
0.0210618357004 0.0197657227342 0.172 1.2632593552e-38
0.0218361124869 0.0198806397268 0.173 1.20794197728e-38
0.0224879367402 0.0198806397268 0.173 1.25403979221e-38
0.0231397609935 0.0198806397268 0.173 1.08798003874e-38
0.0237915852469 0.0198806397268 0.173 3.22756310873e-39
0.0245847008846 0.0199955567195 0.174 3.68782519453e-39
0.0255304112175 0.0202253907048 0.176 2.39708637645e-39
0.0264911926314 0.02045522469 0.178 8.48128188391e-39
0.0268566663457 0.0202253907048 0.176 1.27240675132e-38
0.0273634314444 0.0201104737121 0.175 1.25396762534e-38
0.0283430517095 0.0203403076974 0.177 1.30006544028e-38
0.0298294370733 0.0209148926606 0.182 9.77345002643e-39
0.0313535001397 0.0214894776238 0.187 2.85878058928e-39
0.0325723738157 0.0218342286017 0.19 3.22756591133e-39
0.0318866396301 0.0209148926606 0.182 2.76658776201e-39
0.0314985592943 0.0202253907048 0.176 9.12808622258e-39
0.0316134762869 0.0198806397268 0.173 1.22638096313e-38
0.0322653005403 0.0198806397268 0.173 1.21716140014e-38
0.0336782143842 0.0203403076974 0.177 1.26325921507e-38
0.0353153105581 0.0209148926606 0.182 1.15262445924e-38
0.0358032368055 0.020799975668 0.181 7.46963687837e-39
0.0356789003872 0.0203403076974 0.177 5.6257242811e-39
0.0359351087643 0.0201104737121 0.175 7.65402813809e-39
0.0365944685581 0.0201104737121 0.175 1.16184402222e-38
0.037253828352 0.0201104737121 0.175 1.20801372376e-38
0.0383464817246 0.0203403076974 0.177 1.22645284974e-38
0.0396746207379 0.0206850586753 0.18 1.20801372376e-38
0.0392319077335 0.0201104737121 0.175 1.22645284974e-38
0.0398912675273 0.0201104737121 0.175 1.23567241272e-38
0.0405506273212 0.0201104737121 0.175 1.19879416078e-38
0.041209987115 0.0201104737121 0.175 1.22645284974e-38
0.0418693469088 0.0201104737121 0.175 1.22645284974e-38
0.0425287067027 0.0201104737121 0.175 1.22645284974e-38
0.0431880664965 0.0201104737121 0.175 1.23567241272e-38
0.0435968695687 0.0199955567195 0.174 1.23567241272e-38
0.0442524615923 0.0199955567195 0.174 1.22645284974e-38
0.0449080536159 0.0199955567195 0.174 1.23567241272e-38
0.0455636456395 0.0199955567195 0.174 1.24489197571e-38
0.0462192376631 0.0199955567195 0.174 1.24489197571e-38
0.0468748296866 0.0199955567195 0.174 1.21723328675e-38
0.0475304217102 0.0199955567195 0.174 1.25403979221e-38
0.0481860137338 0.0199955567195 0.174 1.25403979221e-38
0.0488416057574 0.0199955567195 0.174 1.25403979221e-38
0.049497197781 0.0199955567195 0.174 1.25403979221e-38
0.0504410242288 0.0201104737121 0.175 1.28169848117e-38
0.0508083818282 0.0199955567195 0.174 1.22638110326e-38
0.0514639738518 0.0199955567195 0.174 1.2632593552e-38
0.0521195658754 0.0199955567195 0.174 1.25403979221e-38
0.0530784634041 0.0201104737121 0.175 1.2816263143e-38
0.0543519697488 0.0203403076974 0.177 1.29081014418e-38
0.0556405471745 0.0205701416827 0.179 1.27237101821e-38
0.0556857604175 0.0203403076974 0.177 1.24471260951e-38
0.0560342791656 0.0202253907048 0.176 1.32768867638e-38
0.0563752623733 0.0201104737121 0.175 1.02344337809e-38
0.0573605342938 0.0202253907048 0.176 8.48271681354e-39
0.0590127015487 0.0205701416827 0.179 9.49686874203e-39
0.0610209230922 0.0210298096532 0.183 1.13418547339e-38
0.0623848559229 0.0212596436385 0.185 1.20794197728e-38
0.0623999270039 0.0210298096532 0.183 1.22638110326e-38
0.061710425048 0.0205701416827 0.179 1.22627348353e-38
0.0620363371747 0.02045522469 0.178 1.17095610562e-38
0.0634115733162 0.0206850586753 0.18 5.5317377918e-39
0.066582151982 0.0214894776238 0.187 4.05660771399e-39
0.0694456573723 0.0221789795797 0.193 3.50271787129e-39
0.0679912980556 0.0214894776238 0.187 8.3915973809e-39
0.0664917254959 0.020799975668 0.181 1.20794225754e-38
0.0671736919113 0.020799975668 0.181 1.20794225754e-38
0.0671058720468 0.0205701416827 0.179 1.26315173548e-38
0.0689162856522 0.0209148926606 0.182 1.19861479457e-38
0.0711317345595 0.0213745606312 0.186 5.5317349892e-39
0.070673950474 0.0210298096532 0.183 3.31903987248e-39
0.0686337028834 0.0202253907048 0.176 3.87185351796e-39
0.0696905624386 0.0203403076974 0.177 4.51830192682e-39
0.0711524572958 0.0205701416827 0.179 1.15251697964e-38
0.0730306907657 0.0209148926606 0.182 1.24471260951e-38
0.0741214602532 0.0210298096532 0.183 1.23549304652e-38
0.0744021591369 0.0209148926606 0.182 1.26315173548e-38
0.0738501807952 0.0205701416827 0.179 1.00500397186e-38
0.07452461167 0.0205701416827 0.179 5.25586696572e-39
0.0751990425449 0.0205701416827 0.179 4.97928007613e-39
0.0762973475729 0.0206850586753 0.18 7.46963827967e-39
0.076975546218 0.0206850586753 0.18 1.14340503638e-38
0.0767909254757 0.02045522469 0.178 1.20794197728e-38
0.0770264111164 0.0203403076974 0.177 1.22638110326e-38
0.0785711969191 0.0205701416827 0.179 1.22638110326e-38
0.0792456277939 0.0205701416827 0.179 1.25403979221e-38
0.0803665394435 0.0206850586753 0.18 1.15262459937e-38
0.0801442409987 0.02045522469 0.178 1.07886809547e-38
0.0803608877881 0.0203403076974 0.177 1.12496591041e-38
0.0814855672079 0.02045522469 0.178 1.17106372534e-38
0.0826177821681 0.0205701416827 0.179 1.18950285131e-38
0.083292213043 0.0205701416827 0.179 1.18950285131e-38
0.0839666439178 0.0205701416827 0.179 1.18950285131e-38
0.0841682196262 0.02045522469 0.178 1.18028328832e-38
0.0853155056675 0.0205701416827 0.179 1.17106372534e-38
0.0869507179562 0.020799975668 0.181 1.18950285131e-38
0.0871485258944 0.0206850586753 0.18 1.19861479457e-38
0.0883146507869 0.020799975668 0.181 1.20783435756e-38
0.0885049231846 0.0206850586753 0.18 1.20783435756e-38
0.0886876600417 0.0205701416827 0.179 1.21705392055e-38
0.090360550033 0.020799975668 0.181 1.21705392055e-38
0.0905395191199 0.0206850586753 0.18 1.21705392055e-38
0.0907109526662 0.0205701416827 0.179 1.22627348353e-38
0.0913853835411 0.0205701416827 0.179 1.20783435756e-38
0.0925741150551 0.0206850586753 0.18 1.20783463782e-38
0.095324587338 0.0211447266459 0.184 1.20783463782e-38
0.0975833656032 0.0214894776238 0.187 1.23549332678e-38
0.09828793864 0.0214894776238 0.187 1.24471288977e-38
0.0995218833971 0.0216043946164 0.188 1.24471288977e-38
0.101296503185 0.0218342286017 0.19 1.21705420081e-38
0.101475472272 0.0217193116091 0.189 1.24471288977e-38
0.105972306066 0.0225237305576 0.196 1.16173682289e-38
0.111066331445 0.0234430664987 0.204 1.05095829383e-38
0.133215168862 0.0279248292117 0.243 9.86493239538e-39
0.206737553646 0.0427491212623 0.372 1.2171978339e-38
0.218769927941 0.0449325441225 0.391 1.22641739689e-38
0.225875942633 0.0460817140489 0.401 1.1987224143e-38
0.235325510421 0.0476905519459 0.415 1.26311544185e-38
0.237459952268 0.0478054689385 0.416 1.06943259239e-38
0.254968780623 0.0503336427766 0.438 4.88708724887e-39
0.252517846075 0.0495292238281 0.431 8.94441523027e-39
0.252962442964 0.0492993898429 0.429 1.17102841262e-38
0.245677459185 0.0475756349532 0.414 1.18939551185e-38
0.245445741314 0.0472308839753 0.411 1.22612999057e-38
-0.102530447942 0.020769833506 0.175 1.93610822713e-39
-0.0989604856297 0.0201764096915 0.17 1.7517169674e-39
-0.0965849064868 0.0198203554028 0.167 8.85078046688e-39
-0.0953811038918 0.0197016706399 0.166 1.26308012913e-38
-0.0941848368372 0.019582985877 0.165 1.22627320327e-38
-0.0935631547459 0.019582985877 0.165 1.22627320327e-38
-0.0918149093496 0.0193456163513 0.163 1.22627320327e-38
-0.0912007627988 0.0193456163513 0.163 1.22627320327e-38
-0.0916981084719 0.019582985877 0.165 1.21705364029e-38
-0.0938363180891 0.0201764096915 0.17 1.21705364029e-38
-0.092647586575 0.0200577249286 0.169 1.21705364029e-38
-0.0892886193967 0.0194643011142 0.164 1.21705364029e-38
-0.0870486799827 0.0191082468255 0.161 1.24464100315e-38
-0.0859051617117 0.0189895620626 0.16 1.23542144017e-38
-0.0890342949048 0.0198203554028 0.167 1.22620187718e-38
-0.0910519358739 0.0204137792173 0.172 1.22620187718e-38
-0.0872502556912 0.0197016706399 0.166 1.2169823142e-38
-0.0845374611108 0.0192269315884 0.162 1.17088449926e-38
-0.0823728771019 0.0188708772997 0.159 1.20776275121e-38
-0.0858882067456 0.0198203554028 0.167 1.2169823142e-38
-0.0852589891138 0.0198203554028 0.167 1.23542144017e-38
-0.0820959459884 0.0192269315884 0.162 1.16166493628e-38
-0.080479572551 0.0189895620626 0.16 1.18932362524e-38
-0.0803759588691 0.0191082468255 0.161 1.17088449926e-38
-0.0797693478588 0.0191082468255 0.161 1.17088449926e-38
-0.0801461248838 0.0193456163513 0.163 1.20776275121e-38
-0.0790440520855 0.0192269315884 0.162 1.20776275121e-38
-0.0789178317821 0.0193456163513 0.163 1.06946930641e-38
-0.0768625131105 0.0189895620626 0.16 5.34699340486e-39
-0.0762596698704 0.0189895620626 0.16 5.07076244508e-39
-0.0770753921296 0.0193456163513 0.163 9.21956018374e-39
-0.0764612455788 0.0193456163513 0.163 1.18013937497e-38
-0.0744511401502 0.0189895620626 0.16 1.18013937497e-38
-0.0729251931987 0.0187521925368 0.158 1.21698203394e-38
-0.0727876695846 0.0188708772997 0.159 6.82247941248e-39
-0.0717345777995 0.0187521925368 0.158 2.85771139855e-39
-0.0724900157348 0.0191082468255 0.161 3.50092420926e-39
-0.0718834047244 0.0191082468255 0.161 6.82068434915e-39
-0.0708340807097 0.0189895620626 0.16 1.23542144017e-38
-0.0728649088747 0.0197016706399 0.166 1.18939523159e-38
-0.0713691040852 0.0194643011142 0.164 1.22627348353e-38
-0.0690255509894 0.0189895620626 0.16 7.19125912934e-39
-0.0679950658259 0.0188708772997 0.159 2.76407663516e-39
-0.0682437386624 0.0191082468255 0.161 2.94775043008e-39
-0.0735186170132 0.020769833506 0.175 8.48379301076e-39
-0.0728592572193 0.020769833506 0.175 1.1710640056e-38
-0.0668364764739 0.0192269315884 0.162 1.18028356858e-38
-0.0658172946211 0.0191082468255 0.161 1.21716182053e-38
-0.0652106836108 0.0191082468255 0.161 1.01433143483e-38
-0.0694192829806 0.0205324639802 0.173 6.82427167322e-39
-0.0695624582501 0.020769833506 0.175 6.82427167322e-39
-0.0649657785445 0.019582985877 0.165 1.05120968678e-38
-0.0631742037904 0.0192269315884 0.162 1.20794197728e-38
-0.0614052356578 0.0188708772997 0.159 1.20794197728e-38
-0.0638655896313 0.0198203554028 0.167 1.20794197728e-38
-0.0624790501791 0.019582985877 0.165 1.20794197728e-38
-0.0584833298285 0.018514823011 0.156 1.15262459937e-38
-0.0582666830391 0.0186335077739 0.157 1.1987224143e-38
-0.0580425007092 0.0187521925368 0.158 1.22638110326e-38
-0.0563564235221 0.0183961382481 0.155 1.1987224143e-38
-0.0564920632511 0.0186335077739 0.157 1.2078340773e-38
-0.0566126318991 0.0188708772997 0.159 1.21705364029e-38
-0.0560135564293 0.0188708772997 0.159 1.22627320327e-38
-0.0547174434631 0.0186335077739 0.157 1.21705364029e-38
-0.0541259035338 0.0186335077739 0.157 1.24471232925e-38
-0.0538753468121 0.0187521925368 0.158 1.25393189223e-38
-0.0529428236751 0.0186335077739 0.157 1.27237101821e-38
-0.0523512837458 0.0186335077739 0.157 1.23549276626e-38
-0.0514300639195 0.018514823011 0.156 1.22627348353e-38
-0.0508422917604 0.018514823011 0.156 1.19861479457e-38
-0.0518652413835 0.0191082468255 0.161 1.21705392055e-38
