VERSION .7
FIELDS x y z rgb
SIZE 4 4 4 4
TYPE F F F F
COUNT 1 1 1 1
WIDTH 839
HEIGHT 1
VIEWPOINT 0 0 0 1 0 0 0
POINTS 839
DATA ascii
0.0047963715289 -0.0229720952174 0.134 1.30017306e-38
0.0053408143301 -0.0231435287638 0.135 1.29084587729e-38
0.0058927926718 -0.0233149623102 0.136 9.68125439657e-39
0.00645230655401 -0.0234863958566 0.137 5.44025822545e-39
0.00701935597671 -0.023657829403 0.138 3.31976154119e-39
0.00759394093991 -0.0238292629494 0.139 3.31904547768e-39
0.00817606144362 -0.0240006964958 0.14 3.59563236727e-39
0.00876571748782 -0.0241721300422 0.141 8.20720331857e-39
0.00936290907253 -0.0243435635886 0.142 1.13418547339e-38
0.0100373399474 -0.0246864306814 0.144 1.26325921507e-38
0.0106533703833 -0.0248578642278 0.145 1.29091790403e-38
0.0112769363598 -0.0250292977742 0.146 1.30935703e-38
0.0119890449371 -0.025372164867 0.148 1.30935703e-38
0.0126314497648 -0.0255435984134 0.149 1.30939262298e-38
0.0132813901331 -0.0257150319598 0.15 1.30939262298e-38
0.013385003815 -0.0248578642278 0.145 1.27255066467e-38
0.0134509397943 -0.0240006964958 0.14 1.28177022766e-38
0.0139784276294 -0.0240006964958 0.14 1.26333110168e-38
0.0144023017826 -0.0238292629494 0.139 1.23567241272e-38
0.0149260218474 -0.0238292629494 0.139 1.23567241272e-38
0.0155608911346 -0.0240006964958 0.14 1.2541115387e-38
0.0162032959623 -0.0241721300422 0.141 1.28177022766e-38
0.0167345515677 -0.0241721300422 0.141 1.29098979064e-38
0.017265807173 -0.0241721300422 0.141 1.29091804416e-38
0.0177970627783 -0.0241721300422 0.141 1.31857673312e-38
0.0183283183836 -0.0241721300422 0.141 1.22638110326e-38
0.0188595739889 -0.0241721300422 0.141 9.03696398734e-39
0.0193908295943 -0.0241721300422 0.141 4.70376938377e-39
0.020063376584 -0.0243435635886 0.142 4.24279123445e-39
0.0208885182688 -0.0246864306814 0.144 5.81011694213e-39
0.0218775579596 -0.0252007313206 0.147 9.68233339638e-39
0.0221262307961 -0.0248578642278 0.145 1.18035503481e-38
0.0223598325517 -0.024514997135 0.143 1.27255066467e-38
0.0228986236975 -0.024514997135 0.143 1.26333110168e-38
0.0236013128492 -0.0246864306814 0.144 1.28177022766e-38
0.0241438717653 -0.0246864306814 0.144 1.26333110168e-38
0.0246864306814 -0.0246864306814 0.144 1.28177022766e-38
0.0252289895974 -0.0246864306814 0.144 1.27255066467e-38
0.0257715485135 -0.0246864306814 0.144 1.23567241272e-38
0.0263141074296 -0.0246864306814 0.144 1.12496591041e-38
0.0266701617183 -0.024514997135 0.143 8.94476835748e-39
0.0273992252617 -0.0246864306814 0.144 7.00866013035e-39
0.0281358243457 -0.0248578642278 0.145 7.46963827967e-39
0.0290777669083 -0.0252007313206 0.147 9.95892028597e-39
0.030034780552 -0.0255435984134 0.149 1.20794197728e-38
0.0299801478833 -0.0250292977742 0.146 1.27247891819e-38
0.0301120198421 -0.0246864306814 0.144 1.27247891819e-38
0.0306545787582 -0.0246864306814 0.144 1.30013760715e-38
0.0311971376743 -0.0246864306814 0.144 1.25403979221e-38
0.03196011115 -0.0248578642278 0.145 1.15262459937e-38
0.0327306201662 -0.0250292977742 0.146 1.11574634742e-38
0.0337366148231 -0.025372164867 0.148 1.14340503638e-38
0.0342942448202 -0.025372164867 0.148 1.20794197728e-38
0.0348518748173 -0.025372164867 0.148 1.23560066624e-38
0.0356487582252 -0.0255435984134 0.149 1.23560066624e-38
0.0359671348114 -0.025372164867 0.148 1.25403979221e-38
0.0365247648085 -0.025372164867 0.148 1.25403979221e-38
0.0373329515272 -0.0255435984134 0.149 1.26315145522e-38
0.0381486737865 -0.0257150319598 0.15 1.25393189223e-38
0.038713839324 -0.0257150319598 0.15 1.21705364029e-38
0.0392790048616 -0.0257150319598 0.15 9.77308989273e-39
0.0393129147939 -0.025372164867 0.148 5.8086778086e-39
0.0404093359368 -0.0257150319598 0.15 3.50378706202e-39
0.0409745014743 -0.0257150319598 0.15 2.21413425024e-39
0.0420935292387 -0.0260578990526 0.152 5.53353285513e-39
0.0437890258515 -0.0267436332381 0.156 1.06042924976e-38
0.0440923313566 -0.0265721996917 0.155 1.22638138352e-38
0.0443881013213 -0.0264007661454 0.154 1.26325963546e-38
0.0443843335511 -0.0260578990526 0.152 1.2632593552e-38
0.0452528045938 -0.026229332599 0.153 1.25403979221e-38
0.046128811177 -0.0264007661454 0.154 1.24482022923e-38
0.0464057422905 -0.026229332599 0.153 1.21716154027e-38
0.0466751378634 -0.0260578990526 0.152 1.21716154027e-38
0.0475586799871 -0.026229332599 0.153 1.22638110326e-38
0.0481351488354 -0.026229332599 0.153 1.22638110326e-38
0.0487116176838 -0.026229332599 0.153 1.23560066624e-38
0.0505766639578 -0.0269150667845 0.157 1.2632593552e-38
0.0531236766471 -0.0279436680629 0.163 1.27247891819e-38
0.053737823198 -0.0279436680629 0.163 1.23560066624e-38
0.0533516267473 -0.0274293674237 0.16 1.27229941185e-38
0.0529428236751 -0.0269150667845 0.157 1.01415164824e-38
0.0538753468121 -0.0270865003309 0.158 6.17782326436e-39
0.0544706545117 -0.0270865003309 0.158 3.87293251777e-39
0.0543689247149 -0.0267436332381 0.156 4.61049755668e-39
0.0556612699108 -0.0270865003309 0.158 9.31247467971e-39
0.0566126318991 -0.0272579338773 0.159 1.12496619067e-38
0.0572117073689 -0.0272579338773 0.159 1.22638138352e-38
0.0592651421555 -0.0279436680629 0.163 1.25393189223e-38
0.0609813615046 -0.0284579687021 0.166 1.24471232925e-38
0.0638335635842 -0.0294865699805 0.172 1.24471232925e-38
0.0614824749479 -0.0281151016093 0.164 1.22627320327e-38
0.0609644065384 -0.0276008009701 0.161 1.21705364029e-38
0.0619534462292 -0.0277722345165 0.162 1.03266238056e-38
0.0629500214605 -0.0279436680629 0.163 8.8514937278e-39
0.0631742037904 -0.0277722345165 0.162 9.22027624725e-39
0.063784582571 -0.0277722345165 0.162 1.07886809547e-38
0.0639974615901 -0.0276008009701 0.161 1.18950285131e-38
0.0654066076638 -0.0279436680629 0.163 1.20794197728e-38
0.0676408954224 -0.0286294022485 0.167 1.20794197728e-38
0.0707229314873 -0.0296580035269 0.173 1.18939495133e-38
0.0713747557406 -0.0296580035269 0.173 1.06032106952e-38
0.0707775641559 -0.0291437028877 0.17 9.95784128616e-39
0.0697376595668 -0.0284579687021 0.166 1.06954063251e-38
0.0703631094283 -0.0284579687021 0.166 1.16184416235e-38
0.0705609173665 -0.0282865351557 0.165 1.20794197728e-38
0.0711825994578 -0.0282865351557 0.165 1.21716154027e-38
0.072674636477 -0.0286294022485 0.167 1.21716154027e-38
0.0733038541089 -0.0286294022485 0.167 1.25393189223e-38
0.0748184977496 -0.0289722693413 0.169 1.24471232925e-38
0.0776876547953 -0.0298294370733 0.174 1.17095582536e-38
0.0787934953639 -0.0300008706197 0.175 7.92953742916e-39
0.0785448225273 -0.0296580035269 0.173 4.33319180098e-39
0.0791966467807 -0.0296580035269 0.173 3.31903987248e-39
0.0789253673226 -0.0293151364341 0.171 7.19197519285e-39
0.0795696560355 -0.0293151364341 0.171 1.10641916471e-38
0.0806830321445 -0.0294865699805 0.172 1.21705392055e-38
0.0827496541269 -0.0300008706197 0.175 1.22627348353e-38
0.0824557680474 -0.0296580035269 0.173 1.20794225754e-38
0.0845487644215 -0.0301723041661 0.176 1.18950313157e-38
0.0852118919856 -0.0301723041661 0.176 1.18950313157e-38
0.0844112408074 -0.0296580035269 0.173 1.18028356858e-38
0.0855547590784 -0.0298294370733 0.174 1.18028356858e-38
0.0872012746779 -0.0301723041661 0.176 1.18950313157e-38
0.0883636318002 -0.0303437377125 0.177 1.20783435756e-38
0.089533524463 -0.0305151712589 0.178 1.21705392055e-38
-0.0591219668859 -0.0165989118386 0.099 1.31846883314e-38
-0.0587489576311 -0.0165989118386 0.099 1.30924927015e-38
-0.0583759483763 -0.0165989118386 0.099 1.30002970716e-38
-0.0585888273955 -0.0167665776148 0.1 1.29081014418e-38
-0.0576299298667 -0.0165989118386 0.099 1.29081014418e-38
-0.0578352733454 -0.0167665776148 0.1 1.28159058119e-38
-0.0574584963203 -0.0167665776148 0.1 1.26315145522e-38
-0.0576525364882 -0.0169342433909 0.101 1.23549276626e-38
-0.0572719916929 -0.0169342433909 0.101 1.22627320327e-38
-0.0568914468976 -0.0169342433909 0.101 1.21705364029e-38
-0.0559513882201 -0.0167665776148 0.1 1.22627320327e-38
-0.0555746111951 -0.0167665776148 0.1 1.23549276626e-38
-0.05519783417 -0.0167665776148 0.1 1.24471232925e-38
-0.054821057145 -0.0167665776148 0.1 1.27237101821e-38
-0.0549887229211 -0.0169342433909 0.101 1.30002970716e-38
-0.0556895281877 -0.0172695749432 0.103 1.28169834104e-38
-0.0553014478519 -0.0172695749432 0.103 1.27247877806e-38
-0.0543802280257 -0.0171019091671 0.102 1.29081014418e-38
-0.0539959154601 -0.0171019091671 0.102 1.22627320327e-38
-0.0536116028946 -0.0171019091671 0.102 1.12485829068e-38
-0.0527054541493 -0.0169342433909 0.101 9.5890643719e-39
-0.052324909354 -0.0169342433909 0.101 7.19125912934e-39
-0.0519443645587 -0.0169342433909 0.101 5.80832468139e-39
-0.0515638197634 -0.0169342433909 0.101 6.26894970349e-39
-0.0511832749681 -0.0169342433909 0.101 7.19126193194e-39
-0.0513057275012 -0.0171019091671 0.102 8.66639200975e-39
-0.0504221853775 -0.0169342433909 0.101 1.04188250407e-38
-0.0500416405822 -0.0169342433909 0.101 1.18939551185e-38
-0.0496610957869 -0.0169342433909 0.101 1.27237129847e-38
-0.0492805509916 -0.0169342433909 0.101 1.30002998742e-38
-0.0484158477191 -0.0167665776148 0.1 1.28169848117e-38
-0.0480390706941 -0.0167665776148 0.1 1.3091776638e-38
-0.0481389166057 -0.0169342433909 0.101 1.29995810081e-38
-0.0477583718104 -0.0169342433909 0.101 1.29073853783e-38
-0.0473778270151 -0.0169342433909 0.101 1.29995810081e-38
-0.0469972822198 -0.0169342433909 0.101 1.3091776638e-38
-0.0466167374245 -0.0169342433909 0.101 1.29995810081e-38
-0.0466939767146 -0.0171019091671 0.102 1.29995810081e-38
-0.0467636804643 -0.0172695749432 0.103 1.27229941185e-38
-0.0472760972183 -0.0176049064955 0.105 1.1801756686e-38
-0.0473269621167 -0.0177725722717 0.106 1.06032134978e-38
-0.0460421524613 -0.0174372407194 0.104 8.5749096408e-39
-0.045211359121 -0.0172695749432 0.103 6.8231926734e-39
-0.0448232787852 -0.0172695749432 0.103 6.54660578381e-39
-0.0444351984494 -0.0172695749432 0.103 7.19197519285e-39
-0.0440471181136 -0.0172695749432 0.103 8.85149653039e-39
-0.0436590377778 -0.0172695749432 0.103 1.08798003874e-38
-0.043270957442 -0.0172695749432 0.103 1.22627320327e-38
-0.0428828771062 -0.0172695749432 0.103 1.28159058119e-38
-0.0424947967704 -0.0172695749432 0.103 1.30924927015e-38
-0.0421067164346 -0.0172695749432 0.103 1.31846883314e-38
-0.0417186360988 -0.0172695749432 0.103 1.30002970716e-38
-0.0417318232947 -0.0174372407194 0.104 1.30002970716e-38
-0.0421349747115 -0.0177725722717 0.106 1.28159058119e-38
-0.0417355910649 -0.0177725722717 0.106 1.25393189223e-38
-0.0417261716393 -0.0179402380478 0.107 1.22630865613e-38
-0.0405506273212 -0.0176049064955 0.105 1.22630893638e-38
-0.0401550114449 -0.0176049064955 0.105 1.24471232925e-38
-0.0397593955685 -0.0176049064955 0.105 1.29081014418e-38
-0.0397386728322 -0.0177725722717 0.106 1.30002970716e-38
-0.0393392891856 -0.0177725722717 0.106 1.30002970716e-38
-0.0393072631385 -0.0179402380478 0.107 1.30928500326e-38
-0.0392677015509 -0.018107903824 0.108 1.31850428599e-38
-0.0388607823638 -0.018107903824 0.108 1.30013746702e-38
-0.0388099174654 -0.0182755696001 0.109 1.29091790403e-38
-0.0383992305081 -0.0182755696001 0.109 1.29091790403e-38
-0.0379885435508 -0.0182755696001 0.109 1.29091790403e-38
-0.0379226075714 -0.0184432353763 0.11 1.28169834104e-38
-0.0378491360515 -0.0186109011524 0.111 1.30013746702e-38
-0.0377681289912 -0.0187785669286 0.112 1.30013746702e-38
-0.0376795863903 -0.0189462327047 0.113 1.23560052611e-38
-0.0375835082489 -0.0191138984809 0.114 1.0327705608e-38
-0.0371539824403 -0.0191138984809 0.114 7.74514897203e-39
-0.0370466009882 -0.019281564257 0.115 4.24099897371e-39
-0.0369316839955 -0.0194492300332 0.116 3.50271787129e-39
-0.0364946226465 -0.0194492300332 0.116 3.13393535184e-39
-0.0354358792061 -0.0191138984809 0.114 3.31832380897e-39
-0.0343922068467 -0.0187785669286 0.112 6.26930002811e-39
-0.0330603000631 -0.0182755696001 0.109 9.77273396292e-39
-0.0326496131058 -0.0182755696001 0.109 1.21716182053e-38
-0.0322389261485 -0.0182755696001 0.109 1.28169848117e-38
-0.0318282391912 -0.0182755696001 0.109 1.30935717013e-38
-0.0317057866581 -0.0184432353763 0.11 1.30013760715e-38
-0.0315757985844 -0.0186109011524 0.111 1.30013746702e-38
-0.0311575760866 -0.0186109011524 0.111 1.30935703e-38
-0.0307393535888 -0.0186109011524 0.111 1.30935703e-38
-0.030321131091 -0.0186109011524 0.111 1.30939262298e-38
-0.0301723041661 -0.0187785669286 0.112 1.30013760715e-38
-0.0297503138981 -0.0187785669286 0.112 1.30013760715e-38
-0.0295901836624 -0.0189462327047 0.113 1.30013760715e-38
-0.0294225178863 -0.0191138984809 0.114 1.30013760715e-38
-0.0289929920777 -0.0191138984809 0.114 1.29091790403e-38
-0.0288140229908 -0.019281564257 0.115 1.30013746702e-38
-0.028380729412 -0.019281564257 0.115 1.30013746702e-38
-0.0281904570143 -0.0194492300332 0.116 1.30013746702e-38
-0.0277533956653 -0.0194492300332 0.116 1.31857701338e-38
-0.0275518199569 -0.0196168958093 0.117 1.31857673312e-38
-0.0271109908376 -0.0196168958093 0.117 1.30935717013e-38
-0.0266701617183 -0.0196168958093 0.117 1.30935717013e-38
-0.0257809679391 -0.019281564257 0.115 1.30935703e-38
-0.0251272598007 -0.0191138984809 0.114 1.28169834104e-38
-0.0246977339921 -0.0191138984809 0.114 1.11574620729e-38
-0.0242682081836 -0.0191138984809 0.114 8.29975347695e-39
-0.023838682375 -0.0191138984809 0.114 5.34734933467e-39
-0.0236145000451 -0.019281564257 0.115 4.24099897371e-39
-0.0231812064663 -0.019281564257 0.115 4.60978149317e-39
-0.0227479128875 -0.019281564257 0.115 6.73028098002e-39
-0.0223146193087 -0.019281564257 0.115 1.01422381511e-38
-0.0218813257299 -0.019281564257 0.115 1.21705392055e-38
-0.0214480321511 -0.019281564257 0.115 1.3184691134e-38
-0.0210147385722 -0.019281564257 0.115 1.32768867638e-38
-0.0205814449934 -0.019281564257 0.115 1.30935703e-38
-0.0203233527313 -0.0194492300332 0.116 1.30935703e-38
-0.0198862913822 -0.0194492300332 0.116 1.30935703e-38
-0.0194492300332 -0.0194492300332 0.116 1.30935703e-38
-0.01917606669 -0.0196168958093 0.117 1.30935703e-38
-0.0187352375707 -0.0196168958093 0.117 1.30935703e-38
-0.0184507709168 -0.0197845615854 0.118 1.28169834104e-38
-0.0180061740272 -0.0197845615854 0.118 1.19872227417e-38
-0.0175615771376 -0.0197845615854 0.118 1.01440290105e-38
-0.0171169802481 -0.0197845615854 0.118 8.85329019243e-39
-0.0166723833585 -0.0197845615854 0.118 8.02352952366e-39
-0.016227786469 -0.0197845615854 0.118 8.30011641325e-39
-0.0159169454233 -0.0199522273616 0.119 1.04206159001e-38
-0.0154685807635 -0.0199522273616 0.119 1.17113547182e-38
-0.0151464364071 -0.0201198931377 0.12 1.28177022766e-38
-0.014694303977 -0.0201198931377 0.12 1.30020935363e-38
-0.0143608563098 -0.0202875589139 0.121 1.29095349701e-38
-0.0139049561095 -0.0202875589139 0.121 1.31861218597e-38
-0.0135602051316 -0.02045522469 0.122 1.30939262298e-38
-0.0129931557089 -0.0202875589139 0.121 1.22641655611e-38
-0.0124336418267 -0.0201198931377 0.12 1.11574620729e-38
-0.0120813553083 -0.0202875589139 0.121 1.1065266443e-38
-0.0117215332493 -0.02045522469 0.122 1.13418533326e-38
-0.0113541756499 -0.0206228904662 0.123 1.19872227417e-38
-0.01097928251 -0.0207905562423 0.124 1.27247877806e-38
-0.0105968538296 -0.0209582220185 0.125 1.30935703e-38
-0.0102068896086 -0.0211258877946 0.126 1.29091790403e-38
-0.00980938984721 -0.0212935535708 0.127 1.31857659299e-38
-0.00940435454528 -0.0214612193469 0.128 1.31857659299e-38
-0.00892207995322 -0.0214612193469 0.128 1.31857659299e-38
-0.00857167731992 -0.0217965508992 0.13 1.31857659299e-38
-0.00814403539649 -0.0219642166754 0.131 1.31857659299e-38
-0.00770885793255 -0.0221318824515 0.132 1.32768839612e-38
-0.00732077759675 -0.0224672140038 0.134 1.27237101821e-38
-0.00686676128156 -0.02263487978 0.135 9.5890615693e-39
-0.00640520942587 -0.0228025455561 0.136 5.71684791764e-39
-0.00593612202968 -0.0229702113323 0.137 3.22756591133e-39
-0.00545949909299 -0.0231378771084 0.138 3.13536747887e-39
-0.00472478389414 -0.0221318824515 0.132 3.22756030613e-39
-0.00409933403256 -0.0214612193469 0.128 7.28416802012e-39
-0.00358880116361 -0.0212935535708 0.127 1.16184402222e-38
-0.0031102943418 -0.0212935535708 0.127 1.28169834104e-38
-0.00265251025636 -0.0214612193469 0.128 1.33701571896e-38
-0.00218719063042 -0.0216288851231 0.129 1.31857659299e-38
-0.00171433546398 -0.0217965508992 0.13 1.31857659299e-38
-0.00122452533142 -0.0217965508992 0.13 1.31857659299e-38
-0.00073471519885 -0.0217965508992 0.13 1.31857659299e-38
-0.000246788951409 -0.0219642166754 0.131 1.31857659299e-38
0.000248672836534 -0.0221318824515 0.132 1.30013746702e-38
0.000751670164978 -0.0222995482277 0.133 1.29091790403e-38
0.00126220303392 -0.0224672140038 0.134 1.30013746702e-38
0.00178027144337 -0.02263487978 0.135 1.28169834104e-38
0.00228892042719 -0.02263487978 0.135 1.28169834104e-38
0.00281829214738 -0.0228025455561 0.136 1.28169834104e-38
0.00335519940808 -0.0229702113323 0.137 1.29091790403e-38
0.00389964220928 -0.0231378771084 0.138 1.29091790403e-38
0.00435554240959 -0.0228025455561 0.136 1.30013760715e-38
0.0047963715289 -0.0224672140038 0.134 1.28169848117e-38
0.00530125274247 -0.0224672140038 0.134 1.28159058119e-38
0.00580613395604 -0.0224672140038 0.134 9.95784128616e-39
0.00635811229774 -0.02263487978 0.135 5.53245385531e-39
0.00686676128156 -0.02263487978 0.135 3.31975873859e-39
0.00743004293401 -0.0228025455561 0.136 3.22684424262e-39
0.00794245968808 -0.0228025455561 0.136 5.07075683989e-39
0.00845487644215 -0.0228025455561 0.136 9.1291596172e-39
0.00896729319622 -0.0228025455561 0.136 1.17106372534e-38
0.00947970995029 -0.0228025455561 0.136 1.26325921507e-38
0.00999212670436 -0.0228025455561 0.136 1.29091790403e-38
0.0105817827486 -0.0229702113323 0.137 1.28169834104e-38
0.0110979672729 -0.0229702113323 0.137 1.28169834104e-38
0.0116989266278 -0.0231378771084 0.138 1.29095349701e-38
0.0122188789224 -0.0231378771084 0.138 1.29095349701e-38
0.012738831217 -0.0231378771084 0.138 1.3186484796e-38
0.0131627053702 -0.0229702113323 0.137 1.27255066467e-38
0.0137787358061 -0.0231378771084 0.138 1.15269634585e-38
0.0142986881007 -0.0231378771084 0.138 1.04206159001e-38
0.0148186403953 -0.0231378771084 0.138 1.00518333807e-38
0.0154497419122 -0.0233055428846 0.139 1.07893984196e-38
0.0159734619771 -0.0233055428846 0.139 1.19879416078e-38
0.0164971820419 -0.0233055428846 0.139 1.29098979064e-38
0.0171433546398 -0.0234732086607 0.14 1.30935703e-38
0.0176708424749 -0.0234732086607 0.14 1.30935703e-38
0.01819833031 -0.0234732086607 0.14 1.28169834104e-38
0.0188595739889 -0.0236408744368 0.141 1.13418533326e-38
0.0193908295943 -0.0236408744368 0.141 9.95891888468e-39
0.0199220851996 -0.0236408744368 0.141 9.59013636522e-39
0.0204533408049 -0.0236408744368 0.141 1.01433101444e-38
0.0211334233351 -0.023808540213 0.142 1.17106358521e-38
0.0218210414059 -0.0239762059891 0.143 1.24489197571e-38
0.0225161950171 -0.0241438717653 0.144 1.29098979064e-38
0.0230587539331 -0.0241438717653 0.144 1.24489197571e-38
0.0237652108551 -0.0243115375414 0.145 1.2541115387e-38
0.0244792033176 -0.0244792033176 0.146 1.26333110168e-38
0.0252007313206 -0.0246468690937 0.147 1.27255066467e-38
0.025929794864 -0.0248145348699 0.148 1.26333110168e-38
0.026666393948 -0.024982200646 0.149 1.19879416078e-38
0.0272277917153 -0.024982200646 0.149 9.49794213666e-39
0.0272296756005 -0.0244792033176 0.146 5.25694316295e-39
0.0272089528641 -0.0239762059891 0.143 3.59742182541e-39
0.0277477440099 -0.0239762059891 0.143 3.78181308513e-39
0.0282865351557 -0.0239762059891 0.143 7.93061642898e-39
0.02902690201 -0.0241438717653 0.144 1.12496591041e-38
0.0297748044047 -0.0243115375414 0.145 1.25403979221e-38
0.030321131091 -0.0243115375414 0.145 1.27247891819e-38
0.0308674577773 -0.0243115375414 0.145 1.2632593552e-38
0.0316304312531 -0.0244792033176 0.146 1.28169848117e-38
0.0324009402693 -0.0246468690937 0.147 1.28169848117e-38
0.033178984826 -0.0248145348699 0.148 1.25403979221e-38
0.0341925150234 -0.0251498664222 0.15 1.23560066624e-38
0.0356845520426 -0.0258205295268 0.154 1.23560066624e-38
0.0362647886612 -0.0258205295268 0.154 1.25403979221e-38
0.0361272650471 -0.0253175321983 0.151 1.22638110326e-38
0.0359671348114 -0.0248145348699 0.148 1.25393189223e-38
0.0365247648085 -0.0248145348699 0.148 1.25393189223e-38
0.0370823948056 -0.0248145348699 0.148 1.26315145522e-38
0.0376400248026 -0.0248145348699 0.148 1.26311544185e-38
0.0384557470619 -0.024982200646 0.149 1.23545675289e-38
0.0390171448292 -0.024982200646 0.149 9.40430737327e-39
0.0395785425965 -0.024982200646 0.149 5.16330839956e-39
0.0404093359368 -0.0251498664222 0.15 3.50306819591e-39
0.0409745014743 -0.0251498664222 0.15 3.22828617874e-39
0.0426473914656 -0.0258205295268 0.154 6.82391574341e-39
0.0449118213861 -0.0268265241837 0.16 1.07883278275e-38
0.0455146646262 -0.0268265241837 0.16 1.2356009465e-38
0.0440998668971 -0.0256528637506 0.153 1.2356009465e-38
0.0446763357455 -0.0256528637506 0.153 1.24482050949e-38
0.0452528045938 -0.0256528637506 0.153 1.24482050949e-38
0.0458292734421 -0.0256528637506 0.153 1.24482022923e-38
0.0461024367853 -0.0254851979745 0.152 1.24482022923e-38
0.046368064588 -0.0253175321983 0.151 1.18950285131e-38
0.0469369978958 -0.0253175321983 0.151 1.12496591041e-38
0.0475059312036 -0.0253175321983 0.151 1.07886809547e-38
0.0480748645114 -0.0253175321983 0.151 1.12496591041e-38
0.0505766639578 -0.0263235268552 0.157 1.20794197728e-38
0.0531236766471 -0.0273295215121 0.163 1.24482022923e-38
0.0530784634041 -0.0269941899598 0.161 1.23560066624e-38
0.0530181790801 -0.0266588584075 0.159 1.26307984887e-38
0.0529428236751 -0.0263235268552 0.157 1.1063472781e-38
0.0535343636044 -0.0263235268552 0.157 8.85149653039e-39
0.0541259035338 -0.0263235268552 0.157 7.8373446019e-39
0.0540204059667 -0.0259881953029 0.155 9.12808341998e-39
0.054956696874 -0.0261558610791 0.156 1.14329741666e-38
0.0559005233218 -0.0263235268552 0.157 1.18028356858e-38
0.0572117073689 -0.0266588584075 0.159 1.21716182053e-38
0.0592651421555 -0.0273295215121 0.163 1.25396762534e-38
0.0609813615046 -0.0278325188405 0.166 1.24474806236e-38
0.0627201874752 -0.028335516169 0.169 1.24474806236e-38
0.0618573680878 -0.0276648530644 0.165 1.22627320327e-38
0.0613430674486 -0.027161855736 0.162 1.06954063251e-38
0.0619534462292 -0.027161855736 0.162 7.65295334217e-39
0.0625638250098 -0.027161855736 0.162 4.88708444627e-39
0.0627842395694 -0.0269941899598 0.161 5.071475706e-39
0.0641783145621 -0.0273295215121 0.163 9.22135524707e-39
0.0651899608744 -0.0274971872883 0.164 1.14340503638e-38
0.0654066076638 -0.0273295215121 0.163 1.20794197728e-38
0.0672358601204 -0.0278325188405 0.166 1.21716154027e-38
0.0690877191985 -0.028335516169 0.169 1.26315145522e-38
0.0693119015285 -0.0281678503928 0.168 1.2078340773e-38
0.0695285483179 -0.0280001846167 0.167 1.2078340773e-38
0.0705778723326 -0.0281678503928 0.168 1.2078340773e-38
0.0712108577347 -0.0281678503928 0.168 1.1987224143e-38
0.0714162012134 -0.0280001846167 0.167 1.20794197728e-38
0.0724768285389 -0.0281678503928 0.168 1.21716154027e-38
0.0735449914049 -0.028335516169 0.169 1.21716154027e-38
0.0733038541089 -0.0280001846167 0.167 1.23549276626e-38
0.0743757847451 -0.0281678503928 0.168 1.23549276626e-38
0.0759017316966 -0.0285031819451 0.17 1.06032106952e-38
0.0765422526392 -0.0285031819451 0.17 6.0856248319e-39
0.0771827735818 -0.0285031819451 0.17 3.68782239194e-39
0.0782810786098 -0.0286708477213 0.171 3.7800180218e-39
0.078463815467 -0.0285031819451 0.17 7.92954023176e-39
0.0805002952874 -0.0290061792736 0.173 1.1156387277e-38
0.0825593817293 -0.029509176602 0.176 1.21705392055e-38
0.0822767989605 -0.0291738450497 0.174 1.22627348353e-38
0.0829323909841 -0.0291738450497 0.174 1.20794225754e-38
0.0840683737146 -0.0293415108259 0.175 1.18950313157e-38
0.0842435750312 -0.0291738450497 0.174 1.1710640056e-38
0.0848991670548 -0.0291738450497 0.174 1.11574662768e-38
0.0855547590784 -0.0291738450497 0.174 1.07886837573e-38
0.08670581289 -0.0293415108259 0.175 1.10652706469e-38
0.0868659431256 -0.0291738450497 0.174 1.17095610562e-38
0.0885275298061 -0.029509176602 0.176 1.20783435756e-38
-0.0597191584706 -0.0163898005897 0.1 1.30928500326e-38
-0.0593423814456 -0.0163898005897 0.1 1.30928500326e-38
-0.0589656044205 -0.0163898005897 0.1 1.30928500326e-38
-0.0585888273955 -0.0163898005897 0.1 1.30017306e-38
-0.0582120503704 -0.0163898005897 0.1 1.27251437104e-38
-0.0578352733454 -0.0163898005897 0.1 1.24485568208e-38
-0.0574584963203 -0.0163898005897 0.1 1.1618796152e-38
-0.0576525364882 -0.0165536985956 0.101 1.18932194368e-38
-0.0572719916929 -0.0165536985956 0.101 1.06028463576e-38
-0.0568914468976 -0.0165536985956 0.101 1.05106549316e-38
-0.0559513882201 -0.0163898005897 0.1 1.03266294108e-38
-0.0555746111951 -0.0163898005897 0.1 1.07876075601e-38
-0.0557498125117 -0.0165536985956 0.101 1.17088449926e-38
-0.0553692677164 -0.0165536985956 0.101 1.23542115991e-38
-0.0560776085235 -0.0168814946074 0.103 1.28148268121e-38
-0.0562302032187 -0.0170453926133 0.104 1.26325921507e-38
-0.0558383551126 -0.0170453926133 0.104 1.27247877806e-38
-0.0554465070066 -0.0170453926133 0.104 1.29081014418e-38
-0.0545252871803 -0.0168814946074 0.103 1.28159058119e-38
-0.0536116028946 -0.0167175966015 0.102 1.2078340773e-38
-0.053227290329 -0.0167175966015 0.102 1.15251669938e-38
-0.0528429777635 -0.0167175966015 0.102 1.06024946317e-38
-0.0524586651979 -0.0167175966015 0.102 9.68053833305e-39
-0.0520743526324 -0.0167175966015 0.102 9.22027904985e-39
-0.0516900400668 -0.0167175966015 0.102 9.68125719916e-39
-0.0513057275012 -0.0167175966015 0.102 1.07876047575e-38
-0.0509214149357 -0.0167175966015 0.102 1.1801756686e-38
-0.0510325641581 -0.0168814946074 0.103 1.28159086145e-38
-0.0506444838223 -0.0168814946074 0.103 1.29081042444e-38
-0.0502564034865 -0.0168814946074 0.103 1.30002998742e-38
-0.0498683231507 -0.0168814946074 0.103 1.3184691134e-38
-0.0494802428149 -0.0168814946074 0.103 1.30002998742e-38
-0.0490921624791 -0.0168814946074 0.103 1.28159086145e-38
-0.0482312269768 -0.0167175966015 0.102 1.27237129847e-38
-0.0478469144113 -0.0167175966015 0.102 1.29081042444e-38
-0.0474626018457 -0.0167175966015 0.102 1.29081042444e-38
-0.0470782892802 -0.0167175966015 0.102 1.30924955041e-38
-0.0466939767146 -0.0167175966015 0.102 1.30002998742e-38
-0.0463096641491 -0.0167175966015 0.102 1.24471260951e-38
-0.0463756001285 -0.0168814946074 0.103 1.09730722145e-38
-0.0459875197926 -0.0168814946074 0.103 9.22027904985e-39
-0.0455994394568 -0.0168814946074 0.103 6.26930283071e-39
-0.045211359121 -0.0168814946074 0.103 3.96369602061e-39
-0.0448232787852 -0.0168814946074 0.103 4.05589165047e-39
-0.0444351984494 -0.0168814946074 0.103 3.96369602061e-39
-0.0440471181136 -0.0168814946074 0.103 5.25515090221e-39
-0.044082911931 -0.0170453926133 0.104 8.57419357729e-39
-0.043691063825 -0.0170453926133 0.104 1.08797975848e-38
-0.0437155543316 -0.0172092906192 0.105 1.26315145522e-38
-0.0433199384553 -0.0172092906192 0.105 1.30002970716e-38
-0.042924322579 -0.0172092906192 0.105 1.30002970716e-38
-0.0429337420046 -0.0173731886251 0.106 1.31846883314e-38
-0.0429356258897 -0.017537086631 0.107 1.31846883314e-38
-0.0437249737572 -0.0180287806487 0.11 1.31846883314e-38
-0.0433105190297 -0.0180287806487 0.11 1.31846883314e-38
-0.0428960643021 -0.0180287806487 0.11 1.30924927015e-38
-0.0413230202225 -0.017537086631 0.107 1.31846883314e-38
-0.0409198688057 -0.017537086631 0.107 1.31846883314e-38
-0.0405167173889 -0.017537086631 0.107 1.30002970716e-38
-0.0401135659721 -0.017537086631 0.107 1.31846883314e-38
-0.0397104145553 -0.017537086631 0.107 1.29081014418e-38
-0.0396746207379 -0.0177009846369 0.108 1.30924927015e-38
-0.0392677015509 -0.0177009846369 0.108 1.30924927015e-38
-0.0392206044227 -0.0178648826428 0.109 1.28169848117e-38
-0.0391659717541 -0.0180287806487 0.11 1.28169848117e-38
-0.0387515170265 -0.0180287806487 0.11 1.30013760715e-38
-0.0386855810472 -0.0181926786546 0.111 1.30935717013e-38
-0.0382673585493 -0.0181926786546 0.111 1.30935717013e-38
-0.0381901192592 -0.0183565766605 0.112 1.30935717013e-38
-0.0377681289912 -0.0183565766605 0.112 1.30013760715e-38
-0.0376795863903 -0.0185204746664 0.113 1.24482022923e-38
-0.037253828352 -0.0185204746664 0.113 1.06946930641e-38
-0.0371539824403 -0.0186843726723 0.114 8.02101979811e-39
-0.0370466009882 -0.0188482706782 0.115 4.33319460358e-39
-0.0366133074094 -0.0188482706782 0.115 3.68782519453e-39
-0.0361800138306 -0.0188482706782 0.115 2.95026015563e-39
-0.0354358792061 -0.0186843726723 0.114 3.41123830494e-39
-0.0346992801221 -0.0185204746664 0.113 6.17710720084e-39
-0.0333636055683 -0.0180287806487 0.11 9.58834550579e-39
-0.0329491508407 -0.0180287806487 0.11 1.21716154027e-38
-0.0325346961132 -0.0180287806487 0.11 1.27247891819e-38
-0.0321202413856 -0.0180287806487 0.11 1.30013760715e-38
-0.0317057866581 -0.0180287806487 0.11 1.30935717013e-38
-0.0312913319305 -0.0180287806487 0.11 1.31857659299e-38
-0.0311575760866 -0.0181926786546 0.111 1.31857659299e-38
-0.0307393535888 -0.0181926786546 0.111 1.30935703e-38
-0.030321131091 -0.0181926786546 0.111 1.30935703e-38
-0.0299029085932 -0.0181926786546 0.111 1.30939262298e-38
-0.0294846860954 -0.0181926786546 0.111 1.30017306e-38
-0.0290664635976 -0.0181926786546 0.111 1.30013746702e-38
-0.0289063333619 -0.0183565766605 0.112 1.2448200891e-38
-0.0284843430939 -0.0183565766605 0.112 1.18950271118e-38
-0.0280623528258 -0.0183565766605 0.112 1.18028328832e-38
-0.0276403625578 -0.0183565766605 0.112 1.16184416235e-38
-0.0272183722897 -0.0183565766605 0.112 1.18028328832e-38
-0.0270356354326 -0.0185204746664 0.113 1.23560066624e-38
-0.0266098773943 -0.0185204746664 0.113 1.32779629611e-38
-0.0264158372264 -0.0186843726723 0.114 1.31857673312e-38
-0.0259863114178 -0.0186843726723 0.114 1.31857673312e-38
-0.0255567856092 -0.0186843726723 0.114 1.32779615598e-38
-0.0251272598007 -0.0186843726723 0.114 1.30013746702e-38
-0.0246977339921 -0.0186843726723 0.114 1.21716140014e-38
-0.0242682081836 -0.0186843726723 0.114 1.05120926639e-38
-0.023838682375 -0.0186843726723 0.114 8.94476695618e-39
-0.0236145000451 -0.0188482706782 0.115 8.48378880686e-39
-0.0231812064663 -0.0188482706782 0.115 8.66818006659e-39
-0.0227479128875 -0.0188482706782 0.115 9.86672325481e-39
-0.0223146193087 -0.0188482706782 0.115 1.20794183715e-38
-0.0218813257299 -0.0188482706782 0.115 1.30013746702e-38
-0.0214480321511 -0.0188482706782 0.115 1.30935703e-38
-0.0211974754294 -0.0190121686841 0.116 1.30935703e-38
-0.0205814449934 -0.0188482706782 0.115 1.30935703e-38
-0.0203233527313 -0.0190121686841 0.116 1.30935703e-38
-0.0200577249286 -0.01917606669 0.117 1.30935703e-38
-0.0197845615854 -0.0193399646959 0.118 1.30935703e-38
-0.0195038627018 -0.0195038627018 0.119 1.32779615598e-38
-0.0192156282776 -0.0196677607077 0.12 1.30013746702e-38
-0.0190762207784 -0.0199955567195 0.122 1.27247877806e-38
-0.0187691475029 -0.0201594547254 0.123 1.06042882937e-38
-0.018454538687 -0.0203233527313 0.124 8.75930090053e-39
-0.0181323943306 -0.0204872507372 0.125 5.62464948518e-39
-0.0178027144337 -0.0206511487431 0.126 4.61049755668e-39
-0.0176030226104 -0.0209789447549 0.128 4.33391066709e-39
-0.0172545038622 -0.0211428427608 0.129 7.09977676039e-39
-0.0170284376472 -0.0214706387726 0.131 1.05110150653e-38
-0.0166610800478 -0.0216345367785 0.132 1.26315145522e-38
-0.0162861869078 -0.0217984347843 0.133 1.30002970716e-38
-0.0159037582274 -0.0219623327902 0.134 1.30935703e-38
-0.0155137940065 -0.0221262307961 0.135 1.30935703e-38
-0.0150051450227 -0.0221262307961 0.135 1.30935703e-38
-0.0136374444217 -0.020815046749 0.127 1.30935703e-38
-0.0128480965543 -0.0203233527313 0.124 1.30013746702e-38
-0.0122810471316 -0.0201594547254 0.123 1.29091790403e-38
-0.0118176113907 -0.0201594547254 0.123 1.28169834104e-38
-0.0114464860211 -0.0203233527313 0.124 1.28169834104e-38
-0.0110678251109 -0.0204872507372 0.125 1.30013746702e-38
-0.0105968538296 -0.0204872507372 0.125 1.30935703e-38
-0.0102068896086 -0.0206511487431 0.126 1.30013746702e-38
-0.00980938984721 -0.020815046749 0.127 1.31857659299e-38
-0.00940435454528 -0.0209789447549 0.128 1.30013746702e-38
-0.00899178370285 -0.0211428427608 0.129 1.31857659299e-38
-0.00850574134054 -0.0211428427608 0.129 1.30935703e-38
-0.00808186718735 -0.0213067407667 0.13 1.30935703e-38
-0.00765045749367 -0.0214706387726 0.131 1.30935703e-38
-0.00715687959085 -0.0214706387726 0.131 1.25393189223e-38
-0.00671416658642 -0.0216345367785 0.132 9.77273396292e-39
-0.00626391804148 -0.0217984347843 0.133 5.16295527235e-39
-0.00580613395604 -0.0219623327902 0.134 3.59562956467e-39
-0.0053408143301 -0.0221262307961 0.135 3.22684704522e-39
-0.00465319625938 -0.0213067407667 0.13 3.043171849e-39
-0.00409933403256 -0.0209789447549 0.128 7.19305419267e-39
-0.00361705944049 -0.0209789447549 0.128 1.12496577028e-38
-0.00313478484843 -0.0209789447549 0.128 1.30013746702e-38
-0.00265251025636 -0.0209789447549 0.128 1.30935703e-38
-0.00218719063042 -0.0211428427608 0.129 1.30935703e-38
-0.00170114826811 -0.0211428427608 0.129 1.32779615598e-38
-0.00121510590579 -0.0211428427608 0.129 1.31857659299e-38
-0.00073471519885 -0.0213067407667 0.13 1.31857659299e-38
-0.000246788951409 -0.0214706387726 0.131 1.31857659299e-38
0.000246788951409 -0.0214706387726 0.131 1.3186484796e-38
0.000746018509602 -0.0216345367785 0.132 1.30020935363e-38
0.00124336418267 -0.0216345367785 0.132 1.29098979064e-38
0.00175389705161 -0.0217984347843 0.133 1.22645284974e-38
0.00225501049493 -0.0217984347843 0.133 1.20801372376e-38
0.00277684667463 -0.0219623327902 0.134 1.23567241272e-38
0.0032817278882 -0.0219623327902 0.134 1.28177022766e-38
0.00381486737865 -0.0221262307961 0.135 1.30942891661e-38
0.00429149031534 -0.0219623327902 0.134 1.30939262298e-38
0.00476057771152 -0.0217984347843 0.133 1.30017306e-38
0.00526169115484 -0.0217984347843 0.133 1.27251437104e-38
0.00580613395604 -0.0219623327902 0.134 1.10656223728e-38
0.00631101516961 -0.0219623327902 0.134 8.02316658736e-39
0.00681589638318 -0.0219623327902 0.134 6.45584087968e-39
0.00732077759675 -0.0219623327902 0.134 6.27144961995e-39
0.0078840592492 -0.0221262307961 0.135 8.57634036654e-39
0.00839270823302 -0.0221262307961 0.135 1.11574620729e-38
0.00890135721684 -0.0221262307961 0.135 1.22638096313e-38
0.00941000620066 -0.0221262307961 0.135 1.26325921507e-38
0.00991865518448 -0.0221262307961 0.135 1.27247877806e-38
0.0105045434584 -0.022290128802 0.136 1.29091790403e-38
0.0110979672729 -0.0224540268079 0.137 1.28169834104e-38
0.0116989266278 -0.0226179248138 0.138 1.28169834104e-38
0.0123074215233 -0.0227818228197 0.139 1.27247877806e-38
0.0128311415881 -0.0227818228197 0.139 1.26325963546e-38
0.0134509397943 -0.0229457208256 0.14 1.1801756686e-38
0.0139784276294 -0.0229457208256 0.14 9.03588779012e-39
0.0146095291464 -0.0231096188315 0.141 6.82247380729e-39
0.0152481662038 -0.0232735168374 0.142 6.26930002811e-39
0.0158943388018 -0.0234374148433 0.143 7.28417082272e-39
0.0165480469403 -0.0236013128492 0.144 1.10641916471e-38
0.0170906058563 -0.0236013128492 0.144 1.26325963546e-38
0.0177556173055 -0.0237652108551 0.145 1.30935717013e-38
0.0183019439919 -0.0237652108551 0.145 1.30935717013e-38
0.0184583064573 -0.0232735168374 0.142 1.29091804416e-38
0.0189933298328 -0.0232735168374 0.142 1.27247877806e-38
0.0196658768226 -0.0234374148433 0.143 1.23560052611e-38
0.0203459593528 -0.0236013128492 0.144 1.22641655611e-38
0.0210335774235 -0.0237652108551 0.145 1.23563611909e-38
0.0218775579596 -0.0240930068669 0.147 1.29095349701e-38
0.0225840148816 -0.0242569048728 0.148 1.30935703e-38
0.0232980073441 -0.0244208028787 0.149 1.29091790403e-38
0.024019535347 -0.0245847008846 0.15 1.30013746702e-38
0.0249124968964 -0.0249124968964 0.152 1.29091790403e-38
0.0258205295268 -0.0252402929082 0.154 1.23560052611e-38
0.0267436332381 -0.02556808892 0.156 1.27247877806e-38
0.0275066067139 -0.0257319869259 0.157 1.27247877806e-38
0.0282771157301 -0.0258958849318 0.158 1.17106358521e-38
0.0283242128582 -0.0254041909141 0.155 8.57347471118e-39
0.0276026848553 -0.0242569048728 0.148 4.2402801076e-39
0.0275894976594 -0.0237652108551 0.145 3.22684704522e-39
0.0281358243457 -0.0237652108551 0.145 3.41123830494e-39
0.028682151032 -0.0237652108551 0.145 7.2834547592e-39
0.0292284777184 -0.0237652108551 0.145 1.10641944497e-38
0.0299801478833 -0.023929108861 0.146 1.28159114171e-38
0.0305302423399 -0.023929108861 0.146 1.28159114171e-38
0.0312932158156 -0.0240930068669 0.147 1.2816263143e-38
0.0320637248319 -0.0242569048728 0.148 1.2816263143e-38
0.0328417693886 -0.0244208028787 0.149 1.26318718833e-38
0.0334031671559 -0.0244208028787 0.149 1.27240675132e-38
0.0346484152237 -0.0249124968964 0.152 1.26318718833e-38
0.0363797056538 -0.0257319869259 0.157 1.23552849937e-38
0.0369712455832 -0.0257319869259 0.157 1.2170893734e-38
0.036366518458 -0.0249124968964 0.152 1.23552849937e-38
0.0362101559926 -0.0244208028787 0.149 1.20794197728e-38
0.0367715537599 -0.0244208028787 0.149 1.2632593552e-38
0.0370823948056 -0.0242569048728 0.148 1.24482022923e-38
0.0376400248026 -0.0242569048728 0.148 1.27247891819e-38
0.0384557470619 -0.0244208028787 0.149 1.18950285131e-38
0.0390171448292 -0.0244208028787 0.149 9.86672465611e-39
0.0395785425965 -0.0244208028787 0.149 6.08670383172e-39
0.0401399403639 -0.0244208028787 0.149 4.05839997472e-39
0.0407013381312 -0.0244208028787 0.149 6.17890226418e-39
0.0426473914656 -0.0252402929082 0.154 9.22135804967e-39
0.0443504236188 -0.0258958849318 0.158 1.17106372534e-38
0.0446612646645 -0.0257319869259 0.157 1.22638110326e-38
0.043811632473 -0.0249124968964 0.152 1.25403965208e-38
0.0443843335511 -0.0249124968964 0.152 1.23560052611e-38
0.0449570346291 -0.0249124968964 0.152 1.25407524507e-38
0.0452301979723 -0.0247485988905 0.151 1.24485568208e-38
0.0461024367853 -0.0249124968964 0.152 1.27237129847e-38
0.0466751378634 -0.0249124968964 0.152 1.09712771511e-38
0.0475586799871 -0.0250763949023 0.153 8.38980231756e-39
0.0478205400195 -0.0249124968964 0.152 6.91395337364e-39
0.0483932410976 -0.0249124968964 0.152 7.65223727866e-39
0.0502545196014 -0.02556808892 0.156 1.1156387277e-38
0.0518200281404 -0.0260597829377 0.159 1.24482022923e-38
0.0520894237134 -0.0258958849318 0.158 1.20794183715e-38
0.0526847314129 -0.0258958849318 0.158 1.25404007247e-38
0.0532800391125 -0.0258958849318 0.158 1.21716182053e-38
0.0531933803968 -0.02556808892 0.156 1.16184444261e-38
0.0537811525558 -0.02556808892 0.156 1.11574662768e-38
0.0547174434631 -0.0257319869259 0.157 1.1710640056e-38
0.0570704159845 -0.0265514769554 0.162 1.21716182053e-38
0.0576807947651 -0.0265514769554 0.162 1.21716182053e-38
0.0579313514868 -0.0263875789495 0.161 1.22638138352e-38
0.0581743726679 -0.0262236809436 0.16 1.22638110326e-38
0.0598792887063 -0.0267153749613 0.163 1.21716154027e-38
0.0604934352571 -0.0267153749613 0.163 1.25393189223e-38
0.060732688668 -0.0265514769554 0.162 1.19861451432e-38
0.0605857456283 -0.0262236809436 0.16 8.5749096408e-39
0.0615710175488 -0.0263875789495 0.161 5.071475706e-39
0.0625638250098 -0.0265514769554 0.162 3.68782239194e-39
0.0643440964532 -0.0270431709731 0.165 3.22684424262e-39
0.066146974518 -0.0275348649908 0.168 8.85257272761e-39
0.0659849603973 -0.027207068979 0.166 1.11574634742e-38
0.0654066076638 -0.0267153749613 0.163 1.21716154027e-38
0.0664257895166 -0.0268792729672 0.164 1.21716154027e-38
0.067861309982 -0.027207068979 0.166 1.24482022923e-38
0.0680741890012 -0.0270431709731 0.165 1.21716154027e-38
0.0686958710925 -0.0270431709731 0.165 1.21716154027e-38
0.0701577659497 -0.0273709669849 0.167 1.21716154027e-38
0.0716347318879 -0.0276987629967 0.169 1.21716182053e-38
0.0722714850602 -0.0276987629967 0.169 1.16184444261e-38
0.0772223351694 -0.0293377430556 0.179 1.22627348353e-38
0.0752857012606 -0.0283543550202 0.173 1.23549304652e-38
0.0741817445772 -0.0276987629967 0.169 1.23542115991e-38
0.0739330717407 -0.0273709669849 0.167 1.26307984887e-38
0.0759017316966 -0.0278626610026 0.17 1.08787213876e-38
0.0765422526392 -0.0278626610026 0.17 7.00650493331e-39
0.0771827735818 -0.0278626610026 0.17 4.14880054125e-39
0.0782810786098 -0.0280265590084 0.171 6.5458869177e-39
0.0793869191783 -0.0281904570143 0.172 9.95712522264e-39
0.0823615737911 -0.0290099470438 0.177 1.18939523159e-38
0.0839666439178 -0.0293377430556 0.179 1.22627348353e-38
0.0822767989605 -0.0285182530261 0.174 1.21716182053e-38
0.0829323909841 -0.0285182530261 0.174 1.21716182053e-38
0.0840683737146 -0.028682151032 0.175 1.19872269456e-38
0.0837594165541 -0.0283543550202 0.173 1.21683812058e-38
0.0834353883125 -0.0280265590084 0.171 9.31139567989e-39
0.0860464530961 -0.028682151032 0.175 7.74443010592e-39
0.0876967364658 -0.0290099470438 0.177 8.3915973809e-39
0.087864402242 -0.0288460490379 0.176 1.08808793872e-38
0.0880245324776 -0.028682151032 0.175 1.18028356858e-38
-0.0591219668859 -0.015852893329 0.099 1.30924927015e-38
-0.0587489576311 -0.015852893329 0.099 1.31850456625e-38
-0.0589656044205 -0.0160130235647 0.1 1.30928500326e-38
-0.0585888273955 -0.0160130235647 0.1 1.30013746702e-38
-0.0582120503704 -0.0160130235647 0.1 1.27247877806e-38
-0.0578352733454 -0.0160130235647 0.1 1.21719699312e-38
-0.0574584963203 -0.0160130235647 0.1 1.07890354833e-38
-0.0570817192953 -0.0160130235647 0.1 9.8656372485e-39
-0.0567049422702 -0.0160130235647 0.1 7.8369774617e-39
-0.0563281652452 -0.0160130235647 0.1 7.00722099683e-39
-0.0553918743379 -0.015852893329 0.099 6.82247660989e-39
-0.0550188650831 -0.015852893329 0.099 8.11321823057e-39
-0.0546458558283 -0.015852893329 0.099 9.40395424606e-39
-0.0537246360021 -0.0156927630934 0.098 1.12478640407e-38
-0.0538998373187 -0.015852893329 0.099 1.26311544185e-38
-0.0535268280639 -0.015852893329 0.099 1.26325921507e-38
-0.0542276333305 -0.0161731538003 0.101 1.27247877806e-38
-0.0543802280257 -0.016333284036 0.102 1.30002970716e-38
-0.0539959154601 -0.016333284036 0.102 1.29081014418e-38
-0.0536116028946 -0.016333284036 0.102 1.26315145522e-38
-0.053227290329 -0.016333284036 0.102 1.25393189223e-38
-0.0528429777635 -0.016333284036 0.102 1.23542115991e-38
-0.0524586651979 -0.016333284036 0.102 1.20776247095e-38
-0.0520743526324 -0.016333284036 0.102 1.1801756686e-38
-0.0516900400668 -0.016333284036 0.102 1.19861479457e-38
-0.0518087248297 -0.0164934142716 0.103 1.23549304652e-38
-0.0514206444939 -0.0164934142716 0.103 1.26315173548e-38
-0.0510325641581 -0.0164934142716 0.103 1.27237129847e-38
-0.05113617784 -0.0166535445073 0.104 1.28159086145e-38
-0.0502564034865 -0.0164934142716 0.103 1.30002998742e-38
-0.0503524816279 -0.0166535445073 0.104 1.30924955041e-38
-0.0499606335218 -0.0166535445073 0.104 1.30002998742e-38
-0.0490921624791 -0.0164934142716 0.103 1.30002998742e-38
-0.0482312269768 -0.016333284036 0.102 1.30002998742e-38
-0.0478469144113 -0.016333284036 0.102 1.30002998742e-38
-0.0479279214717 -0.0164934142716 0.103 1.30924955041e-38
-0.0475398411359 -0.0164934142716 0.103 1.30924955041e-38
-0.0471517608001 -0.0164934142716 0.103 1.30002998742e-38
-0.0467636804643 -0.0164934142716 0.103 1.23549304652e-38
-0.0463756001285 -0.0164934142716 0.103 1.04198984353e-38
-0.0464340005673 -0.0166535445073 0.104 8.39051838108e-39
-0.0460421524613 -0.0166535445073 0.104 5.62393342166e-39
-0.0460892495894 -0.0168136747429 0.105 3.59491350115e-39
-0.0456936337131 -0.0168136747429 0.105 3.04173972197e-39
-0.0452980178368 -0.0168136747429 0.105 2.94954409211e-39
-0.0449024019605 -0.0168136747429 0.105 4.42539023344e-39
-0.0445067860842 -0.0168136747429 0.105 7.65223727866e-39
-0.0445312765908 -0.0169738049786 0.106 1.05110150653e-38
-0.0441318929443 -0.0169738049786 0.106 1.22627320327e-38
-0.0437325092977 -0.0169738049786 0.106 1.28159058119e-38
-0.0437419287233 -0.0171339352142 0.107 1.30924927015e-38
-0.0433387773065 -0.0171339352142 0.107 1.30924927015e-38
-0.0433368934214 -0.0172940654499 0.108 1.31846883314e-38
-0.0449174730415 -0.0180947166281 0.113 1.32768839612e-38
-0.044097983012 -0.0179345863924 0.112 1.31846883314e-38
-0.043675992744 -0.0179345863924 0.112 1.31846883314e-38
-0.0417092166732 -0.0172940654499 0.108 1.30924927015e-38
-0.0409198688057 -0.0171339352142 0.107 1.30924927015e-38
-0.0405167173889 -0.0171339352142 0.107 1.30924927015e-38
-0.0401135659721 -0.0171339352142 0.107 1.33690795911e-38
-0.0397104145553 -0.0171339352142 0.107 1.30002970716e-38
-0.0393072631385 -0.0171339352142 0.107 1.29081014418e-38
-0.0389041117217 -0.0171339352142 0.107 1.27237101821e-38
-0.0388607823638 -0.0172940654499 0.108 1.29091804416e-38
-0.0384538631767 -0.0172940654499 0.108 1.30013760715e-38
-0.0383992305081 -0.0174541956855 0.109 1.30013760715e-38
-0.0379885435508 -0.0174541956855 0.109 1.29091804416e-38
-0.0375778565935 -0.0174541956855 0.109 1.30935717013e-38
-0.0375081528439 -0.0176143259212 0.11 1.31857673312e-38
-0.0370936981163 -0.0176143259212 0.11 1.30935717013e-38
-0.0366792433888 -0.0176143259212 0.11 1.2632593552e-38
-0.0362647886612 -0.0176143259212 0.11 1.17088449926e-38
-0.0358503339336 -0.0176143259212 0.11 9.49614987592e-39
-0.0357580235625 -0.0177744561568 0.111 5.99271594112e-39
-0.0353398010647 -0.0177744561568 0.111 4.70197712303e-39
-0.0349215785669 -0.0177744561568 0.111 4.05660771399e-39
-0.0345033560691 -0.0177744561568 0.111 5.34734653207e-39
-0.0337780602959 -0.0176143259212 0.11 7.74443290852e-39
-0.0333636055683 -0.0176143259212 0.11 1.03259105447e-38
-0.0329491508407 -0.0176143259212 0.11 1.22638110326e-38
-0.0325346961132 -0.0176143259212 0.11 1.28169848117e-38
-0.0321202413856 -0.0176143259212 0.11 1.30013760715e-38
-0.0317057866581 -0.0176143259212 0.11 1.30935717013e-38
-0.0312913319305 -0.0176143259212 0.11 1.30935703e-38
-0.030876877203 -0.0176143259212 0.11 1.30935703e-38
-0.0304624224754 -0.0176143259212 0.11 1.31857659299e-38
-0.0300479677478 -0.0176143259212 0.11 1.31857659299e-38
-0.0296335130203 -0.0176143259212 0.11 1.30935703e-38
-0.0292190582927 -0.0176143259212 0.11 1.30935703e-38
-0.0288046035652 -0.0176143259212 0.11 1.28169834104e-38
-0.0286482410998 -0.0177744561568 0.111 1.16184402222e-38
-0.028230018602 -0.0177744561568 0.111 1.04198984353e-38
-0.0278117961042 -0.0177744561568 0.111 8.57598583802e-39
-0.0276403625578 -0.0179345863924 0.112 8.29939894843e-39
-0.0274613934709 -0.0180947166281 0.113 8.94476835748e-39
-0.0270356354326 -0.0180947166281 0.113 1.0604289695e-38
-0.0268453630349 -0.0182548468637 0.114 1.22638110326e-38
-0.0268792729672 -0.018575107335 0.116 1.29091804416e-38
-0.0266701617183 -0.0187352375707 0.117 1.31857673312e-38
-0.0264535149289 -0.0188953678063 0.118 1.30935703e-38
-0.026229332599 -0.019055498042 0.119 1.30935703e-38
-0.0259976147285 -0.0192156282776 0.12 1.30935703e-38
-0.0257583613176 -0.0193757585133 0.121 1.25403965208e-38
-0.0255115723662 -0.0195358887489 0.122 1.16184402222e-38
-0.0252572478743 -0.0196960189846 0.123 1.14340489625e-38
-0.0249953878419 -0.0198561492202 0.124 1.15262445924e-38
-0.024725992269 -0.0200162794559 0.125 1.20794183715e-38
-0.0244490611556 -0.0201764096915 0.126 1.27247877806e-38
-0.0241645945017 -0.0203365399271 0.127 1.30935703e-38
-0.0236860876799 -0.0203365399271 0.127 1.30935703e-38
-0.0222938965723 -0.0195358887489 0.122 1.30013746702e-38
-0.0207604140803 -0.018575107335 0.116 1.30935703e-38
-0.0203233527313 -0.018575107335 0.116 1.30935703e-38
-0.0198862913822 -0.018575107335 0.116 1.30935703e-38
-0.0196168958093 -0.0187352375707 0.117 1.30935703e-38
-0.0193399646959 -0.0188953678063 0.118 1.31857659299e-38
-0.019055498042 -0.019055498042 0.119 1.30935703e-38
-0.0186071333822 -0.019055498042 0.119 1.27247877806e-38
-0.0183113634175 -0.0192156282776 0.12 1.01433101444e-38
-0.0180080579123 -0.0193757585133 0.121 6.73099704354e-39
-0.0176972168667 -0.0195358887489 0.122 3.78073688791e-39
-0.0173788402805 -0.0196960189846 0.123 3.043171849e-39
-0.0169154045397 -0.0196960189846 0.123 2.76658495941e-39
-0.0164519687989 -0.0196960189846 0.123 4.14951660477e-39
-0.0161185211317 -0.0198561492202 0.124 9.31247187711e-39
-0.015777537924 -0.0200162794559 0.125 1.2078340773e-38
-0.0154290191759 -0.0201764096915 0.126 1.32768839612e-38
-0.0149542801243 -0.0201764096915 0.126 1.30935703e-38
