VERSION .7
FIELDS x y z rgb
SIZE 4 4 4 4
TYPE F F F F
COUNT 1 1 1 1
WIDTH 835
HEIGHT 1
VIEWPOINT 0 0 0 1 0 0 0
POINTS 835
DATA ascii
-0.0481765943082 -0.0421293230561 0.107 1.24482050949e-38
-0.0482199236661 -0.0425230550473 0.108 1.22627348353e-38
-0.047813004479 -0.0425230550473 0.108 1.087980319e-38
-0.047406085292 -0.0425230550473 0.108 8.20541105784e-39
-0.0474343435688 -0.0429167870385 0.109 4.70125825692e-39
-0.0470236566115 -0.0429167870385 0.109 3.41051943883e-39
-0.0461853277308 -0.0425230550473 0.108 3.77822576106e-39
-0.0457784085437 -0.0425230550473 0.108 4.97676894929e-39
-0.0453714893567 -0.0425230550473 0.108 7.65403234199e-39
-0.0453809087823 -0.0429167870385 0.109 1.06042924976e-38
-0.0453827926674 -0.0433105190297 0.11 1.1987224143e-38
-0.0449683379399 -0.0433105190297 0.11 1.22638110326e-38
-0.0441488479104 -0.0429167870385 0.109 1.25403979221e-38
-0.0437381609531 -0.0429167870385 0.109 1.23560066624e-38
-0.0429299742344 -0.0425230550473 0.108 1.1065266443e-38
-0.0429167870385 -0.0429167870385 0.109 8.48378880686e-39
-0.0425061000812 -0.0429167870385 0.109 5.89872805052e-39
-0.0424816095745 -0.0433105190297 0.11 4.05481545325e-39
-0.0416847261666 -0.0429167870385 0.109 3.59491630375e-39
-0.0412740392093 -0.0429167870385 0.109 4.60906542965e-39
-0.040488459112 -0.0425230550473 0.108 7.65152121514e-39
-0.040081539925 -0.0425230550473 0.108 1.04181089772e-38
-0.0393072631385 -0.0421293230561 0.107 1.20776275121e-38
-0.0389041117217 -0.0421293230561 0.107 1.24464100315e-38
-0.0385009603049 -0.0421293230561 0.107 1.25386028588e-38
-0.0384538631767 -0.0425230550473 0.108 1.2446407229e-38
-0.0383992305081 -0.0429167870385 0.109 1.14322581031e-38
-0.0376400248026 -0.0425230550473 0.108 9.31103975008e-39
-0.0372331056156 -0.0425230550473 0.108 5.89980424774e-39
-0.0371671696362 -0.0429167870385 0.109 4.24028571279e-39
-0.0364192672415 -0.0425230550473 0.108 4.05481545325e-39
-0.0366792433888 -0.0433105190297 0.11 4.88457752332e-39
-0.0356054288674 -0.0425230550473 0.108 7.37636925518e-39
-0.0351985096803 -0.0425230550473 0.108 1.05110206705e-38
-0.0347915904932 -0.0425230550473 0.108 1.21705420081e-38
-0.0343846713062 -0.0425230550473 0.108 1.23549332678e-38
-0.0342923609351 -0.0429167870385 0.109 1.26315201574e-38
-0.0341925150234 -0.0433105190297 0.11 1.24471288977e-38
-0.0334709870204 -0.0429167870385 0.109 1.20783463782e-38
-0.0330603000631 -0.0429167870385 0.109 1.01422381511e-38
-0.0329491508407 -0.0433105190297 0.11 7.2834547592e-39
-0.0322389261485 -0.0429167870385 0.109 4.88636838276e-39
-0.0315362369968 -0.0425230550473 0.108 3.96441208412e-39
-0.0314175522339 -0.0429167870385 0.109 4.88636838276e-39
-0.0307223986227 -0.0425230550473 0.108 8.11321542797e-39
-0.0303154794356 -0.0425230550473 0.108 1.0786888694e-38
-0.0299085602486 -0.0425230550473 0.108 1.22620187718e-38
-0.0300479677478 -0.0433105190297 0.11 1.2815192551e-38
-0.0296335130203 -0.0433105190297 0.11 1.29081042444e-38
-0.0292190582927 -0.0433105190297 0.11 1.26315173548e-38
-0.0288046035652 -0.0433105190297 0.11 1.24471260951e-38
-0.0278739643133 -0.0425230550473 0.108 1.06032134978e-38
-0.0277213696182 -0.0429167870385 0.109 8.11393149149e-39
-0.0273106826609 -0.0429167870385 0.109 5.62464948518e-39
-0.0268999957035 -0.0429167870385 0.109 4.61049755668e-39
-0.0267323299274 -0.0433105190297 0.11 5.34806259559e-39
-0.0263178751998 -0.0433105190297 0.11 8.39051838108e-39
-0.0263743917536 -0.044097983012 0.112 1.08798003874e-38
-0.0257206836151 -0.0437042510208 0.111 1.22627348353e-38
-0.0253024611173 -0.0437042510208 0.111 1.26315173548e-38
-0.0246600562896 -0.0433105190297 0.11 1.29081042444e-38
-0.0242456015621 -0.0433105190297 0.11 1.29081042444e-38
-0.0238311468345 -0.0433105190297 0.11 1.23549304652e-38
-0.0236295711261 -0.0437042510208 0.111 1.10641916471e-38
-0.0232113486283 -0.0437042510208 0.111 8.94297609674e-39
-0.0227931261305 -0.0437042510208 0.111 6.82247660989e-39
-0.0221733279243 -0.0433105190297 0.11 5.62393342166e-39
-0.0219566811349 -0.0437042510208 0.111 7.09906349948e-39
-0.021732498805 -0.044097983012 0.112 9.49614987592e-39
-0.0211202361393 -0.0437042510208 0.111 1.19854318822e-38
-0.0208885182688 -0.044097983012 0.112 1.26308012913e-38
-0.0204665280008 -0.044097983012 0.112 1.31839750705e-38
-0.0200445377327 -0.044097983012 0.112 1.30002998742e-38
-0.0196225474647 -0.044097983012 0.112 1.28159086145e-38
-0.0190291236502 -0.0437042510208 0.111 1.25393217249e-38
-0.0187785669286 -0.044097983012 0.112 1.09719960173e-38
-0.0183565766605 -0.044097983012 0.112 9.5890615693e-39
-0.0180947166281 -0.0444917150032 0.113 7.8373446019e-39
-0.0175125961244 -0.044097983012 0.112 6.91538830326e-39
-0.0172432005515 -0.0444917150032 0.113 8.20612712135e-39
-0.0168174425132 -0.0444917150032 0.113 1.04188222381e-38
-0.0162466253202 -0.044097983012 0.112 1.19861479457e-38
-0.0156833436678 -0.0437042510208 0.111 1.27237129847e-38
-0.0155401683982 -0.0444917150032 0.113 1.29081042444e-38
-0.0151144103599 -0.0444917150032 0.113 1.29081042444e-38
-0.0146886523216 -0.0444917150032 0.113 1.29081042444e-38
-0.0143891145867 -0.0448854469944 0.114 1.24471260951e-38
-0.0140820413113 -0.0452791789856 0.115 1.10641916471e-38
-0.0136487477325 -0.0452791789856 0.115 9.68233339638e-39
-0.0132154541537 -0.0452791789856 0.115 8.20720331857e-39
-0.0125598621301 -0.0444917150032 0.113 8.20720331857e-39
-0.0121341040918 -0.0444917150032 0.113 9.22135524707e-39
-0.0118119597354 -0.0448854469944 0.114 1.14340503638e-38
-0.0113824339268 -0.0448854469944 0.114 1.20794197728e-38
-0.0110489862596 -0.0452791789856 0.115 1.28169848117e-38
-0.0106156926808 -0.0452791789856 0.115 1.27247891819e-38
-0.0102709417029 -0.0456729109767 0.116 1.28169848117e-38
-0.00983388035384 -0.0456729109767 0.116 1.29091804416e-38
-0.0093158119444 -0.0452791789856 0.115 1.23560066624e-38
-0.00895975765572 -0.0456729109767 0.116 1.10652678443e-38
-0.00852269630666 -0.0456729109767 0.116 1.01433115457e-38
-0.0080856349576 -0.0456729109767 0.116 9.31355087693e-39
-0.00758263762916 -0.0452791789856 0.115 9.49794213666e-39
-0.00721151225948 -0.0456729109767 0.116 1.06964853249e-38
-0.00665765003266 -0.0448854469944 0.114 1.26315173548e-38
-0.00633738956136 -0.0456729109767 0.116 1.30924955041e-38
-0.00600205800907 -0.0464603749591 0.118 1.32768867638e-38
-0.00551036399138 -0.0460666429679 0.117 1.3184691134e-38
-0.00506953487207 -0.0460666429679 0.117 1.29091832442e-38
-0.00466826734039 -0.0464603749591 0.118 1.29091832442e-38
-0.00422367045083 -0.0464603749591 0.118 1.21716182053e-38
-0.00381109960839 -0.0468541069503 0.119 1.09730750171e-38
-0.00336273494858 -0.0468541069503 0.119 1.03266266082e-38
-0.0029388607954 -0.0472478389414 0.12 1.01422353485e-38
-0.00250745110172 -0.0476415709326 0.121 1.06954091277e-38
-0.0020515509014 -0.0476415709326 0.121 1.19861479457e-38
-0.00158246350522 -0.0472478389414 0.12 1.29081042444e-38
-0.00112091164953 -0.0468541069503 0.119 1.29081042444e-38
-0.000666895334341 -0.0464603749591 0.118 1.30002998742e-38
-0.00022229844478 -0.0464603749591 0.118 1.30002998742e-38
0.00022229844478 -0.0464603749591 0.118 1.28169876143e-38
0.000678198645093 -0.0472478389414 0.12 1.26325963546e-38
0.00112091164953 -0.0468541069503 0.119 1.18950313157e-38
0.00159565070109 -0.0476415709326 0.121 1.09730750171e-38
0.0020515509014 -0.0476415709326 0.121 1.04199012379e-38
0.00254889657447 -0.048429034915 0.123 1.06964881275e-38
0.00296335130203 -0.0476415709326 0.121 1.15262487962e-38
0.00336273494858 -0.0468541069503 0.119 1.24482050949e-38
0.00374704751414 -0.0460666429679 0.117 1.30924955041e-38
0.00418787663345 -0.0460666429679 0.117 1.30924955041e-38
0.00466826734039 -0.0464603749591 0.118 1.30924955041e-38
0.00515619358783 -0.0468541069503 0.119 1.30924955041e-38
0.00574584963203 -0.0480353029238 0.122 1.30924955041e-38
0.00635811229774 -0.0492164988973 0.125 1.27237129847e-38
0.00682908357906 -0.0492164988973 0.125 1.19861479457e-38
0.0071832539826 -0.048429034915 0.123 1.14329741666e-38
0.00758452151428 -0.0480353029238 0.122 1.14329741666e-38
0.00791231752608 -0.0472478389414 0.12 1.20783435756e-38
0.00829474620651 -0.0468541069503 0.119 1.28159086145e-38
0.0088165823862 -0.0472478389414 0.12 1.30924955041e-38
0.00950043268667 -0.048429034915 0.123 1.3184691134e-38
0.0102068896086 -0.0496102308885 0.126 1.3184691134e-38
0.0107664034908 -0.0500039628797 0.127 1.32768867638e-38
0.0113334529135 -0.0503976948709 0.128 1.32768867638e-38
0.0114464860211 -0.0488227669062 0.124 1.29091832442e-38
0.0118176113907 -0.048429034915 0.123 1.24482050949e-38
0.0121812012199 -0.0480353029238 0.122 1.20794225754e-38
0.0126408691905 -0.0480353029238 0.122 1.18950313157e-38
0.013100537161 -0.0480353029238 0.122 1.2356009465e-38
0.0140048020212 -0.0496102308885 0.126 1.27247919845e-38
0.0149392090433 -0.0511851588532 0.13 1.30013788741e-38
0.0155477039387 -0.0515788908444 0.131 1.30013788741e-38
0.0159188293084 -0.0511851588532 0.13 1.3184691134e-38
0.015777537924 -0.0492164988973 0.125 1.3184691134e-38
0.0159885330581 -0.048429034915 0.123 1.3184691134e-38
0.0164519687989 -0.048429034915 0.123 1.3184691134e-38
0.0170529281538 -0.0488227669062 0.124 1.29081042444e-38
0.0178027144337 -0.0496102308885 0.126 1.25393217249e-38
0.0187126309492 -0.0507914268621 0.129 1.23549304652e-38
0.019942807936 -0.0527600868179 0.134 1.24471260951e-38
0.0201424997592 -0.0519726228356 0.132 1.2632593552e-38
0.0201707580361 -0.0507914268621 0.129 1.29091804416e-38
0.0203365399271 -0.0500039628797 0.127 1.30013760715e-38
0.0206511487431 -0.0496102308885 0.126 1.29091804416e-38
0.0211258877946 -0.0496102308885 0.126 1.30013760715e-38
0.0216006268462 -0.0496102308885 0.126 1.30013760715e-38
0.0222505672144 -0.0500039628797 0.127 1.29091804416e-38
0.0236239194707 -0.0519726228356 0.132 1.28169848117e-38
0.0237557914295 -0.0511851588532 0.13 1.28159086145e-38
0.0242456015621 -0.0511851588532 0.13 1.27237129847e-38
0.0241645945017 -0.0500039628797 0.127 1.28159086145e-38
0.0244490611556 -0.0496102308885 0.126 1.30924955041e-38
0.0249238002071 -0.0496102308885 0.126 1.3184691134e-38
0.0251969635503 -0.0492164988973 0.125 1.30924955041e-38
0.0256679348316 -0.0492164988973 0.125 1.32768867638e-38
0.0263480173618 -0.0496102308885 0.126 1.32768867638e-38
0.0270356354326 -0.0500039628797 0.127 1.32768839612e-38
0.0277307890438 -0.0503976948709 0.128 1.31846883314e-38
0.0279926490762 -0.0500039628797 0.127 1.30002970716e-38
0.028471155898 -0.0500039628797 0.127 1.29081014418e-38
0.0287217126197 -0.0496102308885 0.126 1.30002998742e-38
0.0291964516712 -0.0496102308885 0.126 1.30924955041e-38
0.0296711907228 -0.0496102308885 0.126 1.3184691134e-38
0.0303851831853 -0.0500039628797 0.127 1.3184691134e-38
0.0311067111882 -0.0503976948709 0.128 1.30924955041e-38
0.0315889857803 -0.0503976948709 0.128 1.3184691134e-38
0.0320712603724 -0.0503976948709 0.128 1.3184691134e-38
0.0325535349644 -0.0503976948709 0.128 1.30924955041e-38
0.0325196250322 -0.0496102308885 0.126 1.30002998742e-38
0.0332562241162 -0.0500039628797 0.127 1.3184691134e-38
0.0334691031353 -0.0496102308885 0.126 1.32768867638e-38
0.0342132377598 -0.0500039628797 0.127 1.32768867638e-38
0.0352380712679 -0.0507914268621 0.129 1.30924955041e-38
0.0360010447437 -0.0511851588532 0.13 1.3184691134e-38
0.0364908548762 -0.0511851588532 0.13 1.33690823937e-38
0.0369806650088 -0.0511851588532 0.13 1.34612780236e-38
0.0371822407172 -0.0507914268621 0.129 1.34612780236e-38
0.0379602852739 -0.0511851588532 0.13 1.34612780236e-38
0.0384500954065 -0.0511851588532 0.13 1.33690823937e-38
0.0389399055391 -0.0511851588532 0.13 1.33690823937e-38
0.0397330211768 -0.0515788908444 0.131 1.33690823937e-38
0.0408407456304 -0.0523663548268 0.133 1.32768867638e-38
0.0413418590738 -0.0523663548268 0.133 1.3184691134e-38
0.0415283637012 -0.0519726228356 0.132 1.3184691134e-38
0.0417073327881 -0.0515788908444 0.131 1.3184691134e-38
0.0422009106909 -0.0515788908444 0.131 1.32768867638e-38
0.0430204007204 -0.0519726228356 0.132 1.32768867638e-38
0.0435177463934 -0.0519726228356 0.132 1.32768867638e-38
0.0440150920665 -0.0519726228356 0.132 1.33690795911e-38
0.044849653177 -0.0523663548268 0.133 1.3461275221e-38
0.0450097834126 -0.0519726228356 0.132 1.34612780236e-38
0.0455071290857 -0.0519726228356 0.132 1.33690823937e-38
0.0460044747588 -0.0519726228356 0.132 1.32768867638e-38
0.0461495339134 -0.0515788908444 0.131 1.32768867638e-38
0.0473552203936 -0.0523663548268 0.133 1.33690851963e-38
0.0482161558958 -0.0527600868179 0.134 1.34612808262e-38
0.0483574472802 -0.0523663548268 0.133 1.35534736534e-38
0.0488585607235 -0.0523663548268 0.133 1.34612780236e-38
0.0493596741669 -0.0523663548268 0.133 1.33690823937e-38
0.0498607876102 -0.0523663548268 0.133 1.33690823937e-38
0.0507405619637 -0.0527600868179 0.134 1.35534736534e-38
0.0512454431772 -0.0527600868179 0.134 1.36456692833e-38
0.0517503243908 -0.0527600868179 0.134 1.36456692833e-38
0.0522552056044 -0.0527600868179 0.134 1.34612780236e-38
0.0535475508003 -0.0535475508003 0.136 1.32768839612e-38
0.0540599675544 -0.0535475508003 0.136 1.32768839612e-38
0.0537698492451 -0.0527600868179 0.134 1.33690795911e-38
0.0550848010625 -0.0535475508003 0.136 1.33690795911e-38
0.0551884147444 -0.0531538188091 0.135 1.3461275221e-38
0.0556970637282 -0.0531538188091 0.135 1.3461275221e-38
0.0566220513247 -0.0535475508003 0.136 1.3461275221e-38
0.0567143616959 -0.0531538188091 0.135 1.33690795911e-38
0.058070758986 -0.0539412827915 0.137 1.32768867638e-38
0.0581593015869 -0.0535475508003 0.136 1.3184691134e-38
0.058671718341 -0.0535475508003 0.136 1.30924955041e-38
0.059619312559 -0.0539412827915 0.137 1.30924955041e-38
0.0605744423175 -0.0543350147827 0.138 1.30013788741e-38
0.0610943946121 -0.0543350147827 0.138 1.30935745039e-38
0.061167866132 -0.0539412827915 0.137 1.30013788741e-38
0.0616840506563 -0.0539412827915 0.137 1.31857701338e-38
0.063108267811 -0.0547287467738 0.139 1.33694369222e-38
0.0627164197049 -0.0539412827915 0.137 1.33690795911e-38
0.0632326042293 -0.0539412827915 0.137 1.33690823937e-38
0.0637487887536 -0.0539412827915 0.137 1.32768867638e-38
0.0647340606741 -0.0543350147827 0.138 1.3184691134e-38
0.0652540129687 -0.0543350147827 0.138 1.30002998742e-38
0.0657739652632 -0.0543350147827 0.138 1.30002970716e-38
0.0662939175578 -0.0543350147827 0.138 1.30928500326e-38
0.065845552898 -0.0535475508003 0.136 1.30914165043e-38
0.0663579696521 -0.0535475508003 0.136 1.29995810081e-38
0.0678537744415 -0.0543350147827 0.138 1.29073853783e-38
0.0673828031602 -0.0535475508003 0.136 1.29073853783e-38
0.0678952199143 -0.0535475508003 0.136 1.24471288977e-38
0.0699166286537 -0.0547287467738 0.139 1.27237157873e-38
0.0704403487185 -0.0547287467738 0.139 1.26315201574e-38
0.0714746016523 -0.055122478765 0.14 1.22634579053e-38
0.0720020894873 -0.055122478765 0.14 1.26315173548e-38
0.0720115089129 -0.0547287467738 0.139 1.26325963546e-38
0.0714915566184 -0.0539412827915 0.137 1.28169848117e-38
0.0730589490426 -0.0547287467738 0.139 1.28177036778e-38
0.0735826691074 -0.0547287467738 0.139 1.25403979221e-38
0.0746395286627 -0.055122478765 0.14 1.27237101821e-38
0.0757039237585 -0.0555162107562 0.141 1.28151897484e-38
0.0767758543947 -0.0559099427474 0.142 1.23542115991e-38
0.0762219921679 -0.055122478765 0.14 1.20783435756e-38
0.0762012694315 -0.0547287467738 0.139 1.22627348353e-38
0.0767249894963 -0.0547287467738 0.139 1.25393217249e-38
0.0778044556731 -0.055122478765 0.14 1.27237129847e-38
0.0788914573904 -0.0555162107562 0.141 1.2632593552e-38
0.0799859946482 -0.0559099427474 0.142 1.27247891819e-38
0.0810560413993 -0.0559099427474 0.142 1.28169848117e-38
0.0815910647749 -0.0559099427474 0.142 1.26325921507e-38
0.0809693826835 -0.055122478765 0.14 1.23560052611e-38
0.0814968705186 -0.055122478765 0.14 1.18950313157e-38
-0.0615107332248 -0.0401663147556 0.103 1.20783435756e-38
-0.0623095005179 -0.0409462431975 0.105 1.22627348353e-38
-0.0619138846416 -0.0409462431975 0.105 1.24471260951e-38
-0.0621041570392 -0.0413362074184 0.106 1.23549304652e-38
-0.061122652889 -0.0409462431975 0.105 1.15251697964e-38
-0.0607270370127 -0.0409462431975 0.105 9.95784408875e-39
-0.0609060060996 -0.0413362074184 0.106 6.27001889422e-39
-0.060506622453 -0.0413362074184 0.106 4.60798923243e-39
-0.0601072388064 -0.0413362074184 0.106 4.70018486229e-39
-0.0597078551599 -0.0413362074184 0.106 5.34555146874e-39
-0.0598679853955 -0.0417261716393 0.107 8.29688782159e-39
-0.0594648339787 -0.0417261716393 0.107 1.03259105447e-38
-0.0590616825619 -0.0417261716393 0.107 1.23549304652e-38
-0.0586585311451 -0.0417261716393 0.107 1.31846883314e-38
-0.0577109369271 -0.0413362074184 0.106 1.29091804416e-38
-0.0567708782496 -0.0409462431975 0.105 1.27255066467e-38
-0.0563752623733 -0.0409462431975 0.105 1.20801386389e-38
-0.0570459254779 -0.0417261716393 0.107 1.0604289695e-38
-0.0561134023409 -0.0413362074184 0.106 7.28417082272e-39
-0.0557140186944 -0.0413362074184 0.106 4.88636558016e-39
-0.0553146350478 -0.0413362074184 0.106 4.14808447774e-39
-0.0554333198107 -0.0417261716393 0.107 4.05516858046e-39
-0.0555444690331 -0.0421161358602 0.108 6.54409465696e-39
-0.0546270169771 -0.0417261716393 0.107 9.31247467971e-39
-0.0532103353629 -0.0409462431975 0.105 1.13407785367e-38
-0.0528147194866 -0.0409462431975 0.105 1.29081042444e-38
-0.0524191036103 -0.0409462431975 0.105 1.30002998742e-38
-0.0535098730978 -0.0421161358602 0.108 1.29081042444e-38
-0.0526112598931 -0.0417261716393 0.107 1.20783435756e-38
-0.0526960347237 -0.0421161358602 0.108 1.12485829068e-38
-0.0522891155366 -0.0421161358602 0.108 7.65295334217e-39
-0.0514018056426 -0.0417261716393 0.107 5.34555567264e-39
-0.0505220312891 -0.0413362074184 0.106 3.96262122469e-39
-0.050595502809 -0.0417261716393 0.107 3.50236334278e-39
-0.049723263996 -0.0413362074184 0.106 4.9778507517e-39
-0.0497891999754 -0.0417261716393 0.107 8.66639200975e-39
-0.0493860485586 -0.0417261716393 0.107 1.06032163004e-38
-0.0489828971418 -0.0417261716393 0.107 1.23549276626e-38
-0.0490337620402 -0.0421161358602 0.108 1.26318718833e-38
-0.0481765943082 -0.0417261716393 0.107 1.2632593552e-38
-0.0477734428914 -0.0417261716393 0.107 1.20794197728e-38
-0.0473702914746 -0.0417261716393 0.107 1.12485829068e-38
-0.047406085292 -0.0421161358602 0.108 8.48199794743e-39
-0.046563988641 -0.0417261716393 0.107 4.70126105951e-39
-0.0461608372242 -0.0417261716393 0.107 3.86970672871e-39
-0.0461853277308 -0.0421161358602 0.108 3.1321416898e-39
-0.0457784085437 -0.0421161358602 0.108 4.88278245999e-39
-0.0457915957396 -0.0425061000812 0.109 7.92811090733e-39
-0.0453809087823 -0.0425061000812 0.109 1.05095857409e-38
-0.044970221825 -0.0425061000812 0.109 1.21698259446e-38
-0.0441507317955 -0.0421161358602 0.108 1.25386056614e-38
-0.0437438126085 -0.0421161358602 0.108 1.23549304652e-38
-0.0433368934214 -0.0421161358602 0.108 1.25393189223e-38
-0.0429299742344 -0.0421161358602 0.108 1.11574634742e-38
-0.0429167870385 -0.0425061000812 0.109 8.391593177e-39
-0.0428960643021 -0.0428960643021 0.11 5.25443764129e-39
-0.0420954131239 -0.0425061000812 0.109 3.59491630375e-39
-0.0416847261666 -0.0425061000812 0.109 3.31725181564e-39
-0.0412740392093 -0.0425061000812 0.109 4.05481685455e-39
-0.040488459112 -0.0421161358602 0.108 7.00507560888e-39
-0.040081539925 -0.0421161358602 0.108 9.772020702e-39
-0.0393072631385 -0.0417261716393 0.107 1.18932334498e-38
-0.0389041117217 -0.0417261716393 0.107 1.23549304652e-38
-0.0385009603049 -0.0417261716393 0.107 1.25393189223e-38
-0.0380978088881 -0.0417261716393 0.107 1.22627348353e-38
-0.0380469439897 -0.0421161358602 0.108 1.18010406225e-38
-0.0376400248026 -0.0421161358602 0.108 9.40323818254e-39
-0.0368883546377 -0.0417261716393 0.107 5.07004638156e-39
-0.0368261864285 -0.0421161358602 0.108 4.23920811428e-39
-0.036082051804 -0.0417261716393 0.107 3.13250462611e-39
-0.0363457957216 -0.0425061000812 0.109 3.59276390931e-39
-0.0359351087643 -0.0425061000812 0.109 6.08491157098e-39
-0.0351985096803 -0.0421161358602 0.108 9.40395424606e-39
-0.0347915904932 -0.0421161358602 0.108 1.19854290796e-38
-0.0343846713062 -0.0421161358602 0.108 1.25386028588e-38
-0.0342923609351 -0.0425061000812 0.109 1.2446407229e-38
-0.0338816739777 -0.0425061000812 0.109 1.27229941185e-38
-0.0334709870204 -0.0425061000812 0.109 1.18010406225e-38
-0.032756994558 -0.0421161358602 0.108 9.58834550579e-39
-0.0326496131058 -0.0425061000812 0.109 5.90052311385e-39
-0.0319431561839 -0.0421161358602 0.108 3.77930476088e-39
-0.0315362369968 -0.0421161358602 0.108 3.13393815443e-39
-0.0311293178097 -0.0421161358602 0.108 3.40944604421e-39
-0.0307223986227 -0.0421161358602 0.108 6.45298082951e-39
-0.0303154794356 -0.0421161358602 0.108 9.58834830838e-39
-0.0299085602486 -0.0421161358602 0.108 1.18017594886e-38
-0.0297748044047 -0.0425061000812 0.109 1.24471260951e-38
-0.0293641174474 -0.0425061000812 0.109 1.26325963546e-38
-0.0292190582927 -0.0428960643021 0.11 1.24482050949e-38
-0.0285427435328 -0.0425061000812 0.109 1.19861507483e-38
-0.0283901488376 -0.0428960643021 0.11 1.00493264577e-38
-0.0279756941101 -0.0428960643021 0.11 6.08419831006e-39
-0.0273106826609 -0.0425061000812 0.109 4.14701248441e-39
-0.0268999957035 -0.0425061000812 0.109 3.50056827945e-39
-0.0264893087462 -0.0425061000812 0.109 3.8693507989e-39
-0.0263178751998 -0.0428960643021 0.11 5.90052031125e-39
-0.0263743917536 -0.043675992744 0.112 9.58834550579e-39
-0.0259524014855 -0.043675992744 0.112 1.22620187718e-38
-0.0253024611173 -0.043286028523 0.111 1.2815192551e-38
-0.0248842386195 -0.043286028523 0.111 1.29073881809e-38
-0.0244660161217 -0.043286028523 0.111 1.2815192551e-38
-0.0242644404133 -0.043675992744 0.112 1.24464100315e-38
-0.0238424501453 -0.043675992744 0.112 1.0141519285e-38
-0.0234204598772 -0.043675992744 0.112 6.17711000344e-39
-0.0227931261305 -0.043286028523 0.111 4.42467416992e-39
-0.0223749036327 -0.043286028523 0.111 3.41052504402e-39
-0.0219566811349 -0.043286028523 0.111 4.14701108311e-39
-0.0215384586371 -0.043286028523 0.111 7.00615460869e-39
-0.020739691344 -0.0425061000812 0.109 1.04181089772e-38
-0.0207020136414 -0.043286028523 0.111 1.23549332678e-38
-0.0204665280008 -0.043675992744 0.112 1.28159086145e-38
-0.0200445377327 -0.043675992744 0.112 1.30002998742e-38
-0.019447346148 -0.043286028523 0.111 1.27237157873e-38
-0.0190291236502 -0.043286028523 0.111 1.22620187718e-38
-0.0186109011524 -0.043286028523 0.111 1.01415220876e-38
-0.0181926786546 -0.043286028523 0.111 7.09834743596e-39
-0.0179345863924 -0.043675992744 0.112 4.51687260238e-39
-0.0175125961244 -0.043675992744 0.112 3.96261982339e-39
-0.0169380111612 -0.043286028523 0.111 4.70018626359e-39
-0.0166686155883 -0.043675992744 0.112 7.65295614477e-39
-0.0162466253202 -0.043675992744 0.112 1.09719960173e-38
-0.0158246350522 -0.043675992744 0.112 1.22627348353e-38
-0.0155401683982 -0.0440659569649 0.113 1.29081014418e-38
-0.0151144103599 -0.0440659569649 0.113 1.30002970716e-38
-0.0146886523216 -0.0440659569649 0.113 1.27237129847e-38
-0.0142628942833 -0.0440659569649 0.113 1.20783435756e-38
-0.013837136245 -0.0440659569649 0.113 9.68126000176e-39
-0.0135300629696 -0.0444559211858 0.114 6.82176054637e-39
-0.013100537161 -0.0444559211858 0.114 4.42467416992e-39
-0.0125598621301 -0.0440659569649 0.113 4.14808728033e-39
-0.0121341040918 -0.0440659569649 0.113 5.62393342166e-39
-0.0117083460535 -0.0440659569649 0.113 9.31247467971e-39
-0.0112825880152 -0.0440659569649 0.113 1.1801756686e-38
-0.0109529081182 -0.0444559211858 0.114 1.24482022923e-38
-0.0105233823097 -0.0444559211858 0.114 1.27247891819e-38
-0.0100938565011 -0.0444559211858 0.114 1.29081014418e-38
-0.00966433069257 -0.0444559211858 0.114 1.28159058119e-38
-0.00915379782362 -0.0440659569649 0.113 1.19854290796e-38
-0.00880527907545 -0.0444559211858 0.114 9.77273396292e-39
-0.00837575326689 -0.0444559211858 0.114 7.0061490035e-39
-0.00794622745833 -0.0444559211858 0.114 4.9778479491e-39
-0.00758263762916 -0.0448458854067 0.115 5.16116020901e-39
-0.00714934405035 -0.0448458854067 0.115 8.11142036464e-39
-0.00671605047154 -0.0448458854067 0.115 1.08798003874e-38
-0.00628275689273 -0.0448458854067 0.115 1.28159086145e-38
-0.0059003282123 -0.0452358496277 0.116 1.30002998742e-38
-0.00551036399138 -0.0456258138486 0.117 1.3184691134e-38
-0.00502620551419 -0.0452358496277 0.116 1.30002998742e-38
-0.00458914416513 -0.0452358496277 0.116 1.30002998742e-38
-0.00415208281607 -0.0452358496277 0.116 1.17095610562e-38
-0.00371502146701 -0.0452358496277 0.116 8.85149653039e-39
-0.00330621839483 -0.0456258138486 0.117 6.91395617623e-39
-0.00288987978214 -0.0460157780695 0.118 6.54517085418e-39
-0.00244528289258 -0.0460157780695 0.118 7.19125912934e-39
-0.00200068600302 -0.0460157780695 0.118 1.05103018044e-38
-0.00155608911346 -0.0460157780695 0.118 1.18017594886e-38
-0.0011114922239 -0.0460157780695 0.118 1.28159114171e-38
-0.000666895334341 -0.0460157780695 0.118 1.26322404248e-38
-0.00022229844478 -0.0460157780695 0.118 1.29091832442e-38
0.000224182329906 -0.0464057422905 0.119 1.26322404248e-38
0.000678198645093 -0.0467957065114 0.12 1.20790666456e-38
0.0011114922239 -0.0460157780695 0.118 1.06028603706e-38
0.00156927630934 -0.0464057422905 0.119 9.0351745292e-39
0.00201764096915 -0.0464057422905 0.119 7.2834547592e-39
0.00244528289258 -0.0460157780695 0.118 7.92954023176e-39
0.00286538927552 -0.0456258138486 0.117 9.95892028597e-39
0.00327796011795 -0.0452358496277 0.116 1.18950271118e-38
0.00371502146701 -0.0452358496277 0.116 1.29073853783e-38
0.00418787663345 -0.0456258138486 0.117 1.29995810081e-38
0.00466826734039 -0.0460157780695 0.118 1.31839722679e-38
0.00511286422995 -0.0460157780695 0.118 1.30002998742e-38
0.00565165537577 -0.0467957065114 0.12 1.2908107047e-38
0.00615465270421 -0.0471856707323 0.121 1.16180884963e-38
0.00671981824179 -0.0479655991742 0.123 9.8663715289e-39
0.00706645310484 -0.0471856707323 0.121 8.66782834068e-39
0.00746018509602 -0.0467957065114 0.12 8.94476835748e-39
0.0078463815467 -0.0464057422905 0.119 9.68233339638e-39
0.00829474620651 -0.0464057422905 0.119 1.1710640056e-38
0.00866963934643 -0.0460157780695 0.118 1.29091832442e-38
0.00926871481626 -0.0467957065114 0.12 1.30932185741e-38
0.0098828613671 -0.0475756349532 0.122 1.28166316845e-38
0.0105120789989 -0.0483555633951 0.124 1.2908830117e-38
0.0110678251109 -0.048745527616 0.125 1.28166344871e-38
0.0112618652788 -0.0475756349532 0.122 1.23545801406e-38
0.0118176113907 -0.0479655991742 0.123 1.08794472602e-38
0.0121812012199 -0.0475756349532 0.122 9.77345282903e-39
0.0126408691905 -0.0475756349532 0.122 9.40574650679e-39
0.0132079186132 -0.0479655991742 0.123 1.0419897034e-38
0.0138936527988 -0.048745527616 0.125 1.17106372534e-38
0.014709375058 -0.0499154202788 0.128 1.25407608585e-38
0.015310334413 -0.0503053844997 0.129 1.28173505506e-38
0.015551471709 -0.0495254560579 0.127 1.30924955041e-38
0.0156513176206 -0.0483555633951 0.124 1.3184691134e-38
0.0158585449844 -0.0475756349532 0.122 1.32768867638e-38
0.0164519687989 -0.0479655991742 0.123 1.27237129847e-38
0.0170529281538 -0.0483555633951 0.124 1.18939523159e-38
0.0179440058181 -0.0495254560579 0.127 1.07886809547e-38
0.0185675717945 -0.0499154202788 0.128 1.02355071756e-38
0.0196451540862 -0.0514752771625 0.132 1.02355071756e-38
0.0201424997592 -0.0514752771625 0.132 1.17095610562e-38
0.0203271205015 -0.0506953487207 0.13 1.28159086145e-38
0.0204966701628 -0.0499154202788 0.128 1.30002998742e-38
0.0206511487431 -0.049135491837 0.126 1.32768867638e-38
0.0209582220185 -0.048745527616 0.125 1.30924955041e-38
0.0216006268462 -0.049135491837 0.126 1.32768867638e-38
0.0224257685311 -0.0499154202788 0.128 1.3184691134e-38
0.0236239194707 -0.0514752771625 0.132 1.19861479457e-38
0.0244867388581 -0.0522552056044 0.134 1.12496619067e-38
0.0246186108169 -0.0514752771625 0.132 1.10652706469e-38
0.0243548668993 -0.0499154202788 0.128 1.14340531664e-38
0.0242550209877 -0.048745527616 0.125 1.24482050949e-38
0.024725992269 -0.048745527616 0.125 1.27247891819e-38
0.0253985392587 -0.049135491837 0.126 1.30935717013e-38
0.0260786217889 -0.0495254560579 0.127 1.30013760715e-38
0.0271844623575 -0.0506953487207 0.13 1.30935717013e-38
0.0281000305283 -0.0514752771625 0.132 1.32768895664e-38
0.028380729412 -0.0510853129416 0.131 1.32768895664e-38
0.0286538927552 -0.0506953487207 0.13 1.26315201574e-38
0.0286953382279 -0.0499154202788 0.128 1.17095638588e-38
0.0287217126197 -0.049135491837 0.126 1.1525172599e-38
0.0294281695416 -0.0495254560579 0.127 1.19861507483e-38
0.0301421620041 -0.0499154202788 0.128 1.28159114171e-38
0.0313421968289 -0.0510853129416 0.131 1.30924983067e-38
0.0320787959129 -0.0514752771625 0.132 1.31846883314e-38
0.0323293526345 -0.0510853129416 0.131 1.31846883314e-38
0.0328229305374 -0.0510853129416 0.131 1.3184691134e-38
0.0328078594564 -0.0503053844997 0.129 1.29081042444e-38
0.0327777172943 -0.0495254560579 0.127 1.30924955041e-38
0.0329943640838 -0.049135491837 0.126 1.26315173548e-38
0.033734730938 -0.0495254560579 0.127 1.23549332678e-38
0.0344826333327 -0.0499154202788 0.128 1.22627376379e-38
0.0357843979543 -0.0510853129416 0.131 1.22638138352e-38
0.0365549069705 -0.0514752771625 0.132 1.30013788741e-38
0.0367715537599 -0.0510853129416 0.131 1.31857701338e-38
0.0369806650088 -0.0506953487207 0.13 1.29091832442e-38
0.0374704751414 -0.0506953487207 0.13 1.31857701338e-38
0.0376682830795 -0.0503053844997 0.129 1.30013788741e-38
0.0378585554772 -0.0499154202788 0.128 1.30935745039e-38
0.0389399055391 -0.0506953487207 0.13 1.29091832442e-38
0.0403396321871 -0.0518652413835 0.133 1.30002998742e-38
0.0408407456304 -0.0518652413835 0.133 1.26315173548e-38
0.0416527001194 -0.0522552056044 0.134 1.27247919845e-38
0.0418429725171 -0.0518652413835 0.133 1.29091832442e-38
0.0420257093742 -0.0514752771625 0.132 1.30935745039e-38
0.0425230550473 -0.0514752771625 0.132 1.31857701338e-38
0.042368576467 -0.0506953487207 0.13 1.32768867638e-38
0.0428583865996 -0.0506953487207 0.13 1.33690823937e-38
0.0440150920665 -0.0514752771625 0.132 1.30942891661e-38
0.0445124377396 -0.0514752771625 0.132 1.30942891661e-38
0.0450097834126 -0.0514752771625 0.132 1.30942891661e-38
0.0455071290857 -0.0514752771625 0.132 1.30942891661e-38
0.0456559560106 -0.0510853129416 0.131 1.26333110168e-38
0.0465018204318 -0.0514752771625 0.132 1.3186484796e-38
0.0473552203936 -0.0518652413835 0.133 1.30942891661e-38
0.0482161558958 -0.0522552056044 0.134 1.3186484796e-38
0.047993857451 -0.0514752771625 0.132 1.30935745039e-38
0.0484912031241 -0.0514752771625 0.132 1.31857701338e-38
0.0489885487972 -0.0514752771625 0.132 1.32779657637e-38
0.0494858944703 -0.0514752771625 0.132 1.32779657637e-38
0.0503619010535 -0.0518652413835 0.133 1.30013788741e-38
0.0512454431772 -0.0522552056044 0.134 1.32779657637e-38
0.0517503243908 -0.0522552056044 0.134 1.31857701338e-38
0.0526451698253 -0.0526451698253 0.135 1.34623570234e-38
0.0531538188091 -0.0526451698253 0.135 1.30939346376e-38
0.0540599675544 -0.0530351340462 0.136 1.32783258974e-38
0.0541711167768 -0.0526451698253 0.135 1.32779657637e-38
0.0546797657606 -0.0526451698253 0.135 1.34623570234e-38
0.0555972178166 -0.0530351340462 0.136 1.35545526532e-38
0.0561096345707 -0.0530351340462 0.136 1.32779657637e-38
0.0566220513247 -0.0530351340462 0.136 1.33690823937e-38
0.0571344680788 -0.0530351340462 0.136 1.32768867638e-38
0.0572230106797 -0.0526451698253 0.135 1.30935717013e-38
0.0577316596635 -0.0526451698253 0.135 1.30013760715e-38
0.0591031280347 -0.0534250982672 0.137 1.31857673312e-38
0.0587489576311 -0.0526451698253 0.135 1.31857673312e-38
0.059257606615 -0.0526451698253 0.135 1.30935717013e-38
0.0602089686032 -0.0530351340462 0.136 1.30935717013e-38
0.0616143469067 -0.0538150624881 0.138 1.30013760715e-38
0.0616840506563 -0.0534250982672 0.137 1.30013760715e-38
0.0622002351806 -0.0534250982672 0.137 1.33690823937e-38
0.0631742037904 -0.0538150624881 0.138 1.3184691134e-38
0.0627710523736 -0.0530351340462 0.136 1.30013788741e-38
0.0642141083795 -0.0538150624881 0.138 1.30935745039e-38
0.0637958858817 -0.0530351340462 0.136 1.30013760715e-38
0.0657268681351 -0.054205026709 0.139 1.29091804416e-38
0.0662505881999 -0.054205026709 0.139 1.28177036778e-38
0.0662939175578 -0.0538150624881 0.138 1.29098993077e-38
0.0663297113752 -0.0534250982672 0.137 1.28169876143e-38
0.0668458958995 -0.0534250982672 0.137 1.27247919845e-38
0.0668703864061 -0.0530351340462 0.136 1.26325963546e-38
0.0678782649481 -0.0534250982672 0.137 1.26325963546e-38
0.0688936790306 -0.0538150624881 0.138 1.2356009465e-38
0.0694136313252 -0.0538150624881 0.138 1.24482050949e-38
0.0709471138172 -0.0545949909299 0.14 1.25404007247e-38
0.0719851345212 -0.0549849551509 0.141 1.28169876143e-38
0.0725163901265 -0.0549849551509 0.141 1.26325963546e-38
0.0725295773224 -0.0545949909299 0.14 1.27247919845e-38
0.0730570651575 -0.0545949909299 0.14 1.29091832442e-38
0.0735845529925 -0.0545949909299 0.14 1.29091832442e-38
0.0741120408276 -0.0545949909299 0.14 1.26325963546e-38
0.0746395286627 -0.0545949909299 0.14 1.29091832442e-38
0.0757039237585 -0.0549849551509 0.141 1.26325963546e-38
0.0767758543947 -0.0553749193718 0.142 1.27247919845e-38
0.0756775493667 -0.054205026709 0.139 1.24482022923e-38
0.0772976905744 -0.0549849551509 0.141 1.24482022923e-38
0.0767249894963 -0.054205026709 0.139 1.25403979221e-38
0.0783602017851 -0.0549849551509 0.141 1.2632593552e-38
0.0800104851548 -0.0557648835927 0.143 1.24482022923e-38
0.0794227129957 -0.0549849551509 0.141 1.24482022923e-38
0.079953968601 -0.0549849551509 0.141 1.25403979221e-38
0.0799144070134 -0.0545949909299 0.14 1.28169848117e-38
0.0810164798117 -0.0549849551509 0.141 1.29091804416e-38
0.0809693826835 -0.0545949909299 0.14 1.30013760715e-38
-0.0621079248095 -0.0401644308705 0.104 1.24471260951e-38
-0.0629029243323 -0.0409368237718 0.106 1.25393217249e-38
-0.0625035406858 -0.0409368237718 0.106 1.25393217249e-38
-0.0615182687653 -0.0405506273212 0.105 1.26315173548e-38
-0.0617047733927 -0.0409368237718 0.106 1.21705392055e-38
-0.0607270370127 -0.0405506273212 0.105 1.15251697964e-38
-0.0609060060996 -0.0409368237718 0.106 9.40467030957e-39
-0.061077439646 -0.0413230202225 0.107 7.74264064778e-39
-0.0601072388064 -0.0409368237718 0.106 6.82176054637e-39
-0.0602711368123 -0.0413230202225 0.107 7.55932558528e-39
-0.0593084715133 -0.0409368237718 0.106 9.3117586162e-39
-0.0594648339787 -0.0413230202225 0.107 1.10634755836e-38
-0.0590616825619 -0.0413230202225 0.107 1.25393217249e-38
-0.0581103205737 -0.0409368237718 0.106 1.29081042444e-38
-0.0577109369271 -0.0409368237718 0.106 1.28169848117e-38
-0.0573115532806 -0.0409368237718 0.106 1.2541115387e-38
-0.056912169634 -0.0409368237718 0.106 1.22645298987e-38
-0.0565127859875 -0.0409368237718 0.106 1.16184416235e-38
-0.0566427740611 -0.0413230202225 0.107 9.68125719916e-39
-0.0562396226443 -0.0413230202225 0.107 7.00686506702e-39
-0.0553146350478 -0.0409368237718 0.106 6.17638833473e-39
-0.0549152514012 -0.0409368237718 0.106 6.63664621664e-39
-0.0545158677547 -0.0409368237718 0.106 8.84898540355e-39
-0.0546270169771 -0.0413230202225 0.107 1.01422353485e-38
-0.0537171004616 -0.0409368237718 0.106 1.17095610562e-38
-0.0523117221581 -0.0401644308705 0.104 1.29081042444e-38
-0.0524191036103 -0.0405506273212 0.105 1.30002998742e-38
-0.0525189495219 -0.0409368237718 0.106 1.28159086145e-38
-0.0521195658754 -0.0409368237718 0.106 1.25393217249e-38
-0.0517201822288 -0.0409368237718 0.106 1.18939523159e-38
-0.0513207985823 -0.0409368237718 0.106 9.95784408875e-39
-0.0509214149357 -0.0409368237718 0.106 7.28166249847e-39
-0.0509986542258 -0.0413230202225 0.107 5.53102453088e-39
-0.050595502809 -0.0413230202225 0.107 5.53102453088e-39
-0.0506614387884 -0.0417092166732 0.108 7.0065147424e-39
-0.0497891999754 -0.0413230202225 0.107 9.40395704866e-39
-0.0493860485586 -0.0413230202225 0.107 1.10641944497e-38
-0.0489828971418 -0.0413230202225 0.107 1.24471232925e-38
-0.048579745725 -0.0413230202225 0.107 1.25403965208e-38
-0.0481765943082 -0.0413230202225 0.107 1.2632593552e-38
-0.0486664044408 -0.0420954131239 0.109 1.23560066624e-38
-0.047813004479 -0.0417092166732 0.108 1.19861479457e-38
-0.047406085292 -0.0417092166732 0.108 1.00493236551e-38
-0.046128811177 -0.0409368237718 0.106 6.82176054637e-39
-0.0461608372242 -0.0413230202225 0.107 5.25335864147e-39
-0.0461853277308 -0.0417092166732 0.108 4.79166302734e-39
-0.0457784085437 -0.0417092166732 0.108 6.26679310516e-39
-0.0457915957396 -0.0420954131239 0.109 8.48200075002e-39
-0.0453809087823 -0.0420954131239 0.109 1.06946958667e-38
-0.0445576509826 -0.0417092166732 0.108 1.23542144017e-38
-0.0441507317955 -0.0417092166732 0.108 1.25386056614e-38
-0.0437438126085 -0.0417092166732 0.108 1.24471260951e-38
-0.0433368934214 -0.0417092166732 0.108 1.25393217249e-38
-0.0429299742344 -0.0417092166732 0.108 1.18017538834e-38
-0.0425230550473 -0.0417092166732 0.108 9.68125439657e-39
-0.0421161358602 -0.0417092166732 0.108 6.26894970349e-39
-0.0417092166732 -0.0417092166732 0.108 4.33248134266e-39
-0.0416847261666 -0.0420954131239 0.109 3.68711193361e-39
-0.0412740392093 -0.0420954131239 0.109 4.97677175188e-39
-0.0408633522519 -0.0420954131239 0.109 7.55932838787e-39
-0.040081539925 -0.0417092166732 0.108 9.95712802524e-39
-0.0396746207379 -0.0417092166732 0.108 1.1801756686e-38
-0.0389041117217 -0.0413230202225 0.107 1.23549276626e-38
-0.0385009603049 -0.0413230202225 0.107 1.24471260951e-38
-0.0380978088881 -0.0413230202225 0.107 1.22627348353e-38
-0.0380469439897 -0.0417092166732 0.108 1.19854318822e-38
-0.0376400248026 -0.0417092166732 0.108 9.95713082784e-39
-0.0368883546377 -0.0413230202225 0.107 6.36078239705e-39
-0.0368261864285 -0.0417092166732 0.108 3.9636988232e-39
-0.0364192672415 -0.0417092166732 0.108 3.59383870523e-39
-0.0360123480544 -0.0417092166732 0.108 3.87042559482e-39
-0.0356054288674 -0.0417092166732 0.108 6.63808535016e-39
-0.0351985096803 -0.0417092166732 0.108 9.40395424606e-39
-0.0341473017804 -0.0409368237718 0.106 1.20776247095e-38
-0.0343846713062 -0.0417092166732 0.108 1.26307984887e-38
-0.0339777521191 -0.0417092166732 0.108 1.26307984887e-38
-0.0338816739777 -0.0420954131239 0.109 1.27229941185e-38
-0.0334709870204 -0.0420954131239 0.109 1.2169823142e-38
-0.0330603000631 -0.0420954131239 0.109 1.0141519285e-38
-0.0329491508407 -0.0424816095745 0.11 5.90052311385e-39
-0.0322389261485 -0.0420954131239 0.109 4.2402829102e-39
-0.0318282391912 -0.0420954131239 0.109 3.04174252457e-39
-0.0314175522339 -0.0420954131239 0.109 3.40944604421e-39
-0.0310068652766 -0.0420954131239 0.109 6.45298082951e-39
-0.0305961783193 -0.0420954131239 0.109 9.40395704866e-39
-0.030185491362 -0.0420954131239 0.109 1.17095638588e-38
-0.0300479677478 -0.0424816095745 0.11 1.25393217249e-38
-0.0299029085932 -0.0428678060252 0.111 1.2632593552e-38
-0.0292190582927 -0.0424816095745 0.11 1.25404007247e-38
-0.0288046035652 -0.0424816095745 0.11 1.20783463782e-38
-0.0283901488376 -0.0424816095745 0.11 9.95712802524e-39
-0.0279756941101 -0.0424816095745 0.11 6.08419831006e-39
-0.0275612393825 -0.0424816095745 0.11 4.14701108311e-39
-0.027146784655 -0.0424816095745 0.11 3.31653294953e-39
-0.0267323299274 -0.0424816095745 0.11 3.31617701972e-39
-0.0265571286107 -0.0428678060252 0.111 5.71612905153e-39
-0.0263743917536 -0.0432540024759 0.112 8.94297609674e-39
-0.0257206836151 -0.0428678060252 0.111 1.17088449926e-38
-0.0253024611173 -0.0428678060252 0.111 1.25386056614e-38
-0.0246600562896 -0.0424816095745 0.11 1.27229969211e-38
-0.0244660161217 -0.0428678060252 0.111 1.27229969211e-38
-0.0240477936239 -0.0428678060252 0.111 1.22620187718e-38
-0.0238424501453 -0.0432540024759 0.112 1.00493236551e-38
-0.0234204598772 -0.0432540024759 0.112 5.34734933467e-39
-0.0229984696091 -0.0432540024759 0.112 3.77930476088e-39
-0.0223749036327 -0.0428678060252 0.111 2.94954689471e-39
-0.0219566811349 -0.0428678060252 0.111 3.31725041434e-39
-0.0215384586371 -0.0428678060252 0.111 6.17639393992e-39
-0.0209299637416 -0.0424816095745 0.11 9.86493519797e-39
-0.0207020136414 -0.0428678060252 0.111 1.21705420081e-38
-0.0201010542865 -0.0424816095745 0.11 1.28159086145e-38
-0.0200445377327 -0.0432540024759 0.112 1.29081042444e-38
-0.019447346148 -0.0428678060252 0.111 1.28159114171e-38
-0.0192005571966 -0.0432540024759 0.112 1.20776275121e-38
-0.0187785669286 -0.0432540024759 0.112 9.49615267852e-39
-0.0183565766605 -0.0432540024759 0.112 5.71541298801e-39
-0.0179345863924 -0.0432540024759 0.112 3.59491630375e-39
-0.0176689585898 -0.0436401989266 0.113 3.31725041434e-39
-0.0172432005515 -0.0436401989266 0.113 3.59383870523e-39
-0.0166686155883 -0.0432540024759 0.112 6.91539110586e-39
-0.0162466253202 -0.0432540024759 0.112 1.03266266082e-38
-0.0158246350522 -0.0432540024759 0.112 1.21705392055e-38
-0.0155401683982 -0.0436401989266 0.113 1.29081014418e-38
-0.0151144103599 -0.0436401989266 0.113 1.30002970716e-38
-0.0146886523216 -0.0436401989266 0.113 1.29081042444e-38
-0.0142628942833 -0.0436401989266 0.113 1.19861479457e-38
-0.013837136245 -0.0436401989266 0.113 8.66710807326e-39
-0.0135300629696 -0.0440263953773 0.114 4.88457612202e-39
-0.013100537161 -0.0440263953773 0.114 3.41052224143e-39
-0.0126710113525 -0.0440263953773 0.114 3.41052224143e-39
-0.0122414855439 -0.0440263953773 0.114 3.96441208412e-39
-0.0118119597354 -0.0440263953773 0.114 8.2976066877e-39
-0.0113824339268 -0.0440263953773 0.114 1.1156387277e-38
-0.0109529081182 -0.0440263953773 0.114 1.24471260951e-38
-0.0106156926808 -0.0444125918279 0.115 1.2632593552e-38
-0.010182399102 -0.0444125918279 0.115 1.29081042444e-38
-0.00983388035384 -0.0447987882786 0.116 1.28159086145e-38
-0.0093158119444 -0.0444125918279 0.115 1.13400624732e-38
-0.00880527907545 -0.0440263953773 0.114 8.02102260071e-39
-0.00837575326689 -0.0440263953773 0.114 4.60906542965e-39
-0.0078765237087 -0.0436401989266 0.113 3.59491630375e-39
-0.00745076567039 -0.0436401989266 0.113 3.77822856366e-39
-0.00702500763208 -0.0436401989266 0.113 6.08312071154e-39
-0.00665765003266 -0.0440263953773 0.114 1.04188222381e-38
-0.0062281242241 -0.0440263953773 0.114 1.24471260951e-38
-0.00584946331392 -0.0444125918279 0.115 1.28159086145e-38
-0.00546326686325 -0.0447987882786 0.116 1.30924955041e-38
-0.00502620551419 -0.0447987882786 0.116 1.30924955041e-38
-0.00458914416513 -0.0447987882786 0.116 1.25393217249e-38
-0.00415208281607 -0.0447987882786 0.116 1.00500397186e-38
-0.00371502146701 -0.0447987882786 0.116 5.99343200463e-39
-0.00330621839483 -0.0451849847293 0.117 4.2402829102e-39
-0.00286538927552 -0.0451849847293 0.117 3.41052224143e-39
-0.00244528289258 -0.04557118118 0.118 3.96441488672e-39
-0.00200068600302 -0.04557118118 0.118 8.11321542797e-39
-0.00156927630934 -0.0459573776306 0.119 1.1525172599e-38
-0.00112091164953 -0.0459573776306 0.119 1.27237129847e-38
-0.000672546989717 -0.0459573776306 0.119 1.27247919845e-38
-0.000224182329906 -0.0459573776306 0.119 1.28169876143e-38
0.000224182329906 -0.0459573776306 0.119 1.29088273144e-38
0.000672546989717 -0.0459573776306 0.119 1.16173682289e-38
0.00112091164953 -0.0459573776306 0.119 8.297969624e-39
0.00155608911346 -0.04557118118 0.118 5.62393622426e-39
0.0019837310369 -0.0451849847293 0.117 4.14880614645e-39
0.00242456015621 -0.0451849847293 0.117 4.14952220996e-39
0.00286538927552 -0.0451849847293 0.117 7.00758393313e-39
0.00330621839483 -0.0451849847293 0.117 1.08808765846e-38
0.00374704751414 -0.0451849847293 0.117 1.26307984887e-38
0.00422367045083 -0.04557118118 0.118 1.29995810081e-38
0.00466826734039 -0.04557118118 0.118 1.30924955041e-38
0.00515619358783 -0.0459573776306 0.119 1.28159086145e-38
0.00565165537577 -0.0463435740813 0.12 1.25393245275e-38
0.0062055176026 -0.0471159669827 0.122 1.01422381511e-38
0.00661055290453 -0.046729770532 0.121 6.63952448368e-39
0.00706645310484 -0.046729770532 0.121 4.79561188642e-39
0.00746018509602 -0.0463435740813 0.12 4.70377218636e-39
0.0078463815467 -0.0459573776306 0.119 5.90231537459e-39
0.00822504245687 -0.04557118118 0.118 1.0327705608e-38
0.00866963934643 -0.04557118118 0.118 1.19872269456e-38
0.00911423623599 -0.04557118118 0.118 1.30010229443e-38
0.00972084724633 -0.0463435740813 0.12 1.29088273144e-38
0.0103425293377 -0.0471159669827 0.122 1.30010229443e-38
0.0108907399091 -0.0475021634334 0.123 1.24478491651e-38
0.0110772445365 -0.0463435740813 0.12 1.08794472602e-38
0.011625455108 -0.046729770532 0.121 8.57455651359e-39
0.0121812012199 -0.0471159669827 0.122 6.17782606695e-39
0.0128480965543 -0.047888359884 0.124 5.71684511504e-39
0.0132079186132 -0.0475021634334 0.123 7.19305139008e-39
0.013671354354 -0.0475021634334 0.123 1.04199012379e-38
0.0142497070874 -0.047888359884 0.124 1.2356009465e-38
0.0148355953614 -0.0482745563347 0.125 1.30010229443e-38
0.0150616615764 -0.0475021634334 0.123 1.3184691134e-38
0.0156513176206 -0.047888359884 0.124 1.3184691134e-38
0.0159885330581 -0.0475021634334 0.123 1.30002998742e-38
0.0165857246428 -0.047888359884 0.124 1.16173654263e-38
0.017190451768 -0.0482745563347 0.125 9.12808341998e-39
0.0178027144337 -0.0486607527854 0.126 7.46856208244e-39
0.0182774534852 -0.0486607527854 0.126 6.54660578381e-39
0.0190498463866 -0.0494331456867 0.128 8.02173586162e-39
0.0195321209787 -0.0494331456867 0.128 1.06954091277e-38
0.0198580331053 -0.0490469492361 0.127 1.27237129847e-38
0.0201764096915 -0.0486607527854 0.126 1.29081042444e-38
0.0204872507372 -0.0482745563347 0.125 1.3184691134e-38
0.0209582220185 -0.0482745563347 0.125 1.3184691134e-38
0.0216006268462 -0.0486607527854 0.126 1.30002998742e-38
0.0224257685311 -0.0494331456867 0.128 1.20783435756e-38
0.0236239194707 -0.0509779314895 0.132 1.00500397186e-38
0.0241212651438 -0.0509779314895 0.132 8.29832555381e-39
0.0242456015621 -0.0502055385881 0.13 8.02173866422e-39
0.0241645945017 -0.0490469492361 0.127 8.85149653039e-39
0.0242550209877 -0.0482745563347 0.125 1.12485829068e-38
0.0249238002071 -0.0486607527854 0.126 1.25404007247e-38
0.0253985392587 -0.0486607527854 0.126 1.30935745039e-38
0.0262839652676 -0.0494331456867 0.128 1.30013760715e-38
0.0276026848553 -0.0509779314895 0.132 1.30013760715e-38
0.0285257885666 -0.0517503243908 0.134 1.30924983067e-38
0.0290306697802 -0.0517503243908 0.134 1.24471288977e-38
0.0288743073148 -0.0505917350388 0.131 1.087980319e-38
0.0286953382279 -0.0494331456867 0.128 9.40467311217e-39
0.0289496627198 -0.0490469492361 0.127 9.12808622258e-39
0.029659887412 -0.0494331456867 0.128 1.02344337809e-38
0.0306131332854 -0.0502055385881 0.13 1.20783463782e-38
0.0318207036507 -0.0513641279401 0.133 1.2908107047e-38
0.0325648382752 -0.0517503243908 0.134 1.31846883314e-38
0.0333165084402 -0.0521365208415 0.135 1.30924927015e-38
0.0333240439807 -0.0513641279401 0.133 1.30924955041e-38
0.0330621839483 -0.0502055385881 0.13 1.30002998742e-38
0.0330358095565 -0.0494331456867 0.128 1.23549304652e-38
0.0335180841486 -0.0494331456867 0.128 1.1156387277e-38
0.0342659865433 -0.0498193421374 0.129 1.03266294108e-38
0.0355602156244 -0.0509779314895 0.132 1.05110206705e-38
0.0366038879837 -0.0517503243908 0.134 1.08808793872e-38
0.0376626314241 -0.0525227172922 0.136 1.25404007247e-38
0.0373329515272 -0.0513641279401 0.133 1.30013788741e-38
0.0375495983166 -0.0509779314895 0.132 1.30013788741e-38
0.0374704751414 -0.0502055385881 0.13 1.31857701338e-38
0.0373762808851 -0.0494331456867 0.128 1.30935745039e-38
0.0381543254418 -0.0498193421374 0.129 1.30013788741e-38
0.0395389810089 -0.0509779314895 0.132 1.22638138352e-38
0.0409462431975 -0.0521365208415 0.135 1.14329741666e-38
0.0414548921813 -0.0521365208415 0.135 1.09719960173e-38
0.0416527001194 -0.0517503243908 0.134 1.08808793872e-38
0.042157581333 -0.0517503243908 0.134 1.18028356858e-38
0.0423440859604 -0.0513641279401 0.133 1.29091832442e-38
0.0422009106909 -0.0505917350388 0.131 1.31857701338e-38
0.0426944885937 -0.0505917350388 0.131 1.32768867638e-38
0.0431880664965 -0.0505917350388 0.131 1.32768867638e-38
0.0443485397337 -0.0513641279401 0.133 1.32779629611e-38
