VERSION .7
FIELDS x y z rgb
SIZE 4 4 4 4
TYPE F F F F
COUNT 1 1 1 1
WIDTH 836
HEIGHT 1
VIEWPOINT 0 0 0 1 0 0 0
POINTS 836
DATA ascii
-0.125299083566 -0.0363495634918 0.227 1.32768867638e-38
-0.124443799719 -0.0363495634918 0.227 1.1801756686e-38
-0.12249963027 -0.0360293030205 0.225 1.03266266082e-38
-0.121651881963 -0.0360293030205 0.225 1.22627348353e-38
-0.120267226396 -0.0358691727849 0.224 1.33690823937e-38
-0.119956385351 -0.0360293030205 0.225 1.33690823937e-38
-0.118049893604 -0.0357090425492 0.223 1.01422353485e-38
-0.117209680838 -0.0357090425492 0.223 6.73099704354e-39
-0.117934976611 -0.0361894332562 0.226 8.94369216026e-39
-0.117083460535 -0.0361894332562 0.226 1.26315173548e-38
-0.116746245097 -0.0363495634918 0.227 1.30924955041e-38
-0.11589096125 -0.0363495634918 0.227 1.28159058119e-38
-0.113515382107 -0.0358691727849 0.224 1.30002970716e-38
-0.112671401571 -0.0358691727849 0.224 1.3461275221e-38
-0.109830502802 -0.0352286518423 0.22 1.32768839612e-38
-0.110487978711 -0.0357090425492 0.223 1.30924927015e-38
-0.109156071928 -0.0355489123136 0.222 1.30924927015e-38
-0.107831700685 -0.035388782078 0.221 1.26315145522e-38
-0.1103881328 -0.0365096937275 0.228 8.11392868889e-39
-0.110009471889 -0.0366698239631 0.229 5.53245385531e-39
-0.106763537819 -0.0358691727849 0.224 1.04188222381e-38
-0.104500991783 -0.035388782078 0.221 1.33690823937e-38
-0.105075576746 -0.0358691727849 0.224 1.3184691134e-38
-0.103766276584 -0.0357090425492 0.223 1.16173654263e-38
-0.101541408251 -0.0352286518423 0.22 1.04188222381e-38
-0.100712498796 -0.0352286518423 0.22 1.22627348353e-38
-0.102153670917 -0.0360293030205 0.225 1.36456692833e-38
-0.100405425521 -0.0357090425492 0.223 1.32768839612e-38
-0.0986722512056 -0.035388782078 0.221 1.33690795911e-38
-0.099610425998 -0.0360293030205 0.225 1.33690795911e-38
-0.0987626776916 -0.0360293030205 0.225 1.24471232925e-38
-0.0957390420656 -0.0352286518423 0.22 1.26315145522e-38
-0.092753084142 -0.0344280006641 0.215 1.31846883314e-38
-0.0923706554616 -0.0345881308997 0.216 1.3461275221e-38
-0.0932523137002 -0.0352286518423 0.22 1.17095582536e-38
-0.0903228723304 -0.0344280006641 0.215 5.34806259559e-39
-0.0903454789519 -0.0347482611354 0.217 5.99343200463e-39
-0.0957164354441 -0.0371502146701 0.232 1.06954091277e-38
-0.0915718881685 -0.0358691727849 0.224 1.34612780236e-38
-0.0887027311227 -0.0350685216067 0.219 1.30002998742e-38
-0.0862725193111 -0.0344280006641 0.215 1.34612780236e-38
-0.0846674491844 -0.0341077401928 0.213 1.37378649132e-38
-0.0842586461122 -0.0342678704284 0.214 1.35534736534e-38
-0.0838423074996 -0.0344280006641 0.215 1.30924955041e-38
-0.0849632191491 -0.0352286518423 0.22 1.30924955041e-38
-0.0871937391374 -0.0365096937275 0.228 1.35534736534e-38
-0.0844413829694 -0.0357090425492 0.223 1.14329741666e-38
-0.081351811364 -0.0347482611354 0.217 6.54660578381e-39
-0.0809053305893 -0.034908391371 0.218 6.63880141367e-39
-0.0793492414758 -0.0345881308997 0.216 1.22627348353e-38
-0.0785354031017 -0.0345881308997 0.216 1.36456692833e-38
-0.0777215647276 -0.0345881308997 0.216 1.3830060543e-38
-0.0761956177761 -0.0342678704284 0.214 1.14329741666e-38
-0.0792644666452 -0.0360293030205 0.225 1.17095610562e-38
-0.0770226433461 -0.035388782078 0.221 1.36456692833e-38
-0.0737767092753 -0.0342678704284 0.214 1.33690823937e-38
-0.0719474568187 -0.0337874797215 0.211 1.33690823937e-38
-0.0714896727333 -0.0339476099571 0.212 1.33690823937e-38
-0.0720246961088 -0.0345881308997 0.216 1.24471260951e-38
-0.069892138147 -0.0339476099571 0.212 9.95892308857e-39
-0.0690933708539 -0.0339476099571 0.212 1.06964881275e-38
-0.0686167479172 -0.0341077401928 0.213 1.34612780236e-38
-0.0697244723709 -0.0350685216067 0.219 1.28159086145e-38
-0.0676408954224 -0.0344280006641 0.215 1.21705392055e-38
-0.0658983016815 -0.0339476099571 0.212 6.26930002811e-39
-0.068477340418 -0.0357090425492 0.223 6.36149565797e-39
-0.0661206001263 -0.034908391371 0.218 1.08790815213e-38
-0.0632024620672 -0.0337874797215 0.211 1.30002970716e-38
-0.0621116925797 -0.0336273494858 0.21 1.29081014418e-38
-0.0607364564383 -0.0333070890145 0.208 1.30924927015e-38
-0.0605292290745 -0.0336273494858 0.21 1.3461275221e-38
-0.0608758639376 -0.0342678704284 0.214 1.37378621106e-38
-0.0589467655693 -0.0336273494858 0.21 1.32768839612e-38
-0.0595401893837 -0.0344280006641 0.215 1.33690795911e-38
-0.0644665489863 -0.0377907356127 0.236 1.32768839612e-38
-0.0603446083322 -0.0358691727849 0.224 1.28159058119e-38
-0.0573756053748 -0.0345881308997 0.216 6.36221172149e-39
-0.0557761869035 -0.0341077401928 0.213 4.0573209749e-39
-0.0549736518401 -0.0341077401928 0.213 8.02173305903e-39
-0.0544254412687 -0.0342678704284 0.214 1.33690795911e-38
-0.0526169115484 -0.0336273494858 0.21 1.32768839612e-38
-0.051332101893 -0.0333070890145 0.208 1.33690795911e-38
-0.0515204904055 -0.0339476099571 0.212 1.19861451432e-38
-0.0533535106324 -0.0357090425492 0.223 1.27237129847e-38
-0.0515713553039 -0.0350685216067 0.219 1.33690823937e-38
-0.0500510600078 -0.0345881308997 0.216 1.30924927015e-38
-0.0490092715336 -0.0344280006641 0.215 1.31846883314e-38
-0.0493201125792 -0.0352286518423 0.22 1.31846883314e-38
-0.0471687157662 -0.0342678704284 0.214 1.30006544028e-38
-0.0467957065114 -0.0345881308997 0.216 1.08801549159e-38
-0.0451303520607 -0.0339476099571 0.212 1.06957636562e-38
-0.0441224735186 -0.0337874797215 0.211 1.32772384897e-38
-0.0441488479104 -0.0344280006641 0.215 1.34616325521e-38
-0.0433387773065 -0.0344280006641 0.215 1.24471232925e-38
-0.0425287067027 -0.0344280006641 0.215 6.54660578381e-39
-0.0426888369383 -0.0352286518423 0.22 4.79488881641e-39
-0.0450945582433 -0.0379508658483 0.237 8.29831994862e-39
-0.0414040272829 -0.0355489123136 0.222 1.34616325521e-38
-0.0391056874301 -0.0342678704284 0.214 1.30006516002e-38
-0.0379414464227 -0.0339476099571 0.212 1.32779629611e-38
-0.0367922764963 -0.0336273494858 0.21 1.34623542208e-38
-0.0363439118365 -0.0339476099571 0.212 1.39233323701e-38
-0.0352098129911 -0.0336273494858 0.21 1.36467454805e-38
-0.0345824792443 -0.0337874797215 0.211 1.30013760715e-38
-0.0337874797215 -0.0337874797215 0.211 1.31857673312e-38
-0.0365888169027 -0.0374704751414 0.234 1.35545498506e-38
-0.0350967798835 -0.0368299541988 0.23 1.10652678443e-38
-0.0325930965521 -0.0350685216067 0.219 4.70376938377e-39
-0.031042659094 -0.0342678704284 0.214 4.15059560459e-39
-0.0302363562604 -0.0342678704284 0.214 1.10652678443e-38
-0.0295675770409 -0.0344280006641 0.215 1.33701585909e-38
-0.0286237505932 -0.0342678704284 0.214 1.31857673312e-38
-0.027297495465 -0.0336273494858 0.21 1.1987224143e-38
-0.0266324840158 -0.0337874797215 0.211 1.06964853249e-38
-0.0260823895592 -0.0341077401928 0.213 1.21716154027e-38
-0.026229332599 -0.035388782078 0.221 1.30935703e-38
-0.0252817383809 -0.0352286518423 0.22 1.31857659299e-38
-0.0237859335915 -0.0342678704284 0.214 1.28169834104e-38
-0.0233017751143 -0.0347482611354 0.217 1.30935717013e-38
-0.0230022373794 -0.0355489123136 0.222 1.36467454805e-38
-0.0217664087372 -0.034908391371 0.218 1.16184416235e-38
-0.0203685659743 -0.0339476099571 0.212 1.2356009465e-38
-0.01947748831 -0.0337874797215 0.211 1.38311395428e-38
-0.0187710313881 -0.0339476099571 0.212 1.33690795911e-38
-0.0180570389256 -0.0341077401928 0.213 1.31846883314e-38
-0.0171734968018 -0.0339476099571 0.212 5.99342920203e-39
-0.0164519687989 -0.0341077401928 0.213 3.13536467627e-39
-0.0155024906957 -0.0337874797215 0.211 7.65295053957e-39
-0.0159621586663 -0.0366698239631 0.229 1.3461275221e-38
-0.0153630831965 -0.0373103449057 0.233 1.30924927015e-38
-0.0138013424276 -0.0355489123136 0.222 1.36456664807e-38
-0.0125560943598 -0.0344280006641 0.215 1.36467482831e-38
-0.0116913910873 -0.0342678704284 0.214 1.35545526532e-38
-0.0109359531521 -0.0344280006641 0.215 1.30013788741e-38
-0.0100787854201 -0.0342678704284 0.214 1.30935745039e-38
-0.00918582387075 -0.0339476099571 0.212 1.27247919845e-38
-0.0084661797529 -0.0342678704284 0.214 1.30935745039e-38
-0.00765987691929 -0.0342678704284 0.214 1.30013788741e-38
-0.00688560013281 -0.0344280006641 0.215 7.93061923158e-39
-0.00624507919023 -0.035388782078 0.221 5.80903794231e-39
-0.00528994943172 -0.0345881308997 0.216 8.57490683821e-39
-0.00445538832123 -0.0344280006641 0.215 1.36456664807e-38
-0.00379791241252 -0.0358691727849 0.224 1.32768839612e-38
-0.00303305505166 -0.0368299541988 0.23 1.31846883314e-38
-0.00209111248904 -0.0355489123136 0.222 7.74514616944e-39
-0.00123771252729 -0.0350685216067 0.219 8.11392868889e-39
-0.00040503530193 -0.0344280006641 0.215 1.18939495133e-38
0.00040503530193 -0.0344280006641 0.215 1.29091804416e-38
0.00120945425041 -0.0342678704284 0.214 1.31857673312e-38
0.0020063376584 -0.0341077401928 0.213 1.2632593552e-38
0.00282205991763 -0.0342678704284 0.214 1.28169848117e-38
0.00361140778512 -0.0341077401928 0.213 1.31857673312e-38
0.00464189294863 -0.0358691727849 0.224 1.25403979221e-38
0.00577975956429 -0.0377907356127 0.236 1.30013760715e-38
0.00644288712838 -0.0365096937275 0.228 1.32779629611e-38
0.00704573036846 -0.0352286518423 0.22 1.30013746702e-38
0.00783884600619 -0.0350685216067 0.219 1.17106358521e-38
0.00878267245395 -0.0355489123136 0.222 4.51937672274e-39
0.00948912937592 -0.0350685216067 0.219 2.8598553852e-39
0.0101729796764 -0.0345881308997 0.216 7.28524561864e-39
0.0110376829489 -0.0347482611354 0.217 1.30935703e-38
0.0116913910873 -0.0342678704284 0.214 1.26325921507e-38
0.0125560943598 -0.0344280006641 0.215 1.33701571896e-38
0.0133661649637 -0.0344280006641 0.215 1.34623528195e-38
0.0141762355676 -0.0344280006641 0.215 1.26325921507e-38
0.0149166024218 -0.0342678704284 0.214 1.32779615598e-38
0.0160902628548 -0.0350685216067 0.219 1.29091790403e-38
0.0180739938917 -0.0374704751414 0.234 1.27247877806e-38
0.018469609768 -0.0365096937275 0.228 1.26325921507e-38
0.0187352375707 -0.035388782078 0.221 1.33701571896e-38
0.0191252017916 -0.0345881308997 0.216 1.09730708132e-38
0.0198467297946 -0.0344280006641 0.215 8.48450767298e-39
0.0206568003984 -0.0344280006641 0.215 9.31426834175e-39
0.0214668710023 -0.0344280006641 0.215 1.26333110168e-38
0.0223805552881 -0.0345881308997 0.216 1.28169848117e-38
0.02308701221 -0.0344280006641 0.215 1.30013760715e-38
0.0241193812587 -0.0347482611354 0.217 6.54768198103e-39
0.0253966553736 -0.035388782078 0.221 4.70269318654e-39
0.0263480173618 -0.0355489123136 0.222 8.20612712135e-39
0.0269395572912 -0.0352286518423 0.22 1.28173393402e-38
0.0273898058361 -0.0347482611354 0.217 1.27251437104e-38
0.029117328496 -0.0358691727849 0.224 1.28173393402e-38
0.0302288207199 -0.0361894332562 0.226 1.26336669466e-38
0.0303927187258 -0.035388782078 0.221 1.27258625765e-38
0.0309428131823 -0.0350685216067 0.219 1.27265828439e-38
0.0317679548672 -0.0350685216067 0.219 1.2634387214e-38
0.0322954427023 -0.0347482611354 0.217 1.2634387214e-38
0.0328078594564 -0.0344280006641 0.215 1.30024494661e-38
0.0336179300602 -0.0344280006641 0.215 1.30024494661e-38
0.0344280006641 -0.0344280006641 0.215 1.06050085611e-38
0.0358936632915 -0.0350685216067 0.219 4.8888795096e-39
0.0378924654094 -0.0361894332562 0.226 4.33570573042e-39
0.0408011840428 -0.0381109960839 0.238 1.0051834782e-38
0.0399459001959 -0.0365096937275 0.228 1.3094645096e-38
0.0399101063786 -0.0357090425492 0.223 1.29102538362e-38
0.0405675822873 -0.0355489123136 0.222 1.22638110326e-38
0.0421500457925 -0.0361894332562 0.226 9.86672465611e-39
0.0428112894715 -0.0360293030205 0.225 9.77452902625e-39
0.0428828771062 -0.035388782078 0.221 1.2632593552e-38
0.042924322579 -0.0347482611354 0.217 1.30013760715e-38
0.0441450801401 -0.0350685216067 0.219 1.29091804416e-38
0.044970221825 -0.0350685216067 0.219 1.30935717013e-38
0.045586252261 -0.034908391371 0.218 1.29091804416e-38
0.0461947471564 -0.0347482611354 0.217 1.32768895664e-38
0.0470123533008 -0.0347482611354 0.217 1.19861507483e-38
0.0478299594451 -0.0347482611354 0.217 1.30002998742e-38
0.0542521238372 -0.0387515170265 0.242 1.33690823937e-38
0.0535682735367 -0.037630605377 0.235 1.31846883314e-38
0.0521365208415 -0.0360293030205 0.225 1.29081014418e-38
0.0520423265852 -0.035388782078 0.221 6.91574283178e-39
0.054310524276 -0.0363495634918 0.227 3.68889578656e-39
0.0554088293041 -0.0365096937275 0.228 4.98035627336e-39
0.0550339361641 -0.0357090425492 0.223 1.17106372534e-38
0.0546213653217 -0.034908391371 0.218 1.2632593552e-38
0.0554427392363 -0.034908391371 0.218 1.30013760715e-38
0.0565222054131 -0.0350685216067 0.219 1.30013760715e-38
0.0620608276813 -0.0379508658483 0.237 1.27247891819e-38
-0.136511967831 -0.0364324544373 0.233 1.06954091277e-38
-0.132141354341 -0.035494279645 0.227 1.28159086145e-38
-0.131864423227 -0.0356506421104 0.228 1.3184691134e-38
-0.130430786647 -0.035494279645 0.227 1.30924955041e-38
-0.128433868414 -0.0351815547142 0.225 1.36456692833e-38
-0.127586120108 -0.0351815547142 0.225 1.29081042444e-38
-0.127864935107 -0.035494279645 0.227 1.30002998742e-38
-0.128128679024 -0.0358070045758 0.229 1.33690823937e-38
-0.127265859637 -0.0358070045758 0.229 1.30002998742e-38
-0.125851061908 -0.0356506421104 0.228 1.25393217249e-38
-0.123895589148 -0.0353379171796 0.226 7.92954023176e-39
-0.121955187469 -0.0350251922488 0.224 6.54660578381e-39
-0.121111206933 -0.0350251922488 0.224 9.86564845889e-39
-0.120804133657 -0.0351815547142 0.225 1.3184691134e-38
-0.11942324586 -0.0350251922488 0.224 1.3184691134e-38
-0.118049893604 -0.0348688297834 0.223 1.30924955041e-38
-0.119837700588 -0.0356506421104 0.228 1.22627348353e-38
-0.11950048515 -0.0358070045758 0.229 1.30002998742e-38
-0.116565392125 -0.0351815547142 0.225 1.3184691134e-38
-0.113146140623 -0.0343997423872 0.22 1.30002998742e-38
-0.113848829775 -0.0348688297834 0.223 1.30002970716e-38
-0.11250185191 -0.034712467318 0.222 1.26315145522e-38
-0.112671401571 -0.0350251922488 0.224 1.06954063251e-38
-0.112825880152 -0.0353379171796 0.226 1.05110150653e-38
-0.114947134803 -0.0362760919719 0.232 1.35534708508e-38
-0.111122847998 -0.0353379171796 0.226 1.31846883314e-38
-0.107831700685 -0.0345561048526 0.221 1.2078340773e-38
-0.1103881328 -0.0356506421104 0.228 6.8231898708e-39
-0.106646736941 -0.034712467318 0.222 7.00758113053e-39
-0.105810291945 -0.034712467318 0.222 1.12485801042e-38
-0.10355528145 -0.0342433799218 0.219 1.30924927015e-38
-0.105075576746 -0.0350251922488 0.224 1.31846883314e-38
-0.103300956958 -0.034712467318 0.222 1.27237101821e-38
-0.10061830454 -0.0340870174564 0.218 1.32768839612e-38
-0.100254714711 -0.0342433799218 0.219 1.35534708508e-38
-0.103969736178 -0.0358070045758 0.229 1.29081014418e-38
-0.100855674066 -0.0350251922488 0.224 1.30924927015e-38
-0.0977792896562 -0.0342433799218 0.219 1.3461275221e-38
-0.0965114349669 -0.0340870174564 0.218 1.07876019549e-38
-0.0965679515207 -0.0343997423872 0.22 6.36221172149e-39
-0.0953038646016 -0.0342433799218 0.219 6.54660298121e-39
-0.092753084142 -0.0336179300602 0.215 1.31846883314e-38
-0.0975023585428 -0.0356506421104 0.228 1.30924927015e-38
-0.0991865518448 -0.0365888169027 0.234 1.33690795911e-38
-0.0924234042451 -0.0343997423872 0.22 1.09719960173e-38
-0.0903454789519 -0.033930654991 0.217 1.18939523159e-38
-0.0903530144925 -0.0342433799218 0.219 1.3184691134e-38
-0.088301463591 -0.0337742925256 0.216 1.36456692833e-38
-0.0874876252169 -0.0337742925256 0.216 1.33690823937e-38
-0.0862725193111 -0.0336179300602 0.215 1.37378649132e-38
-0.0902324458444 -0.035494279645 0.227 1.24471260951e-38
-0.0893771619976 -0.035494279645 0.227 1.14329741666e-38
-0.0861820928251 -0.0345561048526 0.221 1.27237129847e-38
-0.0849632191491 -0.0343997423872 0.22 1.32768867638e-38
-0.0829870236527 -0.033930654991 0.217 1.36456692833e-38
-0.0817907565982 -0.0337742925256 0.216 1.00500397186e-38
-0.0802271319442 -0.0334615675948 0.214 6.27001889422e-39
-0.0797919544803 -0.0336179300602 0.215 7.37636645258e-39
-0.0815533870724 -0.034712467318 0.222 1.27237129847e-38
-0.0799897624184 -0.0343997423872 0.22 1.36456692833e-38
-0.0780813867865 -0.033930654991 0.217 1.33690823937e-38
-0.0769077263535 -0.0337742925256 0.216 1.36456692833e-38
-0.0782076070899 -0.034712467318 0.222 1.40144518027e-38
-0.0752800496053 -0.0337742925256 0.216 1.33690823937e-38
-0.0737767092753 -0.0334615675948 0.214 1.32768867638e-38
-0.071606473611 -0.0328361177332 0.21 1.3184691134e-38
-0.0708152418584 -0.0328361177332 0.21 1.34612780236e-38
-0.0710243531073 -0.0333052051294 0.213 8.75930090053e-39
-0.0692327783532 -0.0328361177332 0.21 5.25514809961e-39
-0.0690933708539 -0.033148842664 0.212 6.63808254756e-39
-0.0750596350456 -0.0364324544373 0.233 1.30924955041e-38
-0.0732266148187 -0.0359633670412 0.23 1.30924955041e-38
-0.0685847218701 -0.0340870174564 0.218 1.3830060543e-38
-0.0658983016815 -0.033148842664 0.212 1.22627348353e-38
-0.0644853878375 -0.0328361177332 0.21 1.30924955041e-38
-0.0639974615901 -0.0329924801986 0.211 1.35534736534e-38
-0.0626033865974 -0.0326797552678 0.209 1.32768839612e-38
-0.0621116925797 -0.0328361177332 0.21 1.31846883314e-38
-0.0610284586327 -0.0326797552678 0.209 1.37378621106e-38
-0.0654292142853 -0.035494279645 0.227 1.2078340773e-38
-0.0648583970923 -0.0356506421104 0.228 8.94368935766e-39
-0.0606309588713 -0.0337742925256 0.216 9.31247187711e-39
-0.0589863271569 -0.0333052051294 0.213 1.31846883314e-38
-0.0581837920936 -0.0333052051294 0.213 1.33690795911e-38
-0.0568424658844 -0.0329924801986 0.211 1.33690795911e-38
-0.0557818385589 -0.0328361177332 0.21 7.00758113053e-39
-0.0552524668387 -0.0329924801986 0.211 4.79488601381e-39
-0.0549736518401 -0.0333052051294 0.213 1.03266238056e-38
-0.056460037204 -0.034712467318 0.222 1.30924927015e-38
-0.0536191384351 -0.0334615675948 0.214 1.30924927015e-38
-0.0523192576986 -0.033148842664 0.212 1.29081014418e-38
-0.053707681036 -0.0345561048526 0.221 1.35534708508e-38
-0.054310524276 -0.035494279645 0.227 1.32772412923e-38
-0.0518068409446 -0.0343997423872 0.22 1.34616325521e-38
-0.0500510600078 -0.0337742925256 0.216 1.33690795911e-38
-0.0476415709326 -0.0326797552678 0.209 1.31846883314e-38
-0.0468541069503 -0.0326797552678 0.209 1.30002970716e-38
-0.0462870575276 -0.0328361177332 0.21 9.12808061739e-39
-0.0461457661432 -0.0333052051294 0.213 4.42610349436e-39
-0.0447045940223 -0.0328361177332 0.21 4.88708164367e-39
-0.0470500310033 -0.0351815547142 0.225 1.27240647106e-38
-0.0482557174835 -0.0367451793681 0.235 1.30006544028e-38
-0.0451529586822 -0.0350251922488 0.224 1.3461275221e-38
-0.0433199384553 -0.0342433799218 0.219 1.24471260951e-38
-0.041330555763 -0.0333052051294 0.213 1.18939523159e-38
-0.0401474759044 -0.0329924801986 0.211 1.29081014418e-38
-0.0391659717541 -0.0328361177332 0.21 1.34616325521e-38
-0.0380092662872 -0.0325233928024 0.208 1.30006516002e-38
-0.037404539162 -0.0326797552678 0.209 1.29091804416e-38
-0.0367922764963 -0.0328361177332 0.21 1.33701585909e-38
-0.0392582821252 -0.0358070045758 0.229 1.13418547339e-38
-0.0375571338571 -0.0350251922488 0.224 1.04198984353e-38
-0.0352380712679 -0.0336179300602 0.215 1.24482022923e-38
-0.0336273494858 -0.0328361177332 0.21 1.32779629611e-38
-0.0328361177332 -0.0328361177332 0.21 1.34623542208e-38
-0.0318922912855 -0.0326797552678 0.209 1.03277028054e-38
-0.0311048273031 -0.0326797552678 0.209 3.59742182541e-39
-0.0306074816301 -0.0329924801986 0.211 3.874008715e-39
-0.0299537734916 -0.033148842664 0.212 1.09730722145e-38
-0.0292925298126 -0.0333052051294 0.213 1.33701585909e-38
-0.0286237505932 -0.0334615675948 0.214 1.30013760715e-38
-0.0271675073913 -0.0326797552678 0.209 1.33701585909e-38
-0.026380043409 -0.0326797552678 0.209 1.36467454805e-38
-0.02767427249 -0.0353379171796 0.226 1.28169848117e-38
-0.0274161802279 -0.0361197295066 0.231 1.36467440792e-38
-0.0253966553736 -0.0345561048526 0.221 1.29091790403e-38
-0.0237859335915 -0.0334615675948 0.214 1.29091790403e-38
-0.0229796307579 -0.0334615675948 0.214 1.30013760715e-38
-0.0217588731967 -0.0328361177332 0.21 8.94476835748e-39
-0.0211673332674 -0.033148842664 0.212 4.24279123445e-39
-0.0202724878329 -0.0329924801986 0.211 4.79596781623e-39
-0.0192928675678 -0.0326797552678 0.209 1.25404007247e-38
-0.0186824887872 -0.0329924801986 0.211 1.3461275221e-38
-0.019837310369 -0.0365888169027 0.234 1.36456664807e-38
-0.0189556521303 -0.0365888169027 0.234 1.1432971364e-38
-0.01706988312 -0.0345561048526 0.221 1.06954063251e-38
-0.0156494337355 -0.0333052051294 0.213 1.22627320327e-38
-0.0149166024218 -0.0334615675948 0.214 1.37378621106e-38
-0.0140443636088 -0.0333052051294 0.213 1.31846883314e-38
-0.0131796603363 -0.033148842664 0.212 1.31846883314e-38
-0.0123808930432 -0.033148842664 0.212 1.33701613935e-38
-0.0116367584187 -0.0333052051294 0.213 1.27247919845e-38
-0.010783358457 -0.033148842664 0.212 1.20794225754e-38
-0.0101258825483 -0.0336179300602 0.215 1.30013788741e-38
-0.0093158119444 -0.0336179300602 0.215 1.28169876143e-38
-0.00842661816527 -0.0333052051294 0.213 1.30013788741e-38
-0.00765987691929 -0.0334615675948 0.214 1.20794225754e-38
-0.0075261210754 -0.0367451793681 0.235 4.88816344609e-39
-0.00655592023589 -0.0362760919719 0.232 3.87292971518e-39
-0.00538791145823 -0.0343997423872 0.22 6.45440735135e-39
-0.00449683379399 -0.033930654991 0.217 1.3461275221e-38
-0.0036622726835 -0.0337742925256 0.216 1.29081014418e-38
-0.00283524711351 -0.0336179300602 0.215 1.32768839612e-38
-0.00201575708402 -0.0334615675948 0.214 1.35534708508e-38
-0.00120380259504 -0.0333052051294 0.213 1.33690795911e-38
-0.000403151416805 -0.0334615675948 0.214 1.27237101821e-38
0.000403151416805 -0.0334615675948 0.214 1.29091804416e-38
0.00126597080417 -0.0350251922488 0.224 1.29091804416e-38
0.00214762904279 -0.0356506421104 0.228 1.28169848117e-38
0.0029011830929 -0.0343997423872 0.22 1.28169848117e-38
0.0036622726835 -0.0337742925256 0.216 8.20720331857e-39
0.00453827926674 -0.0342433799218 0.219 5.44133442267e-39
0.00546138297812 -0.0348688297834 0.223 7.56183390953e-39
0.00616030435959 -0.0340870174564 0.218 1.29091804416e-38
0.00691762617994 -0.0337742925256 0.216 1.29091790403e-38
0.00776725837143 -0.033930654991 0.217 1.27247877806e-38
0.00850574134054 -0.0336179300602 0.215 8.02281065755e-39
0.00927248258651 -0.0334615675948 0.214 7.10085435891e-39
0.0100787854201 -0.0334615675948 0.214 1.12496577028e-38
0.0109359531521 -0.0336179300602 0.215 1.30935703e-38
0.011746023756 -0.0336179300602 0.215 1.27247877806e-38
0.0132568996264 -0.035494279645 0.227 1.29091790403e-38
0.0147338655646 -0.0370579042989 0.237 1.27247877806e-38
0.0150334032996 -0.0356506421104 0.228 1.32779615598e-38
0.01526512117 -0.0342433799218 0.219 1.29091790403e-38
0.015943319815 -0.033930654991 0.217 1.32779615598e-38
0.0169154045397 -0.0342433799218 0.219 1.31857659299e-38
0.0174975250434 -0.0337742925256 0.216 1.30013746702e-38
0.0183113634175 -0.0337742925256 0.216 1.30935703e-38
0.0189481165898 -0.0334615675948 0.214 6.73207183946e-39
0.0195697986812 -0.033148842664 0.212 3.32083493582e-39
0.0204646441157 -0.0333052051294 0.213 4.33498686431e-39
0.0217664087372 -0.0340870174564 0.218 1.17106372534e-38
0.0227950100156 -0.0343997423872 0.22 1.27247891819e-38
0.0231943936622 -0.0337742925256 0.216 1.35545498506e-38
0.0241193812587 -0.033930654991 0.217 1.23560066624e-38
0.0271204102632 -0.0369015418335 0.236 1.20801372376e-38
0.0275348649908 -0.0362760919719 0.232 1.24489197571e-38
0.0273069148906 -0.0348688297834 0.223 1.27255066467e-38
0.0272635855327 -0.0337742925256 0.216 1.27255066467e-38
0.0283374000541 -0.0340870174564 0.218 1.26333110168e-38
0.0288912622809 -0.0337742925256 0.216 1.27255066467e-38
0.0294300534268 -0.0334615675948 0.214 1.28177022766e-38
0.0303776476448 -0.0336179300602 0.215 1.01440290105e-38
0.0313327774033 -0.0337742925256 0.216 9.6830508612e-39
0.0321466157774 -0.0337742925256 0.216 1.18957459779e-38
0.0338760223224 -0.034712467318 0.222 1.30024494661e-38
0.0350251922488 -0.0350251922488 0.224 1.31868407258e-38
0.0352286518423 -0.0343997423872 0.22 1.05128129313e-38
0.0357297652856 -0.0340870174564 0.218 4.05911884083e-39
0.037389468081 -0.0348688297834 0.223 3.22935817206e-39
0.0401154498572 -0.0365888169027 0.234 1.01440304118e-38
0.039420296246 -0.0351815547142 0.225 1.33712319855e-38
0.039194230031 -0.0342433799218 0.219 1.27258625765e-38
0.0400193717158 -0.0342433799218 0.219 1.28169848117e-38
0.0408445134007 -0.0342433799218 0.219 1.28169848117e-38
0.0412891102903 -0.033930654991 0.217 1.34623542208e-38
0.0421067164346 -0.033930654991 0.217 1.29091804416e-38
0.0425287067027 -0.0336179300602 0.215 1.30935717013e-38
0.0437419287233 -0.033930654991 0.217 1.28169848117e-38
0.044970221825 -0.0342433799218 0.219 1.2632593552e-38
0.0493502547412 -0.0369015418335 0.236 1.25403979221e-38
0.0493879324437 -0.0362760919719 0.232 8.75930370313e-39
0.0485288808266 -0.0350251922488 0.224 5.44026102805e-39
0.0484912031241 -0.0343997423872 0.22 5.71684511504e-39
0.0520103005381 -0.0362760919719 0.232 1.17095610562e-38
0.0519726228356 -0.0356506421104 0.228 1.31846883314e-38
0.0512096493599 -0.0345561048526 0.221 1.35534708508e-38
0.0508648983819 -0.0337742925256 0.216 1.0787959286e-38
0.0528750038106 -0.0345561048526 0.221 9.31282920822e-39
0.0532216386736 -0.0342433799218 0.219 9.77452902625e-39
0.0547871472127 -0.034712467318 0.222 1.25403979221e-38
0.0543708086 -0.033930654991 0.217 1.25403979221e-38
0.0549340902525 -0.0337742925256 0.216 1.28169848117e-38
0.0560060208888 -0.033930654991 0.217 1.24482022923e-38
0.0578710671628 -0.0345561048526 0.221 1.27247891819e-38
0.0677350896786 -0.0398724286761 0.255 1.2632593552e-38
-0.138269632653 -0.0360123480544 0.236 1.27237129847e-38
-0.131559233837 -0.034486401103 0.226 1.30924955041e-38
-0.131864423227 -0.0347915904932 0.228 1.3184691134e-38
-0.129856201684 -0.034486401103 0.226 1.3184691134e-38
-0.128433868414 -0.0343338064078 0.225 1.20783435756e-38
-0.128720218953 -0.0346389957981 0.227 8.11393149149e-39
-0.128991498411 -0.0349441851884 0.229 8.39051838108e-39
-0.127569165142 -0.0347915904932 0.228 1.19861479457e-38
-0.125042875189 -0.0343338064078 0.225 1.30002998742e-38
-0.124747105224 -0.034486401103 0.226 1.29081042444e-38
-0.123347378576 -0.0343338064078 0.225 9.68125719916e-39
-0.121410744667 -0.0340286170175 0.223 9.31247467971e-39
-0.123273907056 -0.0347915904932 0.228 1.21705392055e-38
-0.122414855439 -0.0347915904932 0.228 1.35534736534e-38
-0.118356966879 -0.0338760223224 0.222 1.29081042444e-38
-0.116461778443 -0.0335708329321 0.22 1.32768867638e-38
-0.116158472938 -0.0337234276272 0.221 1.33690823937e-38
-0.117413140432 -0.0343338064078 0.225 1.28159086145e-38
-0.115529255306 -0.0340286170175 0.223 1.30924955041e-38
-0.113660441262 -0.0337234276272 0.221 1.30002998742e-38
-0.116912026988 -0.0349441851884 0.229 1.35534708508e-38
-0.114022147206 -0.0343338064078 0.225 9.40466750698e-39
-0.114180393557 -0.0346389957981 0.227 6.8231898708e-39
-0.112326650593 -0.0343338064078 0.225 7.28416802012e-39
-0.112469825863 -0.0346389957981 0.227 1.29081014418e-38
-0.109156071928 -0.0338760223224 0.222 1.30002970716e-38
-0.10685584819 -0.0334182382369 0.219 1.30924927015e-38
-0.106999023459 -0.0337234276272 0.221 1.26315145522e-38
-0.105685955527 -0.0335708329321 0.22 1.30006544028e-38
-0.105333669008 -0.0337234276272 0.221 1.33694369222e-38
-0.104028136617 -0.0335708329321 0.22 1.30928500326e-38
-0.107890101123 -0.0350967798835 0.23 1.30006544028e-38
-0.105627555088 -0.0346389957981 0.227 1.38304150715e-38
-0.102002960107 -0.0337234276272 0.221 1.2170893734e-38
-0.0993391465399 -0.0331130488466 0.217 1.02347855069e-38
-0.0998835893411 -0.0335708329321 0.22 1.24474806236e-38
-0.099054679886 -0.0335708329321 0.22 1.3461275221e-38
-0.0973328088815 -0.0332656435418 0.218 1.3461275221e-38
-0.0973968609758 -0.0335708329321 0.22 9.95784128616e-39
-0.102713184799 -0.0357071586641 0.234 6.17782046176e-39
-0.0987852843131 -0.0346389957981 0.227 8.94368935766e-39
-0.0944787229168 -0.0334182382369 0.219 1.30924927015e-38
-0.0936535812319 -0.0334182382369 0.219 1.27237101821e-38
-0.092828439547 -0.0334182382369 0.219 1.3461275221e-38
-0.0894826595646 -0.0325026700661 0.213 1.34612780236e-38
-0.0899291403393 -0.0329604541515 0.216 1.3830060543e-38
-0.0907655853349 -0.0335708329321 0.22 1.32768867638e-38
-0.0915718881685 -0.0341812117127 0.224 1.30002998742e-38
-0.0887027311227 -0.0334182382369 0.219 1.29081042444e-38
-0.0874763219062 -0.0332656435418 0.218 1.30924955041e-38
-0.0878474472759 -0.0337234276272 0.221 8.48271401094e-39
-0.0862273060681 -0.0334182382369 0.219 5.34806259559e-39
-0.0842322717205 -0.0329604541515 0.216 9.5890615693e-39
-0.0834184333464 -0.0329604541515 0.216 1.35534736534e-38
-0.0826045949723 -0.0329604541515 0.216 1.30002998742e-38
-0.0817907565982 -0.0329604541515 0.216 1.32768867638e-38
-0.0806020250841 -0.0328078594564 0.215 1.29081042444e-38
-0.0809053305893 -0.0332656435418 0.218 1.24471260951e-38
-0.0830228174701 -0.034486401103 0.226 1.37378649132e-38
-0.0810805319059 -0.0340286170175 0.223 1.33690823937e-38
-0.0777215647276 -0.0329604541515 0.216 1.30924955041e-38
-0.0758395634875 -0.0325026700661 0.213 1.34612780236e-38
-0.0743324553873 -0.0321974806758 0.211 1.06954091277e-38
-0.0742344933608 -0.0325026700661 0.213 9.86564845889e-39
-0.0734319582974 -0.0325026700661 0.213 1.23549304652e-38
-0.0722884400264 -0.0323500753709 0.212 1.32768867638e-38
-0.0758734734197 -0.0343338064078 0.225 1.3184691134e-38
-0.0780267541179 -0.0357071586641 0.234 9.86564845889e-39
-0.0725295773224 -0.0335708329321 0.22 7.55967871249e-39
-0.0697451951073 -0.0326552647612 0.214 1.01411563487e-38
-0.0692610366301 -0.0328078594564 0.215 1.31839722679e-38
-0.06813258944 -0.0326552647612 0.214 1.31839722679e-38
-0.0666970689746 -0.0323500753709 0.212 1.29081042444e-38
-0.0646549374988 -0.0317396965903 0.208 1.30935745039e-38
-0.0644853878375 -0.0320448859806 0.21 1.30935745039e-38
-0.0673338221469 -0.0338760223224 0.222 1.27247919845e-38
-0.0649996884767 -0.0331130488466 0.217 1.30924927015e-38
-0.0624074625444 -0.0321974806758 0.211 1.30002970716e-38
-0.0613204608271 -0.0320448859806 0.21 1.32768839612e-38
-0.0616821667712 -0.0326552647612 0.214 8.57490683821e-39
-0.0614447972454 -0.0329604541515 0.216 4.97927727354e-39
-0.0586660666856 -0.0318922912855 0.209 5.53245105272e-39
-0.0578786027033 -0.0318922912855 0.209 1.23549276626e-38
-0.0579106287504 -0.0323500753709 0.212 1.30924927015e-38
-0.0568424658844 -0.0321974806758 0.211 1.32768839612e-38
-0.0557818385589 -0.0320448859806 0.21 1.36456664807e-38
-0.0547287467738 -0.0318922912855 0.209 1.41988402599e-38
-0.0585869435104 -0.0346389957981 0.227 1.35534708508e-38
-0.0600205800907 -0.0360123480544 0.236 1.29081014418e-38
-0.0546213653217 -0.0332656435418 0.218 1.3461275221e-38
-0.0523192576986 -0.0323500753709 0.212 1.3461275221e-38
-0.0512774692244 -0.0321974806758 0.211 1.29081014418e-38
-0.0500039628797 -0.0318922912855 0.209 9.77380455494e-39
-0.05015844146 -0.0325026700661 0.213 8.75965262645e-39
-0.0498193421374 -0.0328078594564 0.215 1.20786981041e-38
-0.0478695210328 -0.0320448859806 0.21 1.32772412923e-38
-0.0490959302493 -0.0334182382369 0.219 1.37378621106e-38
-0.05113617784 -0.0354019692738 0.232 9.68125719916e-39
-0.0474456468796 -0.0334182382369 0.219 5.071475706e-39
-0.0453432310798 -0.0325026700661 0.213 8.11393149149e-39
-0.0441224735186 -0.0321974806758 0.211 1.33694341196e-38
-0.0435328174744 -0.0323500753709 0.212 1.32772412923e-38
-0.0427340501813 -0.0323500753709 0.212 1.30002970716e-38
-0.0419352828882 -0.0323500753709 0.212 1.32768867638e-38
-0.0407484352593 -0.0320448859806 0.21 1.34612780236e-38
-0.039766931109 -0.0318922912855 0.209 1.3461275221e-38
-0.0408445134007 -0.0334182382369 0.219 1.31850456625e-38
-0.0394711611444 -0.0329604541515 0.216 1.33694341196e-38
-0.0381204155096 -0.0325026700661 0.213 1.30935717013e-38
-0.0373178804462 -0.0325026700661 0.213 1.25403979221e-38
-0.0397725827644 -0.0354019692738 0.232 6.27109509144e-39
-0.0368864707525 -0.0335708329321 0.22 3.32083493582e-39
-0.0349102752561 -0.0325026700661 0.213 8.76037709775e-39
-0.0336273494858 -0.0320448859806 0.21 1.33701585909e-38
-0.032367030337 -0.0315871018952 0.207 1.27247891819e-38
-0.0315871018952 -0.0315871018952 0.207 1.34623542208e-38
-0.0308071734533 -0.0315871018952 0.207 1.18950285131e-38
-0.0303173633208 -0.0318922912855 0.209 1.25403979221e-38
-0.0298124821072 -0.0321974806758 0.211 1.38311367402e-38
-0.0323180493238 -0.0358597533593 0.235 1.27247891819e-38
-0.0317001350027 -0.0361649427496 0.237 1.32779629611e-38
-0.0283374000541 -0.0332656435418 0.218 1.33701585909e-38
-0.0271373652293 -0.0328078594564 0.215 1.36467454805e-38
-0.0258374844929 -0.0321974806758 0.211 1.11574634742e-38
-0.0249238002071 -0.0320448859806 0.21 1.01433101444e-38
-0.0242474854472 -0.0321974806758 0.211 1.2448200891e-38
-0.0233413367019 -0.0320448859806 0.21 1.36467440792e-38
-0.0226574864015 -0.0321974806758 0.211 1.32779629611e-38
-0.0219661005605 -0.0323500753709 0.212 8.48379020816e-39
-0.0222656382954 -0.0340286170175 0.223 3.78181308513e-39
-0.0208489566812 -0.0331130488466 0.217 4.70377218636e-39
-0.0196621090523 -0.0325026700661 0.213 1.2356009465e-38
-0.0189481165898 -0.0326552647612 0.214 1.32768839612e-38
-0.018904787232 -0.0340286170175 0.223 1.35534708508e-38
-0.0178215532849 -0.0335708329321 0.22 1.3461275221e-38
-0.016529208089 -0.0326552647612 0.214 1.40144490001e-38
-0.015355547656 -0.0318922912855 0.209 1.32768839612e-38
-0.0147074911729 -0.0321974806758 0.211 1.30924927015e-38
-0.0138465556706 -0.0320448859806 0.21 1.30924927015e-38
-0.013055323918 -0.0320448859806 0.21 1.33690795911e-38
-0.0123224926043 -0.0321974806758 0.211 1.28169876143e-38
-0.0116913910873 -0.0326552647612 0.214 9.03696678994e-39
-0.0110376829489 -0.0331130488466 0.217 3.96620714746e-39
-0.0112562136234 -0.0364701321398 0.239 5.25694596554e-39
-0.0100090816705 -0.0352493745787 0.231 1.27247919845e-38
-0.00862442610343 -0.0332656435418 0.218 1.30013788741e-38
-0.00773146455405 -0.0329604541515 0.216 1.33701613935e-38
-0.00688560013281 -0.0328078594564 0.215 1.01433143483e-38
-0.00610378780583 -0.0329604541515 0.216 9.03588498752e-39
-0.00524096841846 -0.0326552647612 0.214 1.1432971364e-38
-0.00443466558485 -0.0326552647612 0.214 1.33690795911e-38
-0.00362836275124 -0.0326552647612 0.214 1.3461275221e-38
-0.00282205991763 -0.0326552647612 0.214 1.3461275221e-38
-0.0020440153609 -0.0331130488466 0.217 1.32768839612e-38
-0.00122640921654 -0.0331130488466 0.217 1.30002970716e-38
-0.00040503530193 -0.0328078594564 0.215 1.22627320327e-38
0.000406919187056 -0.0329604541515 0.216 1.18950285131e-38
0.00132813901331 -0.0358597533593 0.235 1.30935717013e-38
0.00217588731967 -0.0352493745787 0.231 1.29091804416e-38
0.00291437028877 -0.0337234276272 0.221 1.21716154027e-38
0.00367922764963 -0.0331130488466 0.217 5.53353005254e-39
0.00453827926674 -0.0334182382369 0.219 2.58326989691e-39
0.00524096841846 -0.0326552647612 0.214 5.16474753308e-39
0.00604727125207 -0.0326552647612 0.214 1.24482022923e-38
0.0067574959443 -0.0321974806758 0.211 1.23560052611e-38
0.00762408310192 -0.0325026700661 0.213 1.27247877806e-38
0.00850574134054 -0.0328078594564 0.215 1.27247877806e-38
0.00979243488109 -0.034486401103 0.226 1.30935703e-38
0.0109265337265 -0.0354019692738 0.232 1.28169834104e-38
0.0112920074408 -0.0338760223224 0.222 1.25403965208e-38
0.0119099217619 -0.0332656435418 0.218 1.29091790403e-38
0.0126728952376 -0.0331130488466 0.217 1.30013746702e-38
0.0136770060094 -0.0335708329321 0.22 1.30013746702e-38
0.0144399794851 -0.0334182382369 0.219 1.11574620729e-38
0.0149166024218 -0.0326552647612 0.214 6.36328932001e-39
0.0157963767753 -0.0328078594564 0.215 7.19304998878e-39
0.0166836866693 -0.0329604541515 0.216 1.21716140014e-38
0.0172545038622 -0.0325026700661 0.213 1.29091790403e-38
0.0180570389256 -0.0325026700661 0.213 1.30013746702e-38
0.0188595739889 -0.0325026700661 0.213 9.59013636522e-39
0.0197544194234 -0.0326552647612 0.214 6.8231926734e-39
0.0209450348226 -0.0332656435418 0.218 7.8373446019e-39
0.0238631728816 -0.0364701321398 0.239 1.25393217249e-38
0.0240383741983 -0.0354019692738 0.232 1.25403979221e-38
0.0236239194707 -0.0335708329321 0.22 1.20801372376e-38
0.0242305304811 -0.0332656435418 0.218 1.28177022766e-38
0.0247071534177 -0.0328078594564 0.215 1.27265828439e-38
0.0255172240216 -0.0328078594564 0.215 1.21734090647e-38
0.0263272946255 -0.0328078594564 0.215 1.18049908829e-38
0.0268849246225 -0.0325026700661 0.213 1.24500001582e-38
0.0280774239068 -0.0329604541515 0.216 1.24500001582e-38
0.0288912622809 -0.0329604541515 0.216 1.2725508048e-38
0.0298426242692 -0.0331130488466 0.217 1.18957473792e-38
0.0309428131823 -0.0334182382369 0.219 4.15059560459e-39
0.0316228957126 -0.0332656435418 0.218 3.04424804623e-39
0.0322954427023 -0.0331130488466 0.217 7.37636364998e-39
0.0349441851884 -0.0349441851884 0.229 1.29102538362e-38
0.0365888169027 -0.0357071586641 0.234 1.29102538362e-38
0.0358691727849 -0.0341812117127 0.224 1.30942905674e-38
0.0360575612974 -0.0335708329321 0.22 1.16191604896e-38
0.0367188049764 -0.0334182382369 0.219 1.08815954507e-38
0.0375439466612 -0.0334182382369 0.219 1.2725508048e-38
0.0378434843962 -0.0329604541515 0.216 1.3094645096e-38
0.0386573227703 -0.0329604541515 0.216 1.28180582064e-38
0.0398366348587 -0.0332656435418 0.218 1.30013760715e-38
0.0402849995185 -0.0329604541515 0.216 1.30935717013e-38
0.0416696550856 -0.0334182382369 0.219 1.29091804416e-38
0.0444351984494 -0.0349441851884 0.229 1.03277028054e-38
0.044308978146 -0.0341812117127 0.224 1.10652678443e-38
0.0443466558485 -0.0335708329321 0.22 1.2632593552e-38
0.0451755653037 -0.0335708329321 0.22 1.30013760715e-38
0.0480955872478 -0.0350967798835 0.23 1.29091804416e-38
0.048323537348 -0.0346389957981 0.227 8.85149933299e-39
0.0483122340372 -0.0340286170175 0.223 4.51830472942e-39
0.0487116176838 -0.0337234276272 0.221 4.14951940736e-39
0.049768477239 -0.0338760223224 0.222 1.15251697964e-38
0.0501490220343 -0.0335708329321 0.22 1.29081014418e-38
0.050746213619 -0.0334182382369 0.219 1.33690795911e-38
0.0513358696633 -0.0332656435418 0.218 1.30006544028e-38
0.0526357503997 -0.0335708329321 0.22 1.32772412923e-38
0.0529786174925 -0.0332656435418 0.218 1.24482022923e-38
0.0570082477754 -0.0352493745787 0.231 1.28169848117e-38
0.0571269325383 -0.0347915904932 0.228 1.2632593552e-38
0.056460037204 -0.0338760223224 0.222 1.27247891819e-38
0.0562641131509 -0.0332656435418 0.218 1.28169848117e-38
0.0573473470979 -0.0334182382369 0.219 1.29091804416e-38
0.0637506726387 -0.036622726835 0.24 9.49794213666e-39
-0.132996638188 -0.0337837119512 0.227 1.15251697964e-38
-0.132723474845 -0.0339325388761 0.228 1.20783435756e-38
-0.131864423227 -0.0339325388761 0.228 1.34612780236e-38
-0.129856201684 -0.0336348850263 0.226 1.28159086145e-38
-0.128433868414 -0.0334860581014 0.225 1.02329960487e-38
-0.127586120108 -0.0334860581014 0.225 6.26858396459e-39
-0.127864935107 -0.0337837119512 0.227 7.74443290852e-39
-0.12700965126 -0.0337837119512 0.227 1.18932334498e-38
-0.125042875189 -0.0334860581014 0.225 1.31846883314e-38
-0.125851061908 -0.0339325388761 0.228 1.30013746702e-38
-0.123895589148 -0.0336348850263 0.226 1.31857659299e-38
-0.121955187469 -0.0333372311765 0.224 1.29098979064e-38
-0.122192556994 -0.0336348850263 0.226 1.31839722679e-38
-0.119730319136 -0.0331884042517 0.223 1.29995810081e-38
-0.117290687898 -0.032741923477 0.22 1.32761678977e-38
-0.118049893604 -0.0331884042517 0.223 1.28151897484e-38
-0.116684076888 -0.0330395773268 0.222 8.75858203442e-39
-0.118456812791 -0.0337837119512 0.227 7.19125632674e-39
-0.115529255306 -0.0331884042517 0.223 1.08790815213e-38
-0.11520334318 -0.0333372311765 0.224 1.32761678977e-38
-0.116912026988 -0.034081365801 0.229 1.3184691134e-38
-0.113515382107 -0.0333372311765 0.224 9.95784408875e-39
-0.112671401571 -0.0333372311765 0.224 8.11393149149e-39
-0.110329732361 -0.0328907504019 0.221 1.09719960173e-38
-0.109992516923 -0.0330395773268 0.222 1.32768867638e-38
-0.109647765945 -0.0331884042517 0.223 1.32768867638e-38
-0.108807553179 -0.0331884042517 0.223 1.30002998742e-38
-0.112808925186 -0.0346766735006 0.233 1.32768867638e-38
-0.109529081182 -0.0339325388761 0.228 1.32768867638e-38
-0.106763537819 -0.0333372311765 0.224 1.36456692833e-38
-0.10355528145 -0.0325930965521 0.219 1.3184691134e-38
-0.105075576746 -0.0333372311765 0.224 1.30924955041e-38
-0.103300956958 -0.0330395773268 0.222 1.30002998742e-38
-0.100156752684 -0.0322954427023 0.217 6.45441015395e-39
-0.0984235783691 -0.0319977888525 0.215 5.8090407449e-39
-0.102607687232 -0.0336348850263 0.226 9.49686593944e-39
-0.101305922611 -0.0334860581014 0.225 1.31850456625e-38
-0.0968863281068 -0.0322954427023 0.217 1.35534708508e-38
-0.100495852007 -0.0337837119512 0.227 1.34612780236e-38
-0.102274239565 -0.0346766735006 0.233 1.33690851963e-38
-0.0974797519213 -0.0333372311765 0.224 1.3553476456e-38
-0.0940473132231 -0.0324442696272 0.218 1.30924955041e-38
-0.0915153716147 -0.0318489619276 0.214 1.30002970716e-38
-0.0924045653939 -0.0324442696272 0.218 1.35538281819e-38
-0.0903228723304 -0.0319977888525 0.215 1.410664463e-38
-0.0890964631139 -0.0318489619276 0.214 1.0050036916e-38
-0.0924158687046 -0.0333372311765 0.224 9.49686313684e-39
-0.092798297385 -0.0337837119512 0.227 1.32768839612e-38
-0.0891077664247 -0.032741923477 0.22 1.30924927015e-38
-0.0870750543745 -0.0322954427023 0.217 1.25393189223e-38
-0.0854624487073 -0.0319977888525 0.215 7.46855927985e-39
-0.0838649141211 -0.0317001350027 0.213 6.45440735135e-39
-0.0826724148368 -0.0315513080778 0.212 1.25393189223e-38
-0.0830322368957 -0.0319977888525 0.215 1.30002970716e-38
-0.0875761678178 -0.034081365801 0.229 1.3461275221e-38
-0.0867133484305 -0.034081365801 0.229 1.3461275221e-38
-0.0824764907838 -0.032741923477 0.22 1.33690795911e-38
-0.0797919544803 -0.0319977888525 0.215 1.3461275221e-38
-0.0767777382798 -0.0311048273031 0.209 1.33690795911e-38
-0.0767174539558 -0.0314024811529 0.211 1.37378621106e-38
-0.0755626323741 -0.031253654228 0.21 1.37378649132e-38
-0.0744153463328 -0.0311048273031 0.209 1.19861479457e-38
-0.0789121801268 -0.0333372311765 0.224 6.17782326436e-39
-0.0791137558352 -0.0337837119512 0.227 6.08562763449e-39
-0.0748109622091 -0.0322954427023 0.217 1.14329741666e-38
-0.071606473611 -0.031253654228 0.21 1.30924955041e-38
-0.0714896727333 -0.0315513080778 0.212 1.32768867638e-38
-0.0716912484417 -0.0319977888525 0.215 1.34612780236e-38
-0.0695624582501 -0.0314024811529 0.211 1.39222533703e-38
-0.0687674587273 -0.0314024811529 0.211 1.3461275221e-38
-0.0682946035608 -0.0315513080778 0.212 1.25393189223e-38
-0.0694060957847 -0.0324442696272 0.218 1.35534708508e-38
-0.0673262866064 -0.0318489619276 0.214 1.33690795911e-38
-0.0652766195902 -0.031253654228 0.21 1.32768839612e-38
-0.0675561205917 -0.032741923477 0.22 8.29831994862e-39
-0.0685470441676 -0.0336348850263 0.226 7.00758113053e-39
-0.0647001507418 -0.0321466157774 0.216 1.2078340773e-38
-0.0618159226151 -0.0311048273031 0.209 1.40144490001e-38
-0.0607364564383 -0.0309560003782 0.208 1.32768839612e-38
-0.0599527602262 -0.0309560003782 0.208 1.07876019549e-38
-0.0603069306297 -0.0315513080778 0.212 7.00758113053e-39
-0.0589467655693 -0.031253654228 0.21 1.0050036916e-38
-0.0578786027033 -0.0311048273031 0.209 1.26315145522e-38
-0.0625544055842 -0.034081365801 0.229 1.33690795911e-38
-0.0635773552072 -0.0351231542753 0.236 1.30013760715e-38
-0.0595006277961 -0.0333372311765 0.224 1.30013760715e-38
-0.0560380469359 -0.0318489619276 0.214 1.30013760715e-38
-0.054715559578 -0.0315513080778 0.212 1.30935717013e-38
-0.0544254412687 -0.0318489619276 0.214 1.33701585909e-38
-0.0523663548268 -0.0311048273031 0.209 1.30013760715e-38
-0.0520724687472 -0.0314024811529 0.211 1.34623542208e-38
-0.0512774692244 -0.0314024811529 0.211 1.0604289695e-38
-0.051917990167 -0.0322954427023 0.217 5.34734653207e-39
-0.0529842691479 -0.0334860581014 0.225 3.96440928153e-39
-0.050746213619 -0.0325930965521 0.219 9.58834270319e-39
-0.0487813214334 -0.0318489619276 0.214 1.37378621106e-38
-0.0499926595689 -0.0331884042517 0.223 1.31857659299e-38
-0.0489320322434 -0.0330395773268 0.222 1.3186484796e-38
-0.046579059722 -0.0319977888525 0.215 1.33712319855e-38
-0.045556110099 -0.0318489619276 0.214 1.30024494661e-38
-0.0437042510208 -0.0311048273031 0.209 1.30006544028e-38
-0.0429167870385 -0.0311048273031 0.209 1.32772412923e-38
-0.0423308987645 -0.031253654228 0.21 1.30928500326e-38
-0.0419352828882 -0.0315513080778 0.212 1.33690795911e-38
-0.0407484352593 -0.031253654228 0.21 1.27237129847e-38
-0.0420501998809 -0.0328907504019 0.221 7.92954303436e-39
-0.0438285874391 -0.0349743273504 0.235 8.48271681354e-39
-0.0411157928587 -0.0334860581014 0.225 1.42910414949e-38
-0.0386573227703 -0.0321466157774 0.216 1.28169848117e-38
-0.0369674778129 -0.0314024811529 0.211 1.27247891819e-38
-0.0366867789293 -0.0318489619276 0.214 7.10085576021e-39
-0.0352098129911 -0.031253654228 0.21 5.34913879281e-39
-0.0344185812384 -0.031253654228 0.21 1.11574634742e-38
-0.0337874797215 -0.0314024811529 0.211 1.31857673312e-38
-0.0329924801986 -0.0314024811529 0.211 1.28169848117e-38
-0.034486401103 -0.0336348850263 0.226 1.31857673312e-38
-0.0330395773268 -0.0330395773268 0.222 1.31846883314e-38
-0.0313327774033 -0.0321466157774 0.216 1.33690795911e-38
-0.0299537734916 -0.0315513080778 0.212 1.35534708508e-38
-0.0290174825843 -0.0314024811529 0.211 1.3461275221e-38
-0.0284899947493 -0.0317001350027 0.213 1.33690795911e-38
-0.0270375193177 -0.0309560003782 0.208 1.3461275221e-38
-0.0262538231056 -0.0309560003782 0.208 1.1432971364e-38
-0.0255925794266 -0.0311048273031 0.209 4.33390786449e-39
-0.0249238002071 -0.031253654228 0.21 2.58183076339e-39
-0.0243624024398 -0.0315513080778 0.212 1.0050036916e-38
-0.0235636351467 -0.0315513080778 0.212 1.36456664807e-38
-0.0226574864015 -0.0314024811529 0.211 1.30935717013e-38
-0.0225877826518 -0.0324442696272 0.218 1.26333124181e-38
-0.0233639433234 -0.0348255004255 0.234 1.22645298987e-38
-0.0214254255295 -0.0331884042517 0.223 1.20812176388e-38
-0.0196621090523 -0.0317001350027 0.213 1.30953695673e-38
-0.0187710313881 -0.0315513080778 0.212 1.28159086145e-38
-0.0178874892643 -0.0314024811529 0.211 1.34612780236e-38
-0.0171734968018 -0.0315513080778 0.212 1.32768867638e-38
-0.0162974902186 -0.0314024811529 0.211 1.29081042444e-38
-0.015355547656 -0.0311048273031 0.209 1.00500397186e-38
-0.0147771949225 -0.0315513080778 0.212 1.06954091277e-38
-0.0142421715469 -0.0321466157774 0.216 1.36456692833e-38
-0.0144851927281 -0.0346766735006 0.233 1.3184691134e-38
-0.0130816983098 -0.0333372311765 0.224 1.37389411104e-38
-0.0119099217619 -0.0324442696272 0.218 8.02281205884e-39
-0.0108850882537 -0.0318489619276 0.214 2.39887863718e-39
-0.0102200768045 -0.0322954427023 0.217 5.44133442267e-39
-0.00927248258651 -0.0318489619276 0.214 1.22638110326e-38
-0.00842661816527 -0.0317001350027 0.213 1.29091804416e-38
-0.00758828928454 -0.0315513080778 0.212 1.2632593552e-38
-0.00682154803856 -0.0317001350027 0.213 1.32779629611e-38
-0.0060190129752 -0.0317001350027 0.213 1.38304122689e-38
-0.00519198740521 -0.0315513080778 0.212 1.29084559703e-38
-0.00441394284848 -0.0317001350027 0.213 1.31850456625e-38
-0.00359445281899 -0.0315513080778 0.212 1.32772412923e-38
-0.00286162150527 -0.0322954427023 0.217 1.31846883314e-38
-0.00223240387343 -0.0352719812002 0.237 1.32768867638e-38
-0.00129422908105 -0.034081365801 0.229 9.86564845889e-39
-0.000410686957306 -0.0324442696272 0.218 3.96513095024e-39
0.000406919187056 -0.0321466157774 0.216 3.78181308513e-39
0.00122075756117 -0.0321466157774 0.216 1.15262459937e-38
0.00202517650965 -0.0319977888525 0.215 1.29091804416e-38
0.00283524711351 -0.0319977888525 0.215 1.30935717013e-38
0.00361140778512 -0.0317001350027 0.213 1.07886809547e-38
0.00443466558485 -0.0318489619276 0.214 9.1291596172e-39
0.00524096841846 -0.0318489619276 0.214 1.10652678443e-38
0.00627333746711 -0.0330395773268 0.222 1.30935717013e-38
0.00704573036846 -0.032741923477 0.22 1.18957473792e-38
