VERSION .7
FIELDS x y z rgb
SIZE 4 4 4 4
TYPE F F F F
COUNT 1 1 1 1
WIDTH 847
HEIGHT 1
VIEWPOINT 0 0 0 1 0 0 0
POINTS 847
DATA ascii
-0.021837996372 0.0667799599201 0.168 6.54660858641e-39
-0.0212050109699 0.0667799599201 0.168 4.61050035928e-39
-0.0205720255678 0.0667799599201 0.168 5.99343480723e-39
-0.0199390401657 0.0667799599201 0.168 1.23542144017e-38
-0.0196508057416 0.0679724592044 0.171 1.24464100315e-38
-0.0191176662511 0.0683699589658 0.172 1.24464100315e-38
-0.0186843726723 0.0691649584887 0.174 1.16166493628e-38
-0.0178215532849 0.0683699589658 0.172 5.90052031125e-39
-0.0171734968018 0.0683699589658 0.172 2.58147763617e-39
-0.0164293621774 0.0679724592044 0.171 2.58147763617e-39
-0.0158773838357 0.0683699589658 0.172 8.57419357729e-39
-0.0152293273526 0.0683699589658 0.172 1.2078340773e-38
-0.0146660457001 0.0687674587273 0.173 1.23549276626e-38
-0.0140142214468 0.0687674587273 0.173 1.24471260951e-38
-0.0135168757737 0.0695624582501 0.175 7.28417082272e-39
-0.0127105729401 0.0687674587273 0.173 2.48928200631e-39
-0.0118496374379 0.067574959443 0.17 1.47513007781e-39
-0.0114069244334 0.0687674587273 0.173 6.2693056333e-39
-0.0106307637618 0.0679724592044 0.171 1.1893239055e-38
-0.0101032759268 0.0687674587273 0.173 1.21705392055e-38
-0.00934218633615 0.0679724592044 0.171 1.24471260951e-38
-0.00849443802978 0.0663824601587 0.167 1.02344309783e-38
-0.00781812326982 0.0659849603973 0.166 4.24171503723e-39
-0.00706268533459 0.064792461113 0.163 2.48999806982e-39
-0.00629029243323 0.0632024620672 0.159 4.61049755668e-39
-0.00554804169388 0.0616124630215 0.155 1.06954091277e-38
-0.00496403730505 0.0616124630215 0.155 1.21705392055e-38
-0.00446480774686 0.0628049623058 0.158 1.18932334498e-38
-0.00394297156716 0.0639974615901 0.161 1.18010378199e-38
-0.0034606969751 0.0663824601587 0.167 6.63808254756e-39
-0.00279756941101 0.0655874606358 0.165 3.59562676207e-39
-0.00214951292792 0.064792461113 0.163 3.7800180218e-39
-0.00155420522834 0.0655874606358 0.165 8.75858203442e-39
-0.000938174792378 0.0659849603973 0.166 1.19854290796e-38
-0.000320260471294 0.067574959443 0.17 1.19854290796e-38
0.000325912126669 0.0687674587273 0.173 1.21705392055e-38
0.00100034300151 0.070357457773 0.177 9.5890615693e-39
0.00167665776148 0.0707549575344 0.178 6.27001889422e-39
0.00233413367019 0.070357457773 0.177 5.8090407449e-39
0.00300102900453 0.070357457773 0.177 8.29832275121e-39
0.00366792433888 0.070357457773 0.177 1.1801756686e-38
0.00438380068647 0.0711524572958 0.179 1.18939523159e-38
0.00505823156132 0.0711524572958 0.179 1.21705392055e-38
0.00573266243616 0.0711524572958 0.179 1.20783463782e-38
0.00644288712838 0.0715499570573 0.18 8.5749124434e-39
0.00720020894873 0.0723449565801 0.182 7.28417362531e-39
0.00788594313433 0.0723449565801 0.182 8.20612992395e-39
0.00871296870431 0.0735374558644 0.185 1.15251697964e-38
0.00946087109904 0.0739349556258 0.186 1.20783435756e-38
0.00994314569111 0.0723449565801 0.182 1.20783435756e-38
0.0106288798767 0.0723449565801 0.182 1.18939523159e-38
0.0114389504806 0.073139956103 0.184 1.09719988198e-38
0.0122640921654 0.0739349556258 0.186 8.66710807326e-39
0.0126163786838 0.0719474568187 0.181 9.40467030957e-39
0.0132248735793 0.0715499570573 0.18 1.04188222381e-38
0.013671354354 0.070357457773 0.177 1.17095610562e-38
0.0145812708695 0.0715499570573 0.18 1.20783435756e-38
0.0153442443452 0.0719474568187 0.181 1.22627320327e-38
0.0162032959623 0.0727424563415 0.183 1.22627320327e-38
0.0169851082893 0.073139956103 0.184 1.00493208525e-38
0.0178705342982 0.0739349556258 0.186 9.77273396292e-39
0.0184714936531 0.0735374558644 0.185 9.77345282903e-39
0.0191685311495 0.0735374558644 0.185 1.15262487962e-38
0.0196508057416 0.0727424563415 0.183 1.21716182053e-38
0.0204514569198 0.073139956103 0.184 1.20783435756e-38
0.0214894776238 0.0743324553873 0.187 1.26307984887e-38
0.0219566811349 0.0735374558644 0.185 1.12478640407e-38
0.0227761711644 0.0739349556258 0.186 9.77273676551e-39
0.0239818576445 0.0755249546716 0.19 9.95712802524e-39
0.0239178055503 0.073139956103 0.184 1.10641916471e-38
0.0248785869641 0.0739349556258 0.186 1.20794197728e-38
0.0253043450025 0.073139956103 0.184 1.18028328832e-38
0.0264214888817 0.0743324553873 0.187 1.22627320327e-38
0.0272711210732 0.0747299551487 0.188 1.22620159692e-38
0.0281282888052 0.0751274549101 0.189 1.15244537329e-38
0.0288403973826 0.0751274549101 0.189 1.16173682289e-38
0.0292397810291 0.0743324553873 0.187 1.12485829068e-38
0.0296240935947 0.0735374558644 0.185 1.20783435756e-38
0.0304850290969 0.0739349556258 0.186 1.21705364029e-38
0.0315211659158 0.0747299551487 0.188 1.21701762692e-38
0.0320580731765 0.0743324553873 0.187 1.18932334498e-38
0.0325874448967 0.0739349556258 0.186 1.2446407229e-38
0.0332882501633 0.0739349556258 0.186 1.26308012913e-38
0.0334408448584 0.0727424563415 0.183 1.29073881809e-38
0.0348763653239 0.0743324553873 0.187 1.23542144017e-38
0.0352003935654 0.0735374558644 0.185 1.17095638588e-38
-0.0411120250885 0.0629990024737 0.157 1.29995810081e-38
-0.0392300238484 0.0609926648153 0.152 1.29073853783e-38
-0.0389116472622 0.061393932347 0.153 1.29995810081e-38
-0.0369712455832 0.0629990024737 0.157 1.31846939366e-38
-0.0366114235242 0.0634002700054 0.158 1.31846939366e-38
-0.0362440659248 0.0638015375371 0.159 1.23549332678e-38
-0.0350459149852 0.0638015375371 0.159 1.22627376379e-38
-0.0348801330941 0.0646040726004 0.161 1.20783463782e-38
-0.0340606430646 0.0642028050688 0.16 1.24471288977e-38
-0.0336669110735 0.0646040726004 0.161 1.30924983067e-38
-0.0328549565845 0.0642028050688 0.16 1.2908107047e-38
-0.0324536890528 0.0646040726004 0.161 1.27237157873e-38
-0.0320448859806 0.0650053401321 0.162 1.18939551185e-38
-0.0316285473679 0.0654066076638 0.163 1.20779904484e-38
-0.0306338560218 0.0646040726004 0.161 1.20779904484e-38
-0.0298407403841 0.0642028050688 0.16 1.22623817081e-38
-0.0290551602868 0.0638015375371 0.159 1.25389685977e-38
-0.0280981466432 0.0629990024737 0.157 1.31839750705e-38
-0.0278570093472 0.0638015375371 0.159 1.28159114171e-38
-0.0274293674237 0.0642028050688 0.16 1.21712622755e-38
-0.027161855736 0.0650053401321 0.162 1.20790666456e-38
-0.0268792729672 0.0658078751955 0.164 1.19868710158e-38
-0.0264214888817 0.0662091427272 0.165 1.18946753859e-38
-0.0257998067904 0.0662091427272 0.165 1.26315201574e-38
-0.0251781246991 0.0662091427272 0.165 1.25386056614e-38
-0.0247052695326 0.0666104102588 0.166 1.25393245275e-38
-0.0237897013617 0.0658078751955 0.164 1.20783463782e-38
-0.0230304956563 0.0654066076638 0.163 1.22627376379e-38
-0.0222788254913 0.0650053401321 0.162 1.21705420081e-38
-0.0218022025546 0.0654066076638 0.163 1.17095638588e-38
-0.0207980917828 0.0642028050688 0.16 1.26315201574e-38
-0.0203214688461 0.0646040726004 0.161 1.27237157873e-38
-0.0199597629021 0.0654066076638 0.163 1.27237157873e-38
-0.0193456163513 0.0654066076638 0.163 1.23542144017e-38
-0.0182718018299 0.0638015375371 0.159 1.2169823142e-38
-0.0177838755824 0.0642028050688 0.16 1.26308012913e-38
-0.0175031766988 0.0654066076638 0.163 1.23542144017e-38
-0.0168890301479 0.0654066076638 0.163 1.24464100315e-38
-0.016574421332 0.0666104102588 0.166 1.19854318822e-38
-0.015852893329 0.0662091427272 0.165 1.2169823142e-38
-0.01541583198 0.0670116777905 0.167 1.25386056614e-38
-0.0147866143481 0.0670116777905 0.167 1.25386028588e-38
-0.0141573967163 0.0670116777905 0.167 1.23542115991e-38
-0.0135281790845 0.0670116777905 0.167 1.25386028588e-38
-0.0129762007428 0.0674129453222 0.168 1.21698203394e-38
-0.0123432153407 0.0674129453222 0.168 1.00500425212e-38
-0.0114314149401 0.0658078751955 0.164 9.12808622258e-39
-0.0109453725777 0.0666104102588 0.166 1.07876075601e-38
-0.010257754507 0.0662091427272 0.165 1.21705420081e-38
-0.00963607241569 0.0662091427272 0.165 1.21705392055e-38
-0.00890512498709 0.0654066076638 0.163 1.24471260951e-38
-0.00813838374111 0.0642028050688 0.16 1.13407785367e-38
-0.00744134624477 0.0634002700054 0.158 8.94369216026e-39
-0.00649940368214 0.060190129752 0.15 8.11393149149e-39
-0.00565730703115 0.0573812570302 0.143 8.02173586162e-39
-0.00483216534628 0.0541711167768 0.135 1.17095610562e-38
-0.00425946426821 0.0533685817134 0.133 1.19861479457e-38
-0.00373009254801 0.0529673141817 0.132 1.21698203394e-38
-0.00323274687494 0.0529673141817 0.132 1.19854290796e-38
-0.00283901488376 0.0549736518401 0.137 8.57419077469e-39
-0.00239065022395 0.0565787219668 0.141 6.26930002811e-39
-0.00192533059801 0.0585850596252 0.146 6.45369128784e-39
-0.00142233326957 0.0605913972836 0.151 1.03259077421e-38
-0.000876006583244 0.0621964674104 0.155 1.21698203394e-38
-0.000297653849791 0.0634002700054 0.158 1.18932334498e-38
0.000307073275417 0.0654066076638 0.163 1.22627348353e-38
0.00094947810313 0.0674129453222 0.168 9.22027904985e-39
0.00160130235647 0.0682154803856 0.17 4.70269318654e-39
0.00224182329906 0.0682154803856 0.17 3.68854125805e-39
0.00289929920777 0.0686167479172 0.171 6.73099704354e-39
0.00358503339336 0.0694192829806 0.173 1.13407785367e-38
0.00421236714007 0.0690180154489 0.172 1.18939523159e-38
0.00488868190004 0.0694192829806 0.173 1.20783435756e-38
0.00557253220051 0.0698205505123 0.174 1.05103018044e-38
0.00626391804148 0.070221818044 0.175 4.79417275289e-39
0.00696283942295 0.0706230855756 0.176 2.21269511672e-39
0.00753930827128 0.0698205505123 0.174 3.87221645426e-39
0.008241997423 0.070221818044 0.175 1.12478640407e-38
0.0090030870136 0.0710243531073 0.177 1.20776247095e-38
0.00972461501658 0.071425620639 0.178 1.20776247095e-38
0.0103952781212 0.071425620639 0.178 1.18010378199e-38
0.011190277644 0.0722281557024 0.18 6.17782606695e-39
0.0118025403097 0.0718268881707 0.179 1.84463146338e-39
0.0124072674349 0.071425620639 0.178 2.02901992051e-39
0.0130779305395 0.071425620639 0.178 6.63880141367e-39
0.013671354354 0.0710243531073 0.177 1.20783435756e-38
0.0145812708695 0.0722281557024 0.18 1.23549304652e-38
0.0150899198533 0.071425620639 0.178 1.24471232925e-38
0.0158491255588 0.0718268881707 0.179 9.40466750698e-39
0.0168927979182 0.0734319582974 0.183 3.04209284919e-39
0.017582299874 0.0734319582974 0.183 1.93610542453e-39
0.0181719559182 0.0730306907657 0.182 3.87221365166e-39
0.0187540764219 0.072629423234 0.181 1.03266266082e-38
0.0196508057416 0.0734319582974 0.183 1.21705392055e-38
0.0201180092526 0.072629423234 0.181 1.2446407229e-38
0.0209148926606 0.0730306907657 0.182 1.19854290796e-38
0.0214819420833 0.072629423234 0.181 6.08454863468e-39
0.0221639084986 0.072629423234 0.181 2.11978342334e-39
0.0230983155208 0.0734319582974 0.183 2.39708637645e-39
0.0233978532557 0.0722281557024 0.18 7.74443010592e-39
0.0244773194325 0.0734319582974 0.183 1.22627320327e-38
0.0251668213883 0.0734319582974 0.183 1.19861451432e-38
0.0262801974973 0.0746357608924 0.186 1.20779806393e-38
0.0271260619186 0.0750370284241 0.187 9.03552485382e-39
0.0273841541807 0.0738332258291 0.184 3.77965788809e-39
0.028230018602 0.0742344933608 0.185 2.67403620234e-39
0.0290834185637 0.0746357608924 0.186 5.07147850859e-39
0.0296240935947 0.0742344933608 0.185 1.12485829068e-38
0.0306489271028 0.0750370284241 0.187 1.22620159692e-38
0.0316888316919 0.0758395634875 0.189 1.23542115991e-38
0.0322295067229 0.0754382959558 0.188 1.21698203394e-38
0.0327626462133 0.0750370284241 0.187 8.48127908131e-39
0.0334672192502 0.0750370284241 0.187 5.89980424774e-39
0.034171792287 0.0750370284241 0.187 5.71612905153e-39
0.0343168514417 0.0738332258291 0.184 9.58834550579e-39
-0.0333636055683 0.0623754364973 0.154 1.2815192551e-38
-0.0323576109114 0.0615653658934 0.152 1.19854318822e-38
-0.0319940210822 0.0619704011953 0.153 6.17710439825e-39
-0.0312122087553 0.0615653658934 0.152 5.62393342166e-39
-0.0308410833856 0.0619704011953 0.153 7.56004164879e-39
-0.0298689986609 0.0611603305915 0.151 1.13400624732e-38
-0.0293000653531 0.0611603305915 0.151 1.20776303147e-38
-0.02835058725 0.0603502599876 0.149 1.18010434251e-38
-0.0279756941101 0.0607552952895 0.15 1.21698259446e-38
-0.0274105285725 0.0607552952895 0.15 8.94262296953e-39
-0.026666393948 0.0603502599876 0.149 6.91395337364e-39
-0.0257545935474 0.0595401893837 0.147 7.37565038907e-39
-0.025372164867 0.0599452246857 0.148 1.06024974343e-38
-0.024982200646 0.0603502599876 0.149 1.23549332678e-38
-0.0247485988905 0.0611603305915 0.151 1.22627376379e-38
-0.024499926054 0.0619704011953 0.153 1.23542144017e-38
-0.0239234572056 0.0619704011953 0.153 9.21956298633e-39
-0.0236521777476 0.0627804717992 0.155 6.63736648405e-39
-0.0230681733588 0.0627804717992 0.155 6.73028098002e-39
-0.0224841689699 0.0627804717992 0.155 1.04181061746e-38
-0.0219001645811 0.0627804717992 0.155 1.26308012913e-38
-0.021041112964 0.0619704011953 0.153 1.2169823142e-38
-0.0205983999596 0.0623754364973 0.154 1.25386056614e-38
-0.0197581871937 0.0615653658934 0.152 1.14322581031e-38
-0.0190592658122 0.0611603305915 0.151 8.20541105784e-39
-0.0186127850375 0.0615653658934 0.152 9.49614987592e-39
-0.0179213991966 0.0611603305915 0.151 1.11556712135e-38
-0.0171226319035 0.0603502599876 0.149 1.25386056614e-38
-0.0166723833585 0.0607552952895 0.15 1.20776275121e-38
-0.0163219807252 0.0615653658934 0.152 1.27229969211e-38
-0.015852893329 0.0619704011953 0.153 1.2815192551e-38
-0.0152764244807 0.0619704011953 0.153 1.11556712135e-38
-0.0148921119152 0.0627804717992 0.155 1.0786888694e-38
-0.0144004178975 0.0631855071011 0.156 1.18932362524e-38
-0.0137241031375 0.0627804717992 0.155 1.22612999057e-38
-0.0131400987487 0.0627804717992 0.155 1.24464100315e-38
-0.0124750872995 0.0623754364973 0.154 1.22620187718e-38
-0.0121265685513 0.063590542403 0.157 1.2169823142e-38
-0.0114615571021 0.0631855071011 0.156 1.26315173548e-38
-0.0107343774437 0.0623754364973 0.154 1.19861479457e-38
-0.0102200768045 0.0627804717992 0.155 1.23549304652e-38
-0.00969824062482 0.0631855071011 0.156 1.18950313157e-38
-0.00899366758798 0.0623754364973 0.154 1.22627348353e-38
-0.00852269630666 0.0631855071011 0.156 1.1801756686e-38
-0.00757886985891 0.0603502599876 0.149 1.18939523159e-38
-0.00678198645093 0.058325083478 0.144 1.21705392055e-38
-0.00597945138757 0.0558948716664 0.138 1.21705392055e-38
-0.00514300639195 0.0526545892509 0.13 1.18939523159e-38
-0.00440263953773 0.0498193421374 0.123 1.22627348353e-38
-0.00384312565552 0.0486042362316 0.12 1.19861479457e-38
-0.0033344766717 0.0477941656278 0.118 1.18010378199e-38
-0.00288987978214 0.0477941656278 0.118 1.19854290796e-38
-0.00248672836534 0.0486042362316 0.12 1.28151897484e-38
-0.00208546083366 0.0498193421374 0.123 1.28151897484e-38
-0.00167477387635 0.0514394833451 0.127 1.2446407229e-38
-0.00127162245955 0.0546797657606 0.135 1.22620159692e-38
-0.000791231752608 0.0567049422702 0.14 1.18932334498e-38
-0.000269395572912 0.057920048176 0.143 1.21698203394e-38
0.000284466653914 0.0611603305915 0.151 1.17095610562e-38
0.000876006583244 0.0627804717992 0.155 1.20783435756e-38
0.00151652752583 0.0652106836108 0.161 1.22627348353e-38
0.00214951292792 0.0660207542146 0.163 1.18939523159e-38
0.00274670451262 0.0656157189127 0.162 1.18939523159e-38
0.00339852876596 0.0664257895166 0.164 1.21705392055e-38
0.00401644308705 0.0664257895166 0.164 1.18939523159e-38
0.00463435740813 0.0664257895166 0.164 1.19861479457e-38
0.00528429777635 0.0668308248185 0.165 1.22627376379e-38
0.0058701860503 0.0664257895166 0.164 1.1525172599e-38
0.00648810037139 0.0664257895166 0.164 1.17095638588e-38
0.00701935597671 0.0656157189127 0.162 1.16173682289e-38
0.00839270823302 0.0668308248185 0.165 1.18939523159e-38
0.00895975765572 0.0664257895166 0.164 1.18939523159e-38
0.00957767197681 0.0664257895166 0.164 1.19861479457e-38
0.0101334180888 0.0660207542146 0.163 1.21705420081e-38
0.0107475646396 0.0660207542146 0.163 1.14329769692e-38
0.0114314149401 0.0664257895166 0.164 1.13407785367e-38
0.0120493292611 0.0664257895166 0.164 1.1801756686e-38
0.0128217221625 0.0672358601204 0.166 1.19861479457e-38
0.0136901932052 0.0684509660262 0.169 1.18939523159e-38
0.0141573967163 0.0676408954224 0.167 1.22627320327e-38
0.0149636995499 0.0684509660262 0.169 1.17095582536e-38
0.0156004527223 0.0684509660262 0.169 1.06946902615e-38
0.0162372058946 0.0684509660262 0.169 1.08798003874e-38
0.0168739590669 0.0684509660262 0.169 1.09730750171e-38
0.0174070985574 0.0680459307243 0.168 1.21716182053e-38
0.0181474654116 0.0684509660262 0.169 1.20794225754e-38
0.0187842185839 0.0684509660262 0.169 1.18950313157e-38
0.0196508057416 0.0692610366301 0.171 1.19861479457e-38
0.0205324639802 0.0700711072339 0.173 1.07868858914e-38
0.0216740983661 0.0716912484417 0.177 1.04177530473e-38
0.0225934343072 0.0725013190455 0.179 1.02340778511e-38
0.0227479128875 0.0708811778378 0.175 1.16180884963e-38
0.0235410285252 0.0712862131397 0.176 1.23560066624e-38
0.0243416797034 0.0716912484417 0.177 1.1987224143e-38
0.0251498664222 0.0720962837436 0.178 1.22638110326e-38
0.0262557069907 0.0733113896494 0.181 1.10641888445e-38
0.0266400195563 0.0725013190455 0.179 8.94332922396e-39
0.0276196398214 0.0733113896494 0.181 7.8380704745e-39
0.0283016062367 0.0733113896494 0.181 9.03661366273e-39
0.0291437028877 0.0737164249513 0.182 1.16180884963e-38
0.030321131091 0.0749315308571 0.185 1.19872269456e-38
0.0305151712589 0.0737164249513 0.182 1.22627348353e-38
0.0313723389909 0.0741214602532 0.183 1.13407813393e-38
0.0320618409467 0.0741214602532 0.183 7.09942643578e-39
0.0322144356419 0.0729063543474 0.18 4.61014442947e-39
0.0327098974298 0.0725013190455 0.179 5.07075964248e-39
0.180706028985 0.177405462245 0.438 4.794891619e-39
0.179858280679 0.174975250434 0.432 4.24099897371e-39
-0.0250349494295 0.0560060208888 0.137 7.37636364998e-39
-0.024876703079 0.0568236270331 0.139 3.7800180218e-39
-0.0245281843308 0.0572324301053 0.14 3.31903987248e-39
-0.0238292629494 0.0568236270331 0.139 8.48199514483e-39
-0.0234732086607 0.0572324301053 0.14 1.2446407229e-38
-0.0231096188315 0.0576412331775 0.141 1.22620159692e-38
-0.0227384934619 0.0580500362497 0.142 1.25386028588e-38
-0.0223598325517 0.0584588393218 0.143 8.38979951497e-39
-0.0224314201864 0.0600940516106 0.147 3.7800180218e-39
-0.0211334233351 0.0580500362497 0.142 2.67367606863e-39
-0.0208885182688 0.058867642394 0.144 7.2834547592e-39
-0.0202046679684 0.0584588393218 0.143 1.23542144017e-38
-0.0193908295943 0.0576412331775 0.141 1.2446407229e-38
-0.0188595739889 0.0576412331775 0.141 1.25386028588e-38
-0.0180683422363 0.0568236270331 0.139 9.21956298633e-39
-0.0176708424749 0.0572324301053 0.14 3.04245578549e-39
-0.0170209021067 0.0568236270331 0.139 2.12050228945e-39
-0.0162598125161 0.0560060208888 0.137 4.97856681522e-39
-0.0158585449844 0.0564148239609 0.138 1.19854346848e-38
-0.0152274434675 0.0560060208888 0.137 1.21698259446e-38
-0.0152481662038 0.0580500362497 0.142 1.2538608464e-38
-0.0146095291464 0.0576412331775 0.141 9.95713082784e-39
-0.0141781194527 0.0580500362497 0.142 3.41124110754e-39
-0.0136430960771 0.0580500362497 0.142 1.56732851027e-39
-0.013385003815 0.0592764454662 0.145 4.60978429576e-39
-0.0128386771286 0.0592764454662 0.145 1.18003217564e-38
-0.0122923504423 0.0592764454662 0.145 1.25378867953e-38
-0.0118270308164 0.0596852485384 0.146 1.21691042758e-38
-0.0111996970697 0.0592764454662 0.145 1.09705610876e-38
-0.0105798988634 0.058867642394 0.144 4.51686699719e-39
-0.0100373399474 0.058867642394 0.144 2.94954128951e-39
-0.00969258896945 0.0600940516106 0.147 4.42467136733e-39
-0.00901439032435 0.0592764454662 0.145 1.11549523473e-38
-0.00840966319915 0.058867642394 0.144 1.22620187718e-38
-0.00775783894581 0.0580500362497 0.142 1.23534955356e-38
-0.00707022087509 0.0568236270331 0.139 1.23534955356e-38
-0.00631101516961 0.0547796116722 0.134 8.01958066459e-39
-0.00541616973511 0.0511003840226 0.125 5.80688554787e-39
-0.00470782892802 0.0486475655895 0.119 5.80760581528e-39
-0.00400890754655 0.0457859440842 0.112 1.03251916786e-38
-0.0034908391371 0.0445595348677 0.109 1.18010406225e-38
-0.00305189390292 0.0441507317955 0.108 1.21698203394e-38
-0.00262048420923 0.0437419287233 0.107 1.27229941185e-38
-0.00225877826518 0.0445595348677 0.109 9.95712802524e-39
-0.001865046274 0.0449683379399 0.11 6.08491157098e-39
-0.00151652752583 0.0470123533008 0.115 6.82247660989e-39
-0.00113975050078 0.0494651717339 0.121 9.49614987592e-39
-0.000712108577347 0.0515091870948 0.126 1.2446407229e-38
-0.000244905066283 0.0531443993835 0.13 1.21698203394e-38
0.00025809226216 0.0560060208888 0.137 1.23549332678e-38
0.000813838374111 0.058867642394 0.144 1.1525172599e-38
0.00142233326957 0.0617292638993 0.151 8.39052118367e-39
0.0019912665774 0.0617292638993 0.151 8.39052118367e-39
0.0025432449191 0.0613204608271 0.15 9.49686874203e-39
0.00317057866581 0.0625468700437 0.153 1.18017594886e-38
0.00372255700751 0.0621380669715 0.152 1.17095638588e-38
0.00429525808559 0.0621380669715 0.152 1.17095638588e-38
0.00483593311653 0.0617292638993 0.151 1.23534955356e-38
0.0053332787896 0.0609116577549 0.149 1.07861698279e-38
0.00597379973219 0.0617292638993 0.151 1.00493236551e-38
0.0108003134231 0.0600940516106 0.147 1.18010406225e-38
0.0116631328105 0.0617292638993 0.151 1.2169823142e-38
0.0122320661183 0.0617292638993 0.151 1.23542144017e-38
0.0128857742568 0.0621380669715 0.152 1.22620159692e-38
0.0136355605366 0.0629556731158 0.154 1.27229941185e-38
0.0143081075263 0.063364476188 0.155 1.17088477952e-38
0.0149881900565 0.0637732792602 0.156 1.14322609056e-38
0.015476116304 0.063364476188 0.155 1.16166493628e-38
0.0162673480566 0.0641820823324 0.157 1.22620159692e-38
0.0169662694381 0.0645908854046 0.158 1.24467631588e-38
0.01767272636 0.0649996884767 0.159 1.19854290796e-38
0.0181568848372 0.0645908854046 0.158 1.23542115991e-38
0.0189895620626 0.0654084915489 0.16 1.25386056614e-38
0.0195924053027 0.0654084915489 0.16 1.27226437939e-38
0.0203214688461 0.0658172946211 0.161 1.21694700147e-38
0.0210580679301 0.0662260976933 0.162 1.18010434251e-38
0.0219359583985 0.0670437038376 0.164 1.19854346848e-38
0.0228289199479 0.067861309982 0.166 1.19854346848e-38
0.0234543698094 0.067861309982 0.166 1.2169823142e-38
0.0242248788257 0.0682701130542 0.167 1.26308012913e-38
0.0247052695326 0.067861309982 0.166 1.24464100315e-38
0.0257885034796 0.0690877191985 0.169 1.2354577338e-38
0.0265816191174 0.0694965222707 0.17 1.20783463782e-38
0.0278626610026 0.0711317345595 0.174 1.18017594886e-38
0.0283543550202 0.0707229314873 0.173 1.21705392055e-38
0.0285031819451 0.0694965222707 0.17 1.18939523159e-38
0.0296580035269 0.0707229314873 0.173 1.20783463782e-38
0.029959425147 0.0699053253429 0.171 1.18939551185e-38
0.030245775686 0.0690877191985 0.169 1.18014035588e-38
0.179468316458 0.177829336399 0.435 7.8373446019e-39
0.182356312355 0.179055745615 0.438 8.11393149149e-39
0.187787553171 0.182734973265 0.447 9.86564845889e-39
-0.0227761711644 0.0536342095161 0.13 1.29073853783e-38
-0.0217720603926 0.0523964969888 0.127 1.27229941185e-38
-0.021297321341 0.0548719220434 0.133 1.20776247095e-38
-0.0207962078977 0.0548719220434 0.133 1.26307984887e-38
-0.0202950944544 0.0548719220434 0.133 1.28151897484e-38
-0.0192928675678 0.0548719220434 0.133 1.26308012913e-38
-0.0187917541244 0.0548719220434 0.133 1.22620187718e-38
-0.0178780698387 0.0536342095161 0.13 1.21698203394e-38
-0.0166384734263 0.0528090678312 0.128 1.26308012913e-38
-0.0162824191376 0.0532216386736 0.129 1.2169823142e-38
-0.0157963767753 0.0532216386736 0.129 1.19854346848e-38
-0.0151916496501 0.0528090678312 0.128 1.19854346848e-38
-0.014709375058 0.0528090678312 0.128 1.23542172043e-38
-0.0141159512436 0.0523964969888 0.127 1.18010434251e-38
-0.013852207326 0.0532216386736 0.129 1.26308040939e-38
-0.0134697786456 0.0536342095161 0.13 1.32761735029e-38
-0.0130798144247 0.0540467803585 0.131 1.06025002369e-38
-0.0125862365218 0.0540467803585 0.131 9.40395704866e-39
-0.0121849689902 0.0544593512009 0.132 1.06946958667e-38
-0.0116876233171 0.0544593512009 0.132 1.2169823142e-38
-0.0112750524747 0.0548719220434 0.133 1.22620187718e-38
-0.0107739390313 0.0548719220434 0.133 1.22620187718e-38
-0.010272825588 0.0548719220434 0.133 1.19854318822e-38
-0.00977171214471 0.0548719220434 0.133 8.85078046688e-39
-0.00920089495176 0.0544593512009 0.132 7.2834547592e-39
-0.00870354927869 0.0544593512009 0.132 7.65223727866e-39
-0.00833054002389 0.0552844928858 0.134 1.19854318822e-38
-0.00776725837143 0.0548719220434 0.133 1.22627376379e-38
-0.00726614492812 0.0548719220434 0.133 1.21705420081e-38
-0.00651070699289 0.0528090678312 0.128 1.18010406225e-38
-0.00574584963203 0.0503336427766 0.122 7.92810530213e-39
-0.0049828761563 0.0474456468796 0.115 4.97784514651e-39
-0.00435177463934 0.0453827926674 0.11 4.79417275289e-39
-0.00379414464227 0.0437325092977 0.106 9.68126000176e-39
-0.0032666568072 0.042082225928 0.102 1.19861507483e-38
-0.00285408596476 0.0416696550856 0.101 1.18939523159e-38
-0.00244905066283 0.0412570842431 0.1 1.18939523159e-38
-0.00209299637416 0.0416696550856 0.101 8.20612992395e-39
-0.00174636151111 0.0424947967704 0.103 3.78073969051e-39
-0.00139784276294 0.0437325092977 0.106 2.95097902174e-39
-0.00104555624452 0.0457953635099 0.111 7.37636925518e-39
-0.000672546989717 0.0490959302493 0.119 1.1801756686e-38
-0.000237369525782 0.0519839261463 0.126 1.21705392055e-38
0.000243021181158 0.0532216386736 0.129 1.21705420081e-38
0.000762973475729 0.0556970637282 0.135 9.49686874203e-39
0.0012904613108 0.0565222054131 0.137 3.13537028147e-39
0.001819833031 0.0569347762555 0.138 1.47584894393e-39
0.00232283035944 0.0565222054131 0.137 4.51830472942e-39
0.00288046035652 0.0573473470979 0.139 1.17095638588e-38
0.00340418042134 0.0573473470979 0.139 1.18017594886e-38
0.00395615876304 0.0577599179404 0.14 1.18017594886e-38
0.00445162055098 0.0573473470979 0.139 1.07861698279e-38
0.00493954679842 0.0569347762555 0.138 3.87221645426e-39
0.00514300639195 0.0536342095161 0.13 1.47513007781e-39
0.00545949909299 0.0519839261463 0.126 2.95097902174e-39
0.0056987525039 0.0499210719342 0.121 1.06954119303e-38
0.0062055176026 0.0503336427766 0.122 1.17102841262e-38
0.00655592023589 0.0495085010918 0.12 1.18946753859e-38
0.00700805266596 0.0495085010918 0.12 1.13422204728e-38
0.00739801688688 0.0490959302493 0.119 5.5317405944e-39
0.0078463815467 0.0490959302493 0.119 2.21269791932e-39
0.00843415370578 0.0499210719342 0.121 2.48928200631e-39
0.00918393998563 0.0515713553039 0.125 7.92882416825e-39
0.00988662913735 0.0528090678312 0.128 1.18932362524e-38
0.0106119249106 0.0540467803585 0.131 1.22620187718e-38
0.0115293769666 0.0561096345707 0.136 1.2446407229e-38
0.0120417937206 0.0561096345707 0.136 8.75858203442e-39
0.0126465208459 0.0565222054131 0.137 3.31904547768e-39
0.0132587835116 0.0569347762555 0.138 2.48928480891e-39
0.0137787358061 0.0569347762555 0.138 6.26930283071e-39
0.0145059154645 0.0577599179404 0.14 1.14322553005e-38
0.0151407847517 0.0581724887828 0.141 1.18013937497e-38
0.0158943388018 0.0589976304677 0.143 1.25386028588e-38
0.0165480469403 0.0594102013101 0.144 1.07868858914e-38
0.017446660145 0.0606479138374 0.147 4.79417275289e-39
0.0176331647724 0.0594102013101 0.144 2.30489354918e-39
0.0183019439919 0.0598227721525 0.145 4.70197992563e-39
0.0191082468255 0.0606479138374 0.147 1.08790871265e-38
0.0197958648962 0.0610604846798 0.148 1.22620215744e-38
0.0206285421216 0.0618856263647 0.15 1.22620187718e-38
0.0213349990435 0.0622981972071 0.151 1.19854318822e-38
0.0224841689699 0.0639484805768 0.155 7.2834547592e-39
0.0229193464339 0.0635359097344 0.154 4.33319460358e-39
0.0236521777476 0.0639484805768 0.155 5.07076244508e-39
0.0243925446018 0.0643610514193 0.156 9.3117586162e-39
0.024499926054 0.063123338892 0.153 1.20776275121e-38
0.0254041909141 0.0639484805768 0.155 1.20776247095e-38
0.0261558610791 0.0643610514193 0.156 1.2446407229e-38
0.0267436332381 0.0643610514193 0.156 1.11556712135e-38
0.0268058014473 0.063123338892 0.153 8.75858483702e-39
0.178643174773 0.178643174773 0.433 1.18939523159e-38
0.184854344031 0.183181454039 0.444 1.17095610562e-38
0.190728297851 0.187307162464 0.454 1.18939523159e-38
-0.0237369525782 0.0499606335218 0.12 9.68125719916e-39
-0.023672900484 0.0507933107472 0.122 1.15251697964e-38
-0.0222618705252 0.0487116176838 0.117 1.26315173548e-38
-0.0215497619478 0.0512096493599 0.123 9.03517172661e-39
-0.0205720255678 0.0499606335218 0.12 1.0141519285e-38
-0.0189462327047 0.047046263233 0.113 1.18932362524e-38
-0.0183565766605 0.0466299246204 0.112 1.19854318822e-38
-0.0187352375707 0.0487116176838 0.117 1.22620187718e-38
-0.017987335176 0.0516259879725 0.124 9.49614987592e-39
-0.0173788402805 0.0512096493599 0.123 1.19854318822e-38
-0.0165028336973 0.0499606335218 0.12 1.28151897484e-38
-0.0157831895794 0.0491279562965 0.118 1.2446407229e-38
-0.0154685807635 0.0495442949091 0.119 1.2815192551e-38
-0.0152726567105 0.0503769721345 0.121 1.19854318822e-38
-0.014694303977 0.0499606335218 0.12 1.07868914966e-38
-0.0144795410727 0.0507933107472 0.122 1.07868914966e-38
-0.0140198731022 0.0507933107472 0.122 1.19854346848e-38
-0.0135602051316 0.0507933107472 0.122 1.2538608464e-38
-0.013100537161 0.0507933107472 0.122 1.21698259446e-38
-0.0126408691905 0.0507933107472 0.122 1.19854346848e-38
-0.0122810471316 0.0512096493599 0.123 1.28151953536e-38
-0.0117215332493 0.0507933107472 0.122 1.22620215744e-38
-0.0113541756499 0.0512096493599 0.123 1.26308040939e-38
-0.0108907399091 0.0512096493599 0.123 1.20783463782e-38
-0.0105120789989 0.0516259879725 0.124 1.23549332678e-38
-0.0100448754879 0.0516259879725 0.124 1.21705420081e-38
-0.00957767197681 0.0516259879725 0.124 1.25393245275e-38
-0.00911046846574 0.0516259879725 0.124 1.23549332678e-38
-0.00857356120504 0.0512096493599 0.123 1.23549332678e-38
-0.00804418948485 0.0507933107472 0.122 1.28159114171e-38
-0.00777102614169 0.0520423265852 0.125 1.22627376379e-38
-0.0071832539826 0.0512096493599 0.123 1.19868710158e-38
-0.00693834891632 0.0528750038106 0.127 1.20783463782e-38
-0.00630724739936 0.0516259879725 0.124 1.21705420081e-38
-0.00555746111951 0.0491279562965 0.118 1.25386056614e-38
-0.00480955872478 0.0462135860077 0.111 1.24464100315e-38
-0.00419352828882 0.0441318929443 0.106 1.20783463782e-38
-0.00357938173799 0.0416338612682 0.1 1.23549332678e-38
-0.00313855261868 0.0408011840428 0.098 1.15258928664e-38
-0.00274105285725 0.0403848454301 0.097 1.18939523159e-38
-0.00235108863632 0.0399685068175 0.096 1.19861479457e-38
-0.00201010542865 0.0403848454301 0.097 1.25393245275e-38
-0.00166158668048 0.0408011840428 0.098 1.27237157873e-38
-0.00134509397943 0.0424665384935 0.102 1.27237157873e-38
-0.000998459116386 0.0441318929443 0.106 1.21705420081e-38
-0.000632985402086 0.0466299246204 0.112 1.20783435756e-38
-0.00022229844478 0.0491279562965 0.118 1.19861479457e-38
0.000229833985281 0.0507933107472 0.122 1.19861507483e-38
0.000706456921971 0.0520423265852 0.125 1.19861507483e-38
0.00119626705454 0.0528750038106 0.127 1.18939551185e-38
0.00168796107223 0.0532913424233 0.128 1.18939551185e-38
0.0021702356643 0.0532913424233 0.128 1.18017594886e-38
0.00263178751998 0.0528750038106 0.127 1.18939551185e-38
0.00313478484843 0.0532913424233 0.128 1.18017594886e-38
0.00364531771737 0.053707681036 0.129 1.18939551185e-38
0.00413136007969 0.053707681036 0.129 1.19854318822e-38
0.00458160862462 0.0532913424233 0.128 1.06946930641e-38
0.00490563686617 0.0516259879725 0.124 1.00500425212e-38
0.00515619358783 0.0495442949091 0.119 1.06954119303e-38
0.00560455824764 0.0495442949091 0.119 1.17095638588e-38
0.0059003282123 0.0482952790711 0.116 1.19861507483e-38
0.00639202223 0.0487116176838 0.117 1.16180884963e-38
0.00677445091042 0.0482952790711 0.116 1.13415016067e-38
0.00714934405035 0.0478789404584 0.115 1.03259133473e-38
0.00771450958793 0.0487116176838 0.117 9.40395704866e-39
0.00815533870724 0.0487116176838 0.117 8.94297609674e-39
0.00866963934643 0.0491279562965 0.118 1.12478668433e-38
0.00926871481626 0.0499606335218 0.12 1.2169823142e-38
0.0098828613671 0.0507933107472 0.122 1.2169823142e-38
0.0105968538296 0.0520423265852 0.125 1.25386028588e-38
0.0110678251109 0.0520423265852 0.125 1.08790815213e-38
0.0114464860211 0.0516259879725 0.124 8.66675214345e-39
0.0120097676735 0.0520423265852 0.125 8.39016525386e-39
0.0127802766897 0.0532913424233 0.128 1.00500425212e-38
0.0131589375999 0.0528750038106 0.127 1.20783435756e-38
0.0137448258739 0.0532913424233 0.128 1.23549276626e-38
0.0142271004659 0.0532913424233 0.128 1.21705392055e-38
0.0149392090433 0.0541240196486 0.13 1.12485829068e-38
0.0155477039387 0.0545403582613 0.131 8.48271681354e-39
0.0157963767753 0.053707681036 0.129 8.11357836427e-39
0.0165348597444 0.0545403582613 0.131 8.57455651359e-39
0.0171584257208 0.054956696874 0.132 1.17095638588e-38
0.0177895272378 0.0553730354867 0.133 1.19861507483e-38
0.0185656879094 0.056205712712 0.135 1.23549332678e-38
0.0190743368932 0.056205712712 0.135 1.15251697964e-38
0.020018163341 0.0574547285501 0.138 8.02173586162e-39
0.0206869425604 0.0578710671628 0.139 5.25586696572e-39
0.0213632573204 0.0582874057755 0.14 6.08491437358e-39
0.0218907451555 0.0582874057755 0.14 1.00493236551e-38
0.0227384934619 0.0591200830008 0.142 1.22620187718e-38
0.0229457208256 0.0582874057755 0.14 1.23542115991e-38
0.0236408744368 0.0587037443881 0.141 1.22620159692e-38
0.0241721300422 0.0587037443881 0.141 8.20541105784e-39
0.0241777816975 0.0574547285501 0.138 3.04245578549e-39
0.0236239194707 0.054956696874 0.132 3.13465421795e-39
0.0243040020009 0.0553730354867 0.133 6.54660858641e-39
0.0240590969347 0.053707681036 0.129 1.16173682289e-38
0.181943741512 0.183605328193 0.441 7.46856208244e-39
0.186936037094 0.186936037094 0.449 1.10641916471e-38
0.187367446788 0.185687021256 0.446 1.23549304652e-38
-0.022139417992 0.043691063825 0.104 1.26307984887e-38
-0.0219566811349 0.0441111702079 0.105 1.17095638588e-38
-0.0213557217799 0.043691063825 0.104 6.36221732668e-39
-0.0209638736739 0.043691063825 0.104 2.95097902174e-39
-0.0209676414441 0.0445312765908 0.106 2.85878339188e-39
-0.0209563381334 0.0453714893567 0.108 1.10641944497e-38
-0.0205494189463 0.0453714893567 0.108 1.23549332678e-38
-0.0199183174293 0.0457915957396 0.109 1.14329769692e-38
-0.0193286613851 0.0453714893567 0.108 5.07075964248e-39
-0.019447346148 0.0466318085055 0.111 2.58147763617e-39
-0.0188576901038 0.0462117021226 0.11 2.85806452576e-39
-0.0182755696001 0.0457915957396 0.109 8.48199794743e-39
-0.0178648826428 0.0457915957396 0.109 1.25386056614e-38
-0.0177744561568 0.0466318085055 0.111 1.19854318822e-38
-0.0175125961244 0.0470519148884 0.112 1.18932362524e-38
-0.0170906058563 0.0470519148884 0.112 6.45369409043e-39
-0.0166686155883 0.0470519148884 0.112 2.02830665959e-39
-0.0161015661656 0.0466318085055 0.111 2.12049948686e-39
-0.0156833436678 0.0466318085055 0.111 7.92882416825e-39
-0.0154026447841 0.0470519148884 0.112 1.2446407229e-38
-0.0148468986722 0.0466318085055 0.111 1.23542115991e-38
-0.0146886523216 0.0474720212714 0.113 1.2169823142e-38
-0.0142628942833 0.0474720212714 0.113 6.5458897203e-39
-0.013837136245 0.0474720212714 0.113 1.84391539986e-39
-0.0134113782067 0.0474720212714 0.113 2.48928480891e-39
-0.0129856201684 0.0474720212714 0.113 8.20541386043e-39
-0.0126710113525 0.0478921276543 0.114 1.23542172043e-38
-0.0122414855439 0.0478921276543 0.114 1.22620215744e-38
-0.0119155734173 0.0483122340372 0.115 1.17088477952e-38
-0.0116819716617 0.0491524468031 0.117 7.83663134098e-39
-0.0112411425424 0.0491524468031 0.117 2.95026295822e-39
-0.0108003134231 0.0491524468031 0.117 4.24100177631e-39
-0.010182399102 0.0483122340372 0.115 9.3117586162e-39
-0.0097491055232 0.0483122340372 0.115 1.23542144017e-38
-0.00939681900478 0.0487323404201 0.116 1.23542144017e-38
-0.00895975765572 0.0487323404201 0.116 1.18932362524e-38
-0.00852269630666 0.0487323404201 0.116 9.40395424606e-39
-0.00801593120797 0.0483122340372 0.115 5.5317377918e-39
-0.00758263762916 0.0483122340372 0.115 5.62393342166e-39
-0.00721151225948 0.0487323404201 0.116 8.75858483702e-39
-0.00683285134931 0.0491524468031 0.117 1.19861507483e-38
-0.00633738956136 0.0487323404201 0.116 1.22620187718e-38
-0.00584946331392 0.0483122340372 0.115 1.26300824252e-38
-0.00522778122259 0.0466318085055 0.111 1.0693974198e-38
-0.00459291193538 0.0445312765908 0.106 7.83590967227e-39
-0.00399572035067 0.0424307446762 0.101 7.28273589309e-39
-0.00350779410323 0.0411704255274 0.098 9.86493239538e-39
-0.00304247447729 0.0399101063786 0.095 1.22627376379e-38
-0.00265627802661 0.0394899999956 0.094 1.22620159692e-38
-0.00230210762306 0.0394899999956 0.094 1.23542115991e-38
-0.00194793721952 0.0394899999956 0.094 1.17088449926e-38
-0.00162767674822 0.0403302127615 0.096 8.85078046688e-39
-0.00127915800005 0.0407503191444 0.097 8.38980231756e-39
-0.000979620265134 0.043691063825 0.104 9.68054113565e-39
-0.000616030435959 0.0457915957396 0.109 1.2446407229e-38
-0.000214762904279 0.0478921276543 0.114 1.23542115991e-38
0.00022229844478 0.049572553186 0.118 1.18017594886e-38
0.000678198645093 0.0504127659519 0.12 1.16173682289e-38
0.00113975050078 0.0508328723348 0.121 1.02344337809e-38
0.00160883789697 0.0512529787177 0.122 1.00500425212e-38
0.0020515509014 0.0508328723348 0.121 9.86565126149e-39
0.00250745110172 0.0508328723348 0.121 1.16173682289e-38
0.00296335130203 0.0508328723348 0.121 1.21705420081e-38
0.00344750977922 0.0512529787177 0.122 1.16173682289e-38
0.00397122984404 0.0520931914836 0.124 1.23549332678e-38
0.00440263953773 0.0516730851007 0.123 1.1525172599e-38
0.00470782892802 0.0499926595689 0.119 1.13407813393e-38
0.00502620551419 0.0487323404201 0.116 1.12485857094e-38
0.00551036399138 0.0491524468031 0.117 1.13407813393e-38
0.0059003282123 0.0487323404201 0.116 1.1525172599e-38
0.00628275689273 0.0483122340372 0.115 1.18939551185e-38
0.00677445091042 0.0487323404201 0.116 1.18939551185e-38
0.00721151225948 0.0487323404201 0.116 1.21698259446e-38
0.00758263762916 0.0483122340372 0.115 1.16166521654e-38
0.00801593120797 0.0483122340372 0.115 1.18010406225e-38
0.00859616782655 0.0491524468031 0.117 1.24464100315e-38
0.00919147552613 0.0499926595689 0.119 1.18010406225e-38
0.00955883312555 0.049572553186 0.118 1.19854318822e-38
0.0100882048458 0.0499926595689 0.119 1.22620159692e-38
0.0106251121064 0.0504127659519 0.12 1.21698203394e-38
0.0109849341654 0.0499926595689 0.119 1.18946781885e-38
0.011625455108 0.0508328723348 0.121 1.18024825586e-38
0.0120813553083 0.0508328723348 0.121 1.18946753859e-38
0.0125372555086 0.0508328723348 0.121 1.19872269456e-38
0.0128857742568 0.0504127659519 0.12 1.20794197728e-38
0.0135602051316 0.0512529787177 0.122 1.18950313157e-38
0.0140198731022 0.0512529787177 0.122 1.22638138352e-38
0.0145982258356 0.0516730851007 0.123 1.18946753859e-38
0.0148167565101 0.0508328723348 0.121 1.17095638588e-38
0.0155250973172 0.0516730851007 0.123 1.19861507483e-38
0.0162485092053 0.0525132978665 0.125 1.20783463782e-38
0.0167194804867 0.0525132978665 0.125 1.1801756686e-38
0.017190451768 0.0525132978665 0.125 1.15251697964e-38
0.0176614230493 0.0525132978665 0.125 1.19861479457e-38
0.0188576901038 0.0546138297812 0.13 1.22627348353e-38
0.0191986733115 0.0541937233983 0.129 1.21705364029e-38
0.0196847156738 0.0541937233983 0.129 1.27233598574e-38
0.0201707580361 0.0541937233983 0.129 1.23549332678e-38
0.0209770608697 0.0550339361641 0.131 1.20783463782e-38
0.0217984347843 0.05587414893 0.133 1.20783435756e-38
0.0221318824515 0.0554540425471 0.132 1.23549304652e-38
0.0226292281246 0.0554540425471 0.132 1.20783463782e-38
0.0226009698477 0.0541937233983 0.129 1.1525172599e-38
0.0225501049493 0.0529334042495 0.126 1.20779904484e-38
0.0228421071437 0.0525132978665 0.125 1.18010406225e-38
0.0227535645429 0.0512529787177 0.122 1.25386056614e-38
0.0235937773087 0.0520931914836 0.124 1.20783463782e-38
0.0234788603161 0.0508328723348 0.121 1.18017594886e-38
0.0239347605164 0.0508328723348 0.121 1.18017594886e-38
0.0249953878419 0.0520931914836 0.124 9.49686874203e-39
0.174930037191 0.178125106363 0.424 7.37636645258e-39
0.184021666805 0.185687021256 0.442 1.15251697964e-38
0.189467978702 0.189467978702 0.451 1.23549304652e-38
-0.0229231142041 0.044082911931 0.104 1.30013760715e-38
-0.0227479128875 0.0445067860842 0.105 1.28169848117e-38
-0.0217136599537 0.0432351636246 0.102 1.27247891819e-38
-0.0213293473882 0.0432351636246 0.102 1.30013760715e-38
-0.0209450348226 0.0432351636246 0.102 1.2632593552e-38
-0.0205607222571 0.0432351636246 0.102 1.29091804416e-38
-0.0201764096915 0.0432351636246 0.102 1.30013760715e-38
-0.0199861372939 0.0436590377778 0.103 1.28169848117e-38
-0.0197883293557 0.044082911931 0.104 1.21716154027e-38
-0.0193964812496 0.044082911931 0.104 1.24482022923e-38
-0.0190046331436 0.044082911931 0.104 1.22638110326e-38
-0.0186127850375 0.044082911931 0.104 1.2171978339e-38
-0.0185713395648 0.0449306602374 0.106 1.19875870793e-38
-0.0181719559182 0.0449306602374 0.106 1.24485652286e-38
-0.0177725722717 0.0449306602374 0.106 1.19872269456e-38
-0.017537086631 0.0453545343906 0.107 1.20794225754e-38
-0.0172940654499 0.0457784085437 0.108 1.19861479457e-38
-0.017356233659 0.0470500310033 0.111 1.24471260951e-38
-0.016785416466 0.0466261568501 0.11 1.22627348353e-38
-0.0160733078887 0.0457784085437 0.108 1.23538612745e-38
-0.0158114478563 0.0462022826969 0.109 1.1893239055e-38
-0.0152594695146 0.0457784085437 0.108 1.23549332678e-38
-0.0149900739417 0.0462022826969 0.109 1.26315173548e-38
-0.0144456311405 0.0457784085437 0.108 1.2356009465e-38
-0.0140387119534 0.0457784085437 0.108 1.2356009465e-38
-0.0138842333731 0.0466261568501 0.11 1.20794225754e-38
-0.0137146837119 0.0474739051565 0.112 1.09734379534e-38
-0.0131740086809 0.0470500310033 0.111 1.13407813393e-38
-0.0129856201684 0.0478977793097 0.113 1.16173682289e-38
-0.0122264144629 0.0466261568501 0.11 1.22627376379e-38
-0.0119193411875 0.0470500310033 0.111 1.20790666456e-38
-0.0113975050078 0.0466261568501 0.11 1.19868710158e-38
-0.0109830502802 0.0466261568501 0.11 1.06046554339e-38
-0.0105685955527 0.0466261568501 0.11 8.94513409638e-39
-0.0103387615674 0.0474739051565 0.112 7.47000401856e-39
-0.00991677129935 0.0474739051565 0.112 1.08808793872e-38
-0.00957955586193 0.0478977793097 0.113 1.18028356858e-38
-0.0093158119444 0.048745527616 0.115 1.18950313157e-38
-0.00865080049518 0.0474739051565 0.112 1.19872269456e-38
-0.00822881022712 0.0474739051565 0.112 9.58978463931e-39
-0.0078765237087 0.0478977793097 0.113 4.42682936696e-39
-0.00738482969101 0.0474739051565 0.112 4.24243810724e-39
-0.00708717584122 0.0483216534628 0.114 8.02245893163e-39
-0.00659924959378 0.0478977793097 0.113 1.19861507483e-38
-0.00611885888683 0.0474739051565 0.112 1.21705420081e-38
-0.00569686861878 0.0474739051565 0.112 1.20783463782e-38
-0.00518068409446 0.0466261568501 0.11 9.31247748231e-39
-0.0045495825775 0.0445067860842 0.105 4.14952220996e-39
-0.00395615876304 0.0423874153183 0.1 2.67439213215e-39
-0.00347200028585 0.0411157928587 0.097 6.08563043709e-39
-0.00301044843016 0.0398441703992 0.094 1.18939551185e-38
-0.00262801974973 0.039420296246 0.093 1.1710640056e-38
-0.00227761711644 0.039420296246 0.093 1.20794225754e-38
-0.00190649174676 0.0389964220928 0.092 9.12808622258e-39
-0.00157681184984 0.039420296246 0.093 3.50415280092e-39
-0.00127915800005 0.0411157928587 0.097 1.38365331406e-39
-0.000979620265134 0.044082911931 0.104 4.61050035928e-39
-0.000616030435959 0.0462022826969 0.109 1.12496619067e-38
-0.000214762904279 0.0483216534628 0.114 1.18028356858e-38
0.000220414559655 0.0495932759224 0.117 1.20776247095e-38
0.000678198645093 0.0508648983819 0.12 1.03259077421e-38
0.00112091164953 0.0504410242288 0.119 3.41123550235e-39
0.00155608911346 0.0500171500756 0.118 1.38293164535e-39
0.00201764096915 0.0504410242288 0.119 3.68782239194e-39
0.00244528289258 0.0500171500756 0.118 1.11556684109e-38
0.00291437028877 0.0504410242288 0.119 1.170884219e-38
0.0033344766717 0.0500171500756 0.118 1.18932334498e-38
0.00387515170265 0.0512887725351 0.121 1.1156387277e-38
0.00429525808559 0.0508648983819 0.12 4.24171503723e-39
0.00466826734039 0.0500171500756 0.118 1.84462866078e-39
0.00506953487207 0.0495932759224 0.117 3.78073688791e-39
0.00551036399138 0.0495932759224 0.117 1.08798003874e-38
0.00595119311069 0.0495932759224 0.117 1.17095610562e-38
0.00628275689273 0.048745527616 0.115 1.19861479457e-38
0.00665765003266 0.0483216534628 0.114 1.1156387277e-38
0.00714934405035 0.048745527616 0.115 5.34663046856e-39
0.00751670164978 0.0483216534628 0.114 3.04173972197e-39
0.00794622745833 0.0483216534628 0.114 3.31904267508e-39
0.00844922478678 0.048745527616 0.115 9.31247748231e-39
0.00895975765572 0.0491694017692 0.116 1.18017594886e-38
0.00923480488401 0.0483216534628 0.114 1.20776275121e-38
0.0097491055232 0.048745527616 0.115 1.2630438355e-38
0.0103594843038 0.0495932759224 0.117 7.55967871249e-39
0.0108003134231 0.0495932759224 0.117 3.87221645426e-39
0.0114332988252 0.0504410242288 0.119 3.68782519453e-39
0.0119815093966 0.0508648983819 0.12 8.2976066877e-39
0.0123300281448 0.0504410242288 0.119 1.2169823142e-38
0.0126710113525 0.0500171500756 0.118 1.22620187718e-38
0.013115608242 0.0500171500756 0.118 1.27229969211e-38
0.0135602051316 0.0500171500756 0.118 9.12736735647e-39
0.0141234867841 0.0504410242288 0.119 4.14880334385e-39
0.014694303977 0.0508648983819 0.12 3.87186332705e-39
0.0150202161037 0.0504410242288 0.119 7.56004445139e-39
0.0153385926898 0.0500171500756 0.118 1.20776275121e-38
0.0160507012672 0.0508648983819 0.12 1.20776247095e-38
0.0165028336973 0.0508648983819 0.12 1.21701762692e-38
0.0172375488961 0.0517126466883 0.122 1.08794374511e-38
0.0176972168667 0.0517126466883 0.122 7.19125632674e-39
0.0183057117621 0.0521365208415 0.123 6.91466943715e-39
0.0187691475029 0.0521365208415 0.123 7.56004164879e-39
0.0193889457091 0.0525603949947 0.124 1.20776275121e-38
0.0200162794559 0.0529842691479 0.125 1.20776275121e-38
0.0203233527313 0.0525603949947 0.124 1.2169823142e-38
0.0209582220185 0.0529842691479 0.125 1.27229969211e-38
0.0217720603926 0.0538320174542 0.127 1.00493236551e-38
0.0222505672144 0.0538320174542 0.127 9.49614987592e-39
0.0218342286017 0.0517126466883 0.122 1.05103018044e-38
0.0222938965723 0.0517126466883 0.122 1.11556712135e-38
0.0223805552881 0.0508648983819 0.12 1.20776275121e-38
0.0235937773087 0.0525603949947 0.124 1.20776275121e-38
0.023672900484 0.0517126466883 0.122 1.2169823142e-38
0.0241325684545 0.0517126466883 0.122 1.23542144017e-38
0.0245922364251 0.0517126466883 0.122 1.22620187718e-38
0.0246412174384 0.0508648983819 0.12 1.2169823142e-38
0.025929794864 0.0525603949947 0.124 1.19854318822e-38
0.0263969983751 0.0525603949947 0.124 1.1710640056e-38
0.027297495465 0.053408143301 0.126 1.20790666456e-38
0.0288743073148 0.0555275140669 0.131 1.1802479756e-38
-0.0218210414059 0.0423365504199 0.099 1.06032134978e-38
-0.0212313853616 0.0419089084965 0.098 1.25393217249e-38
-0.0206492648579 0.041481266573 0.097 1.30002998742e-38
-0.0209111248904 0.0427641923433 0.1 1.27237129847e-38
-0.0205343478653 0.0427641923433 0.1 1.32768867638e-38
-0.0203591465487 0.0431918342668 0.101 1.09719960173e-38
-0.0199786017534 0.0431918342668 0.101 1.04188222381e-38
-0.0197920971259 0.0436194761902 0.102 1.10641916471e-38
-0.0194077845604 0.0436194761902 0.102 1.26315173548e-38
-0.0190234719948 0.0436194761902 0.102 1.23549304652e-38
-0.0186391594293 0.0436194761902 0.102 1.22627348353e-38
-0.0186127850375 0.0444747600371 0.104 1.29081042444e-38
-0.0180457356148 0.0440471181136 0.103 1.12485829068e-38
-0.017657655279 0.0440471181136 0.103 1.06954091277e-38
-0.0176049064955 0.0449024019605 0.105 1.08798003874e-38
-0.0170453926133 0.0444747600371 0.104 1.23542115991e-38
-0.0169738049786 0.0453300438839 0.106 1.26307984887e-38
-0.016574421332 0.0453300438839 0.106 1.23542115991e-38
-0.0163276323806 0.0457576858074 0.107 1.2446407229e-38
-0.0159244809638 0.0457576858074 0.107 1.12467962513e-38
-0.0159565070109 0.0470406115777 0.11 1.06021443071e-38
-0.0149768867458 0.0453300438839 0.106 1.11556740161e-38
