VERSION .7
FIELDS x y z rgb
SIZE 4 4 4 4
TYPE F F F F
COUNT 1 1 1 1
WIDTH 850
HEIGHT 1
VIEWPOINT 0 0 0 1 0 0 0
POINTS 850
DATA ascii
0.061529572076 0.0589524172247 0.171 1.15251669938e-38
0.0614466811305 0.0582629152688 0.169 1.18017538834e-38
0.0602466463057 0.0565391603792 0.164 1.15251697964e-38
0.0601223098875 0.0558496584234 0.162 1.0693974198e-38
0.0603577955281 0.0555049074454 0.161 6.54517365678e-39
0.0617217283588 0.0561944094013 0.163 4.14809008293e-39
0.0642480183118 0.0579181642909 0.168 3.77930476088e-39
0.0660395930659 0.0589524172247 0.171 4.97928287873e-39
0.0666838817787 0.0589524172247 0.171 9.86565126149e-39
0.0657532425268 0.057573413313 0.167 1.08815940494e-38
0.0655874606358 0.0568839113571 0.165 1.13418547339e-38
0.0650053401321 0.0558496584234 0.162 1.15251697964e-38
0.0664257895166 0.0565391603792 0.164 1.0786888694e-38
0.067861309982 0.0572286623351 0.166 7.28166249847e-39
0.0693119015285 0.0579181642909 0.168 4.05409798844e-39
0.0699448869305 0.0579181642909 0.168 3.77643490163e-39
0.0697376595668 0.0572286623351 0.166 4.05302179122e-39
0.0686676128156 0.0558496584234 0.162 7.37636645258e-39
0.0697056335196 0.0561944094013 0.163 1.10641916471e-38
0.0707511897642 0.0565391603792 0.164 1.13400596706e-38
0.0722394590131 0.0572286623351 0.166 1.14322553005e-38
0.0741817445772 0.0582629152688 0.169 1.09712771511e-38
0.0743757847451 0.0579181642909 0.168 8.85041753058e-39
0.0741158085979 0.0572286623351 0.166 4.24063603741e-39
0.0733905128246 0.0561944094013 0.163 3.41087536864e-39
0.0749126920058 0.0568839113571 0.165 3.41124110754e-39
0.0759921581826 0.0572286623351 0.166 4.70269598914e-39
0.0766176080442 0.0572286623351 0.166 1.01433143483e-38
0.0777083775317 0.057573413313 0.167 1.08815954507e-38
0.0788066825598 0.0579181642909 0.168 1.12503779702e-38
0.0865324954584 0.0630894289597 0.183 1.11574662768e-38
0.107240160755 0.0775689700325 0.225 1.07876075601e-38
-0.0699260480793 0.0467015122551 0.134 1.1432971364e-38
-0.0699392352752 0.0470500310033 0.135 1.14329741666e-38
-0.0694305862913 0.0470500310033 0.135 1.15251697964e-38
-0.0689219373075 0.0470500310033 0.135 1.08808793872e-38
-0.067906523225 0.0467015122551 0.134 1.12496619067e-38
-0.066898644683 0.0463529935069 0.133 1.15262459937e-38
-0.0673959903561 0.0470500310033 0.135 1.09730722145e-38
-0.0668873413722 0.0470500310033 0.135 1.15262459937e-38
-0.065395304353 0.0463529935069 0.133 1.16184402222e-38
-0.0653821171572 0.0467015122551 0.134 1.16184402222e-38
-0.065845552898 0.0473985497515 0.136 1.16184402222e-38
-0.0658135268509 0.0477470684996 0.137 1.16191604896e-38
-0.0648207193898 0.0473985497515 0.136 1.13425736e-38
-0.0647811578022 0.0477470684996 0.137 1.13418547339e-38
-0.0637958858817 0.0473985497515 0.136 1.13418547339e-38
-0.0632834691276 0.0473985497515 0.136 1.17095582536e-38
-0.0636941560849 0.0480955872478 0.138 1.17091981199e-38
-0.0636319878758 0.048444105996 0.139 1.18013937497e-38
-0.0635622841262 0.0487926247442 0.14 1.20779806393e-38
-0.063485044836 0.0491411434923 0.141 1.18939523159e-38
-0.0607213853573 0.0473985497515 0.136 1.16173654263e-38
-0.0610943946121 0.0480955872478 0.138 1.14329741666e-38
-0.0632081137226 0.0501866997368 0.144 1.16173654263e-38
-0.0600544900229 0.0480955872478 0.138 1.1801756686e-38
-0.0591031280347 0.0477470684996 0.137 1.18939523159e-38
-0.0581593015869 0.0473985497515 0.136 1.17095610562e-38
-0.0589185072924 0.048444105996 0.139 1.1156387277e-38
-0.0609154255252 0.050535218485 0.145 7.74514616944e-39
-0.0599527602262 0.0501866997368 0.144 6.0856248319e-39
-0.0569347762555 0.0480955872478 0.138 7.46855927985e-39
-0.0547796116722 0.0467015122551 0.134 1.03266238056e-38
-0.0534646598548 0.0460044747588 0.132 1.15251669938e-38
-0.0556499666001 0.0487926247442 0.14 1.1432971364e-38
-0.0539412827915 0.0477470684996 0.137 7.8373417993e-39
-0.0526451698253 0.0470500310033 0.135 3.96513095024e-39
-0.0521365208415 0.0470500310033 0.135 2.39780524256e-39
-0.0523927292185 0.0477470684996 0.137 6.36221452408e-39
-0.0526338665146 0.048444105996 0.139 1.10641916471e-38
-0.0513603601699 0.0477470684996 0.137 1.14329741666e-38
-0.0497307995365 0.0467015122551 0.134 1.1432971364e-38
-0.0495932759224 0.0470500310033 0.135 1.03266238056e-38
-0.0483574472802 0.0463529935069 0.133 4.97927727354e-39
-0.0478563338369 0.0463529935069 0.133 3.59564357765e-39
-0.0484233832596 0.0473985497515 0.136 2.58184477637e-39
-0.0472063934687 0.0467015122551 0.134 7.00723080591e-39
-0.0467015122551 0.0467015122551 0.134 1.09719960173e-38
-0.0465413820195 0.0470500310033 0.135 1.17095582536e-38
-0.045691749828 0.0467015122551 0.134 1.1432971364e-38
-0.0451868686144 0.0467015122551 0.134 8.75930090053e-39
-0.0453488827352 0.0473985497515 0.136 3.043171849e-39
-0.0445067860842 0.0470500310033 0.135 3.04138519346e-39
-0.0439981371004 0.0470500310033 0.135 2.94990702841e-39
-0.0431673437601 0.0467015122551 0.134 9.12808622258e-39
-0.0429808391327 0.0470500310033 0.135 1.15262487962e-38
-0.0431014077808 0.0477470684996 0.137 1.11574662768e-38
-0.0425852232564 0.0477470684996 0.137 1.1801756686e-38
-0.0423761120075 0.0480955872478 0.138 8.66638920715e-39
-0.0409462431975 0.0470500310033 0.135 2.85734846225e-39
-0.0407371319486 0.0473985497515 0.136 3.31797768825e-39
-0.0402247151945 0.0473985497515 0.136 5.16260354643e-39
-0.0397122984404 0.0473985497515 0.136 1.07872516303e-38
-0.0397763505347 0.0480955872478 0.138 1.15262487962e-38
-0.0392563982401 0.0480955872478 0.138 1.14340503638e-38
-0.0378943492945 0.0470500310033 0.135 1.19861479457e-38
-0.0371087691973 0.0467015122551 0.134 1.03259133473e-38
-0.0374233780132 0.0477470684996 0.137 6.45262349841e-39
-0.0374459846347 0.048444105996 0.139 5.9923628139e-39
-0.0369222645699 0.048444105996 0.139 9.03553466291e-39
-0.0358748244403 0.0477470684996 0.137 1.15269648598e-38
-0.0353586399159 0.0477470684996 0.137 1.09755847426e-38
-0.0348424553916 0.0477470684996 0.137 1.11599760023e-38
-0.0350779410323 0.0487926247442 0.14 1.13425721987e-38
-0.0360311869057 0.0508837372332 0.146 1.19861479457e-38
-0.0354810924491 0.0508837372332 0.146 1.05103018044e-38
-0.0332562241162 0.048444105996 0.139 1.07861698279e-38
-0.0324970184107 0.0480955872478 0.138 1.14322581031e-38
-0.0317453482457 0.0477470684996 0.137 1.14336972366e-38
-0.032140964122 0.0491411434923 0.141 1.13422204728e-38
-0.0327306201662 0.0508837372332 0.146 1.17110001897e-38
-0.0326213548289 0.0515807747295 0.148 1.14344133001e-38
-0.0298972569378 0.0480955872478 0.138 1.09730722145e-38
-0.0289515466049 0.0473985497515 0.136 1.15251669938e-38
-0.028230018602 0.0470500310033 0.135 1.12507296961e-38
-0.0279267130968 0.0473985497515 0.136 1.13429281285e-38
-0.02902690201 0.0501866997368 0.144 1.13425736e-38
-0.0284843430939 0.0501866997368 0.144 1.18031958195e-38
-0.0271656235062 0.0487926247442 0.14 1.13422176702e-38
-0.0262575908758 0.0480955872478 0.138 1.18957473792e-38
-0.0255511339539 0.0477470684996 0.137 1.16195150181e-38
-0.0248522125724 0.0473985497515 0.136 1.15273165857e-38
-0.0250556721659 0.0487926247442 0.14 1.1343648396e-38
-0.0247033856475 0.0491411434923 0.141 1.18035503481e-38
-0.0240006964958 0.0487926247442 0.14 1.19861451432e-38
-0.0228025455561 0.0473985497515 0.136 1.19854318822e-38
-0.0224540268079 0.0477470684996 0.137 1.2169823142e-38
-0.0219378422836 0.0477470684996 0.137 1.17095582536e-38
-0.0212652952939 0.0473985497515 0.136 1.21723328675e-38
-0.0210580679301 0.0480955872478 0.138 1.14358440258e-38
-0.0206869425604 0.048444105996 0.139 1.18028328832e-38
-0.020018163341 0.0480955872478 0.138 1.18950285131e-38
-0.0194982110464 0.0480955872478 0.138 1.18950285131e-38
-0.0192533059801 0.0487926247442 0.14 1.1987224143e-38
-0.0187258181451 0.0487926247442 0.14 1.18028328832e-38
-0.0179383541627 0.0480955872478 0.138 1.18028328832e-38
-0.0174184018681 0.0480955872478 0.138 1.17106372534e-38
-0.0170209021067 0.048444105996 0.139 1.17106372534e-38
-0.0162598125161 0.0477470684996 0.137 1.16184416235e-38
-0.0159734619771 0.048444105996 0.139 1.14340503638e-38
-0.0154497419122 0.048444105996 0.139 1.16184416235e-38
-0.0150334032996 0.0487926247442 0.14 1.17106372534e-38
-0.0145059154645 0.0487926247442 0.14 1.14340503638e-38
-0.0139784276294 0.0487926247442 0.14 1.16184416235e-38
-0.0133548616529 0.048444105996 0.139 1.17106372534e-38
-0.0129234519593 0.0487926247442 0.14 1.13418547339e-38
-0.0123959641242 0.0487926247442 0.14 1.10652678443e-38
-0.0118684762891 0.0487926247442 0.14 1.11574634742e-38
-0.0114219955144 0.0491411434923 0.141 1.12496591041e-38
-0.0108907399091 0.0491411434923 0.141 1.13418547339e-38
-0.0104329558237 0.0494896622405 0.142 1.16184416235e-38
-0.0098979324481 0.0494896622405 0.142 1.16184416235e-38
-0.00936290907253 0.0494896622405 0.142 1.15262459937e-38
-0.00882788569695 0.0494896622405 0.142 1.13418547339e-38
-0.00835126276026 0.0498381809887 0.143 9.49794213666e-39
-0.00775783894581 0.0494896622405 0.142 7.56183390953e-39
-0.00722281557024 0.0494896622405 0.142 7.74622516925e-39
-0.00673488932279 0.0498381809887 0.143 1.01433115457e-38
-0.00615276881909 0.0494896622405 0.142 1.13418547339e-38
-0.00561774544352 0.0494896622405 0.142 1.15262459937e-38
-0.00511851588532 0.0498381809887 0.143 1.15262459937e-38
-0.00467580288089 0.0508837372332 0.146 1.12496591041e-38
-0.00418222497807 0.0515807747295 0.148 8.66710527067e-39
-0.00357561396774 0.0508837372332 0.146 3.87293251777e-39
-0.00296335130203 0.0498381809887 0.143 3.31975873859e-39
-0.00240760519008 0.0494896622405 0.142 4.88708444627e-39
-0.00187258181451 0.0494896622405 0.142 1.14329741666e-38
-0.00138465556706 0.0512322559814 0.147 1.16173654263e-38
-0.000864703272493 0.0533233684704 0.153 1.17095610562e-38
-0.000288234424164 0.0533233684704 0.153 1.16173654263e-38
0.000278814998538 0.0515807747295 0.148 9.49614987592e-39
0.000825141684863 0.0508837372332 0.146 4.88636838276e-39
0.00137523614144 0.0508837372332 0.146 3.22684704522e-39
0.00193851779389 0.0512322559814 0.147 2.7658688959e-39
0.00261106478361 0.0536718872186 0.154 6.5458897203e-39
0.0032741923477 0.0550659622113 0.158 1.11556712135e-38
0.00379602852739 0.0540204059667 0.155 1.17088449926e-38
0.00415396670119 0.0512322559814 0.147 1.18932362524e-38
0.00467580288089 0.0508837372332 0.146 1.17091981199e-38
0.00522589733746 0.0508837372332 0.146 6.36149565797e-39
0.00577599179404 0.0508837372332 0.146 2.58147763617e-39
0.00671605047154 0.0540204059667 0.155 2.39708637645e-39
0.00725295773224 0.0536718872186 0.154 2.02830385699e-39
0.00783319435082 0.0536718872186 0.154 8.94297609674e-39
0.00819490029487 0.0522778122259 0.15 1.18010378199e-38
0.00870166539356 0.0519292934777 0.149 1.161700249e-38
0.00926306316089 0.0519292934777 0.149 1.10656307806e-38
0.0098903969076 0.0522778122259 0.15 1.05117409379e-38
0.0107343774437 0.0536718872186 0.154 4.24136191002e-39
0.0113146140623 0.0536718872186 0.154 2.67332013882e-39
0.0115858935203 0.0522778122259 0.15 2.58112450896e-39
0.0119080378767 0.0512322559814 0.147 5.25551383851e-39
0.0124619001036 0.0512322559814 0.147 1.01429584185e-38
0.0131043049313 0.0515807747295 0.148 1.12500220404e-38
0.0138465556706 0.0522778122259 0.15 1.13418575365e-38
0.0144117212082 0.0522778122259 0.15 1.21705392055e-38
0.0150767326574 0.0526263309741 0.151 9.86492959278e-39
0.0155420522834 0.0522778122259 0.15 5.5313748555e-39
0.0159998363688 0.0519292934777 0.149 3.22648410891e-39
0.0166723833585 0.0522778122259 0.15 5.07075683989e-39
0.0173524658887 0.0526263309741 0.151 8.94369216026e-39
0.0178027144337 0.0522778122259 0.15 1.12496619067e-38
0.0182454274381 0.0519292934777 0.149 1.17106358521e-38
0.0188068252054 0.0519292934777 0.149 1.14340489625e-38
0.0193682229728 0.0519292934777 0.149 1.18028328832e-38
0.020063376584 0.0522778122259 0.15 1.09719932147e-38
0.0207660657357 0.0526263309741 0.151 8.02173586162e-39
0.0214762904279 0.0529748497222 0.152 7.37636925518e-39
0.022048991506 0.0529748497222 0.152 9.49615267852e-39
0.0226216925841 0.0529748497222 0.152 1.12478696459e-38
0.0231943936622 0.0529748497222 0.152 1.11574634742e-38
0.0239234572056 0.0533233684704 0.153 1.14340503638e-38
0.0246600562896 0.0536718872186 0.154 1.15251669938e-38
0.0254041909141 0.0540204059667 0.155 1.14329741666e-38
0.0261558610791 0.0543689247149 0.156 1.18932334498e-38
0.0264007661454 0.0536718872186 0.154 1.14322553005e-38
0.0268058014473 0.0533233684704 0.153 1.13400624732e-38
0.0275612393825 0.0536718872186 0.154 1.12478668433e-38
0.0283242128582 0.0540204059667 0.155 1.09734351508e-38
0.0290947218745 0.0543689247149 0.156 1.12503779702e-38
0.0296824940335 0.0543689247149 0.156 1.14347678286e-38
0.0298821858568 0.0536718872186 0.154 1.17106358521e-38
0.0306602304136 0.0540204059667 0.155 1.13418533326e-38
0.0312442348024 0.0540204059667 0.155 1.13418547339e-38
0.0320335826699 0.0543689247149 0.156 1.17095638588e-38
0.0326213548289 0.0543689247149 0.156 1.15248166692e-38
0.0334220060072 0.0547174434631 0.157 1.12496619067e-38
0.0342301927259 0.0550659622113 0.158 1.11574662768e-38
0.0348255004255 0.0550659622113 0.158 1.12496619067e-38
0.0351966257952 0.0547174434631 0.157 1.17095610562e-38
0.0355602156244 0.0543689247149 0.156 1.15251697964e-38
0.0366114235242 0.0550659622113 0.158 1.16173654263e-38
0.0372067312238 0.0550659622113 0.158 1.170884219e-38
0.0378020389234 0.0550659622113 0.158 1.16166465602e-38
0.038397346623 0.0550659622113 0.158 1.12496591041e-38
0.0387458653712 0.0547174434631 0.157 1.12496591041e-38
0.0393374053005 0.0547174434631 0.157 1.12496591041e-38
0.0401832697217 0.0550659622113 0.158 1.11574634742e-38
0.0407785774213 0.0550659622113 0.158 1.13418547339e-38
0.0408501650561 0.0543689247149 0.156 1.12496591041e-38
0.0417035650178 0.0547174434631 0.157 1.13418547339e-38
0.0422951049471 0.0547174434631 0.157 1.12496591041e-38
0.0431598082196 0.0550659622113 0.158 1.1525172599e-38
0.044308978146 0.0557629997076 0.16 1.1525172599e-38
0.0446311225025 0.0554144809594 0.159 1.14329741666e-38
0.0452301979723 0.0554144809594 0.159 1.14329741666e-38
0.0458292734421 0.0554144809594 0.159 1.15251697964e-38
0.0461363467175 0.0550659622113 0.158 1.16173626237e-38
0.0467316544171 0.0550659622113 0.158 1.16173626237e-38
0.0473269621167 0.0550659622113 0.158 1.16173626237e-38
0.0482255753215 0.0554144809594 0.159 1.13407785367e-38
0.050052943893 0.0568085559521 0.163 1.15251697964e-38
0.0509779314895 0.0571570747003 0.164 1.15251697964e-38
0.0509666281787 0.056460037204 0.162 1.12485829068e-38
0.0512586303731 0.0561115184558 0.161 1.14329741666e-38
0.0521873857399 0.056460037204 0.162 1.16173654263e-38
0.0531236766471 0.0568085559521 0.163 1.16173654263e-38
0.053737823198 0.0568085559521 0.163 1.15251697964e-38
0.054685417416 0.0571570747003 0.164 1.11574634742e-38
0.055303331737 0.0571570747003 0.164 1.09730722145e-38
0.0559212460581 0.0571570747003 0.164 1.0604289695e-38
0.0558496584234 0.056460037204 0.162 1.01433115457e-38
0.056460037204 0.056460037204 0.162 1.05120940652e-38
0.0570704159845 0.056460037204 0.162 1.07886809547e-38
0.0580368490538 0.0568085559521 0.163 1.12496591041e-38
0.0604501058992 0.058551149693 0.168 1.15262459937e-38
0.0607195014722 0.0582026309448 0.167 1.13418575365e-38
0.0609813615046 0.0578541121966 0.166 1.12496619067e-38
0.0604934352571 0.0568085559521 0.163 1.07886837573e-38
0.060732688668 0.056460037204 0.162 9.49794493926e-39
0.0613430674486 0.056460037204 0.162 7.65403234199e-39
0.0631007322705 0.0575055934485 0.165 7.74622797185e-39
0.0656533966152 0.0592481871893 0.17 8.76037990035e-39
0.0662939175578 0.0592481871893 0.17 1.04199012379e-38
0.0657532425268 0.0582026309448 0.167 1.15251697964e-38
0.0659849603973 0.0578541121966 0.166 1.15251697964e-38
0.0658078751955 0.0571570747003 0.164 1.13407785367e-38
0.0664257895166 0.0571570747003 0.164 1.09719960173e-38
0.067861309982 0.0578541121966 0.166 8.39051838108e-39
0.0701370432133 0.0592481871893 0.17 5.34806259559e-39
0.0707775641559 0.0592481871893 0.17 3.96512814764e-39
0.0705778723326 0.058551149693 0.168 4.97928007613e-39
0.069515361122 0.0571570747003 0.164 9.49794213666e-39
0.0701332754431 0.0571570747003 0.164 1.04198984353e-38
0.0698883703768 0.056460037204 0.162 1.15251669938e-38
0.0722394590131 0.0578541121966 0.166 1.15251669938e-38
0.0746206898114 0.0592481871893 0.17 1.09716330809e-38
0.0748184977496 0.0588996684412 0.169 8.94261035784e-39
0.0745622893725 0.0582026309448 0.167 4.79380701399e-39
0.0747412584594 0.0578541121966 0.166 3.7796550855e-39
0.0749126920058 0.0575055934485 0.165 3.22756310873e-39
0.0769077263535 0.058551149693 0.168 4.97928007613e-39
0.0766176080442 0.0578541121966 0.166 1.03266266082e-38
0.0777083775317 0.0582026309448 0.167 1.14329741666e-38
0.0792757699559 0.0588996684412 0.169 1.12485829068e-38
0.0870053506249 0.0641274496637 0.184 1.17095610562e-38
-0.0699430030454 0.048263253024 0.137 1.13418575365e-38
-0.0673997581263 0.0468541069503 0.133 1.08808793872e-38
-0.066898644683 0.0468541069503 0.133 1.12496619067e-38
-0.0663975312397 0.0468541069503 0.133 1.09730722145e-38
-0.0658964177964 0.0468541069503 0.133 1.13418547339e-38
-0.065395304353 0.0468541069503 0.133 1.14340503638e-38
-0.0653821171572 0.0472063934687 0.134 1.15262445924e-38
-0.0653613944208 0.0475586799871 0.135 1.17106358521e-38
-0.0653331361439 0.0479109665055 0.136 1.17106372534e-38
-0.0643440964532 0.0475586799871 0.135 1.16184416235e-38
-0.0638354474693 0.0475586799871 0.135 1.17106372534e-38
-0.0633267984855 0.0475586799871 0.135 1.18017538834e-38
-0.0628181495017 0.0475586799871 0.135 1.17095582536e-38
-0.0627710523736 0.0479109665055 0.136 1.17095582536e-38
-0.0631742037904 0.0486155395424 0.138 1.18935893796e-38
-0.0622002351806 0.048263253024 0.137 1.20779806393e-38
-0.0616840506563 0.048263253024 0.137 1.19861479457e-38
-0.061167866132 0.048263253024 0.137 1.18939523159e-38
-0.0606516816076 0.048263253024 0.137 1.17095610562e-38
-0.0614523327859 0.0493201125792 0.14 1.17095610562e-38
-0.059619312559 0.048263253024 0.137 1.1801756686e-38
-0.0591031280347 0.048263253024 0.137 1.1801756686e-38
-0.0585869435104 0.048263253024 0.137 1.16173654263e-38
-0.0584946331392 0.0486155395424 0.138 1.13407785367e-38
-0.0583947872276 0.0489678260608 0.139 1.1432971364e-38
-0.0578710671628 0.0489678260608 0.139 1.1432971364e-38
-0.0561096345707 0.0479109665055 0.136 1.17095582536e-38
-0.0543708086 0.0468541069503 0.133 1.17095582536e-38
-0.0542747304587 0.0472063934687 0.134 1.16173626237e-38
-0.0557761869035 0.0489678260608 0.139 1.15251669938e-38
-0.0572399656458 0.0507292586529 0.144 1.1432971364e-38
-0.0543350147827 0.0486155395424 0.138 1.05110150653e-38
-0.0522552056044 0.0472063934687 0.134 8.39052118367e-39
-0.0525227172922 0.0479109665055 0.136 8.29832555381e-39
-0.0531575865794 0.0489678260608 0.139 1.03266266082e-38
-0.0541485101553 0.0503769721345 0.143 1.17095610562e-38
-0.0517352533098 0.0486155395424 0.138 1.15251697964e-38
-0.0501019249062 0.0475586799871 0.135 1.17095582536e-38
-0.0495932759224 0.0475586799871 0.135 1.08797975848e-38
-0.0490846269386 0.0475586799871 0.135 6.54660298121e-39
-0.0500152661904 0.0489678260608 0.139 3.503801075e-39
-0.0487794375483 0.048263253024 0.137 4.05697345289e-39
-0.0475586799871 0.0475586799871 0.135 8.85114340318e-39
-0.0463529935069 0.0468541069503 0.133 1.15251697964e-38
-0.0458518800636 0.0468541069503 0.133 1.18939523159e-38
-0.0450097834126 0.0465018204318 0.132 1.16173626237e-38
-0.044849653177 0.0468541069503 0.133 8.94369216026e-39
-0.045015435068 0.0475586799871 0.135 3.043171849e-39
-0.0445067860842 0.0475586799871 0.135 3.13393815443e-39
-0.0439981371004 0.0475586799871 0.135 3.68782799713e-39
-0.0428451994037 0.0468541069503 0.133 9.31247748231e-39
-0.0426624625466 0.0472063934687 0.134 1.15262487962e-38
-0.0431014077808 0.048263253024 0.137 1.18950285131e-38
-0.0422743822108 0.0479109665055 0.136 1.13407785367e-38
-0.0420690387321 0.048263253024 0.137 7.09906349948e-39
-0.0409462431975 0.0475586799871 0.135 2.39636751033e-39
-0.0407371319486 0.0479109665055 0.136 2.48821421688e-39
-0.0399289452298 0.0475586799871 0.135 3.87186472835e-39
-0.0397122984404 0.0479109665055 0.136 1.02344337809e-38
-0.0391998816863 0.0479109665055 0.136 1.13418547339e-38
-0.0389719315862 0.048263253024 0.137 1.12496591041e-38
-0.0378943492945 0.0475586799871 0.135 1.12485829068e-38
-0.0376626314241 0.0479109665055 0.136 6.54589252289e-39
-0.0376965413564 0.0486155395424 0.138 2.76515563498e-39
-0.0371765890618 0.0486155395424 0.138 2.85735126484e-39
-0.0369222645699 0.0489678260608 0.139 5.16331820865e-39
-0.0353511043754 0.0475586799871 0.135 1.07893998209e-38
-0.0351005476538 0.0479109665055 0.136 1.09748658765e-38
-0.0345881308997 0.0479109665055 0.136 1.12514527661e-38
-0.0340757141456 0.0479109665055 0.136 1.15269634585e-38
-0.0347972421486 0.0496723990977 0.141 8.20612712135e-39
-0.033779944181 0.0489678260608 0.139 4.51686699719e-39
-0.0325384638834 0.0479109665055 0.136 5.16223640623e-39
-0.03226153277 0.048263253024 0.137 8.75858483702e-39
-0.0315136303753 0.0479109665055 0.136 1.1525172599e-38
-0.0310012136212 0.0479109665055 0.136 1.1157110347e-38
-0.0320580731765 0.0503769721345 0.143 1.13422176702e-38
-0.03196011115 0.0510815451713 0.145 1.1710640056e-38
-0.0298972569378 0.0486155395424 0.138 1.09730722145e-38
-0.0287386675858 0.0475586799871 0.135 9.86564565629e-39
-0.0284391298509 0.0479109665055 0.136 8.85257132632e-39
-0.0285427435328 0.0489678260608 0.139 1.09730708132e-38
-0.0296316291352 0.0517861182082 0.147 1.18950285131e-38
-0.0292755748465 0.0521384047266 0.148 1.14340531664e-38
-0.0273596636741 0.0496723990977 0.141 1.18028356858e-38
-0.0262575908758 0.0486155395424 0.138 1.17106372534e-38
-0.0257376385813 0.0486155395424 0.138 1.17106358521e-38
-0.0250349494295 0.048263253024 0.137 1.17106358521e-38
-0.0257715485135 0.0507292586529 0.144 1.14347678286e-38
-0.0254041909141 0.0510815451713 0.145 1.11574634742e-38
-0.024514997135 0.0503769721345 0.143 1.1801756686e-38
-0.0229702113323 0.048263253024 0.137 1.21705392055e-38
-0.0224540268079 0.048263253024 0.137 1.20783435756e-38
-0.0220979725193 0.0486155395424 0.138 1.23549304652e-38
-0.0222034700863 0.0500246856161 0.142 1.15262459937e-38
-0.0221262307961 0.0510815451713 0.145 1.16191590883e-38
-0.0211334233351 0.0500246856161 0.142 1.13418547339e-38
-0.0203082816503 0.0493201125792 0.14 1.16184416235e-38
-0.0197807938152 0.0493201125792 0.14 1.15262459937e-38
-0.0192533059801 0.0493201125792 0.14 1.18028328832e-38
-0.0185920623012 0.0489678260608 0.139 1.14340503638e-38
-0.0180683422363 0.0489678260608 0.139 1.18028328832e-38
-0.0176708424749 0.0493201125792 0.14 1.18950285131e-38
-0.0168984495736 0.0486155395424 0.138 1.17106372534e-38
-0.0162598125161 0.048263253024 0.137 1.18028328832e-38
-0.0159734619771 0.0489678260608 0.139 1.15262459937e-38
-0.0153385926898 0.0486155395424 0.138 1.15262459937e-38
-0.0149260218474 0.0489678260608 0.139 1.15262459937e-38
-0.0145059154645 0.0493201125792 0.14 1.15262459937e-38
-0.0138785817178 0.0489678260608 0.139 1.16184416235e-38
-0.0133548616529 0.0489678260608 0.139 1.16184416235e-38
-0.0128311415881 0.0489678260608 0.139 1.15262459937e-38
-0.0123959641242 0.0493201125792 0.14 1.15262459937e-38
-0.0118684762891 0.0493201125792 0.14 1.14340503638e-38
-0.011340988454 0.0493201125792 0.14 1.14340503638e-38
-0.010813500619 0.0493201125792 0.14 1.14340503638e-38
-0.0104329558237 0.0500246856161 0.142 1.15262459937e-38
-0.00996763619773 0.0503769721345 0.143 1.16184416235e-38
-0.00929697309314 0.0496723990977 0.141 1.16184416235e-38
-0.00882788569695 0.0500246856161 0.142 1.15262459937e-38
-0.00829286232138 0.0500246856161 0.142 1.16184416235e-38
-0.00775783894581 0.0500246856161 0.142 1.12496591041e-38
-0.00722281557024 0.0500246856161 0.142 1.16184416235e-38
-0.00673488932279 0.0503769721345 0.143 1.18028328832e-38
-0.00610943946121 0.0496723990977 0.141 1.14340503638e-38
-0.00557818385589 0.0496723990977 0.141 1.16184416235e-38
-0.00511851588532 0.0503769721345 0.143 1.16184416235e-38
-0.0045797247395 0.0503769721345 0.143 1.14340503638e-38
-0.00406919187056 0.0507292586529 0.144 1.16173654263e-38
-0.00352663295448 0.0507292586529 0.144 9.40467030957e-39
-0.00296335130203 0.0503769721345 0.143 9.22027904985e-39
-0.00240760519008 0.0500246856161 0.142 1.02344309783e-38
-0.00187258181451 0.0500246856161 0.142 1.15251697964e-38
-0.00135639729019 0.0507292586529 0.144 1.16173654263e-38
-0.000830793340238 0.0517861182082 0.147 1.16173654263e-38
-0.000275047228288 0.0514338316898 0.146 1.16173654263e-38
0.000273163343162 0.0510815451713 0.145 1.09719960173e-38
0.000819490029487 0.0510815451713 0.145 7.09977956299e-39
0.00136581671581 0.0510815451713 0.145 4.88708444627e-39
0.00193851779389 0.0517861182082 0.147 4.97928007613e-39
0.00250933498684 0.0521384047266 0.148 9.49686593944e-39
0.0030876877203 0.052490691245 0.149 1.15251697964e-38
0.00367357599425 0.0528429777635 0.15 1.15251697964e-38
0.00412570842431 0.0514338316898 0.146 1.17095610562e-38
0.00467580288089 0.0514338316898 0.146 1.15255243249e-38
0.00526169115484 0.0517861182082 0.147 7.46855927985e-39
0.00577599179404 0.0514338316898 0.146 3.50414999832e-39
0.00671605047154 0.0546044103556 0.155 2.76658776201e-39
0.00739424911663 0.0553089833924 0.157 2.85878339188e-39
0.0078840592492 0.0546044103556 0.155 8.85149653039e-39
0.00819490029487 0.0528429777635 0.15 1.18017538834e-38
0.00870166539356 0.052490691245 0.149 1.17099155847e-38
0.00920089495176 0.0521384047266 0.148 1.11578264105e-38
0.0098903969076 0.0528429777635 0.15 1.00511187184e-38
0.0109434886926 0.0553089833924 0.157 4.42575316974e-39
0.0116085001418 0.0556612699108 0.158 2.85806732836e-39
0.011972089971 0.0546044103556 0.155 2.95026295822e-39
0.0120700519975 0.052490691245 0.149 3.59599250097e-39
0.0126314497648 0.052490691245 0.149 1.04199012379e-38
0.0132813901331 0.0528429777635 0.15 1.14344133001e-38
0.0141234867841 0.0538998373187 0.153 1.1710640056e-38
0.0150842681979 0.0553089833924 0.157 1.1801756686e-38
0.0156758081273 0.0553089833924 0.157 8.57419077469e-39
0.0159565070109 0.0542521238372 0.154 3.59526662837e-39
0.0162145992731 0.0531952642819 0.151 2.39672344014e-39
0.0167835325809 0.0531952642819 0.151 2.58147483358e-39
0.0174673828814 0.0535475508003 0.152 6.45441015395e-39
0.0179213991966 0.0531952642819 0.151 1.08808793872e-38
0.0188576901038 0.0542521238372 0.154 1.18950271118e-38
0.019311706419 0.0538998373187 0.153 1.16184402222e-38
0.0194982110464 0.0528429777635 0.15 1.15262459937e-38
0.020063376584 0.0528429777635 0.15 8.11392868889e-39
0.0206285421216 0.0528429777635 0.15 3.043171849e-39
0.0211937076591 0.0528429777635 0.15 3.22756591133e-39
0.022048991506 0.0535475508003 0.152 4.5175886659e-39
0.0229193464339 0.0542521238372 0.154 9.77273956811e-39
0.0234995830525 0.0542521238372 0.154 1.11574634742e-38
0.0236107322748 0.0531952642819 0.151 1.13418547339e-38
0.0243397958183 0.0535475508003 0.152 1.16173626237e-38
0.0250763949023 0.0538998373187 0.153 1.13407785367e-38
0.0259881953029 0.0546044103556 0.155 1.00493208525e-38
0.0264007661454 0.0542521238372 0.154 6.91466943715e-39
0.0269810027639 0.0542521238372 0.154 6.91467223975e-39
0.0277402084694 0.0546044103556 0.155 8.48199794743e-39
0.0281414760011 0.0542521238372 0.154 1.06046526313e-38
0.0287217126197 0.0542521238372 0.154 1.11581823403e-38
0.0296824940335 0.054956696874 0.156 1.14340503638e-38
0.0300762260247 0.0546044103556 0.155 1.16184402222e-38
0.0302646145373 0.0538998373187 0.153 1.15262459937e-38
0.031042659094 0.0542521238372 0.154 1.15251697964e-38
0.0318282391912 0.0546044103556 0.155 1.00500425212e-38
0.0326213548289 0.054956696874 0.156 9.49651281222e-39
0.033209126988 0.054956696874 0.156 1.0327705608e-38
0.0340135459365 0.0553089833924 0.157 1.11574662768e-38
0.0346050858658 0.0553089833924 0.157 1.11574662768e-38
0.0349724434653 0.054956696874 0.156 1.16173654263e-38
0.0355602156244 0.054956696874 0.156 1.16173654263e-38
0.0361479877834 0.054956696874 0.156 1.13407785367e-38
0.0369712455832 0.0553089833924 0.157 1.13400596706e-38
0.0373235321016 0.054956696874 0.156 1.13400596706e-38
0.0379113042607 0.054956696874 0.156 1.08808765846e-38
0.0387458653712 0.0553089833924 0.157 1.09730722145e-38
0.0393374053005 0.0553089833924 0.157 1.10652678443e-38
0.0401832697217 0.0556612699108 0.158 1.12496591041e-38
0.040262392897 0.054956696874 0.156 1.11574634742e-38
0.0405883050237 0.0546044103556 0.155 1.13418547339e-38
0.0411723094125 0.0546044103556 0.155 1.12496591041e-38
0.0422951049471 0.0553089833924 0.157 1.10652678443e-38
0.0428866448765 0.0553089833924 0.157 1.087980319e-38
0.0437551159192 0.0556612699108 0.158 1.10641944497e-38
0.0446311225025 0.0560135564293 0.159 1.13407785367e-38
0.0455146646262 0.0563658429477 0.16 1.14329741666e-38
0.045541039018 0.0556612699108 0.158 1.15251697964e-38
0.0461363467175 0.0556612699108 0.158 1.15251669938e-38
0.0470274243818 0.0560135564293 0.159 1.16173626237e-38
0.0476264998516 0.0560135564293 0.159 1.15251669938e-38
0.0479222698163 0.0556612699108 0.158 1.17095610562e-38
0.0491317240667 0.0563658429477 0.16 1.14329741666e-38
0.0500454083525 0.0567181294661 0.161 1.12485829068e-38
0.0506520193628 0.0567181294661 0.161 1.13407785367e-38
0.0512586303731 0.0567181294661 0.161 1.13407785367e-38
0.0521873857399 0.0570704159845 0.162 1.15251697964e-38
0.0527977645205 0.0570704159845 0.162 1.16173654263e-38
0.0530784634041 0.0567181294661 0.161 1.15251697964e-38
0.0540185220816 0.0570704159845 0.162 1.13418547339e-38
0.0546289008622 0.0570704159845 0.162 1.13418547339e-38
0.0555802628505 0.057422702503 0.163 1.11574634742e-38
0.0558496584234 0.0570704159845 0.162 1.09730722145e-38
0.0568085559521 0.057422702503 0.163 1.12496591041e-38
0.057422702503 0.057422702503 0.163 1.13418547339e-38
0.0580368490538 0.057422702503 0.163 1.13418547339e-38
0.0593706397225 0.0581272755398 0.165 1.13418547339e-38
0.0599923218138 0.0581272755398 0.165 1.14340531664e-38
0.0609813615046 0.0584795620582 0.166 1.14340531664e-38
0.0608645606268 0.0577749890214 0.164 1.14340531664e-38
0.0614824749479 0.0577749890214 0.164 1.10652706469e-38
0.0613430674486 0.0570704159845 0.162 1.07886837573e-38
0.0623358749096 0.057422702503 0.163 1.06964881275e-38
0.0641086108125 0.0584795620582 0.166 1.07886837573e-38
0.065124024895 0.0588318485767 0.167 1.10652706469e-38
0.0653595105357 0.0584795620582 0.166 1.14329741666e-38
0.0655874606358 0.0581272755398 0.165 1.14329741666e-38
0.0658078751955 0.0577749890214 0.164 1.14329741666e-38
0.0656157189127 0.0570704159845 0.162 1.1156387277e-38
0.0666349007655 0.057422702503 0.163 1.10641916471e-38
0.0680741890012 0.0581272755398 0.165 9.40467030957e-39
0.0695285483179 0.0588318485767 0.167 8.85149653039e-39
0.0701577659497 0.0588318485767 0.167 9.40467030957e-39
0.0703631094283 0.0584795620582 0.166 1.05120940652e-38
0.0705609173665 0.0581272755398 0.165 1.11563844744e-38
0.0707511897642 0.0577749890214 0.164 1.1432971364e-38
0.0713691040852 0.0577749890214 0.164 1.1432971364e-38
0.0746206898114 0.0598887081319 0.17 1.15248068601e-38
0.0748184977496 0.0595364216135 0.169 1.06028505615e-38
0.0745622893725 0.0588318485767 0.167 7.56039477601e-39
0.0747412584594 0.0584795620582 0.166 5.62428654888e-39
0.0749126920058 0.0581272755398 0.165 5.90123637477e-39
0.0759921581826 0.0584795620582 0.166 8.02173586162e-39
0.0770791598999 0.0588318485767 0.167 1.07876047575e-38
0.0786390167836 0.0595364216135 0.169 1.13407785367e-38
0.0806830321445 0.0605932811688 0.172 1.14329741666e-38
0.0870053506249 0.0648207193898 0.184 1.13407785367e-38
0.107716783692 0.0796167531636 0.226 1.06032134978e-38
-0.0668873413722 0.0480673289709 0.135 1.15251697964e-38
-0.0649036103354 0.0469991661049 0.132 1.17095582536e-38
-0.0648941909097 0.0473552203936 0.133 1.18017538834e-38
-0.0648772359436 0.0477112746823 0.134 1.16173626237e-38
-0.06437235473 0.0477112746823 0.134 1.14329741666e-38
-0.0638674735165 0.0477112746823 0.134 1.1801756686e-38
-0.0628897371365 0.0473552203936 0.133 1.13407785367e-38
-0.0623886236931 0.0473552203936 0.133 1.13407785367e-38
-0.0614221906239 0.0469991661049 0.132 1.17095610562e-38
-0.0623095005179 0.0480673289709 0.135 1.1801756686e-38
-0.0627164197049 0.0487794375483 0.137 1.16184444261e-38
-0.0617462188654 0.0484233832596 0.136 1.1710640056e-38
-0.0612338021114 0.0484233832596 0.136 1.17095610562e-38
-0.0607213853573 0.0484233832596 0.136 1.17095610562e-38
-0.0606516816076 0.0487794375483 0.137 1.17095610562e-38
-0.0601354970833 0.0487794375483 0.137 1.16173654263e-38
-0.059619312559 0.0487794375483 0.137 1.1801756686e-38
-0.0591031280347 0.0487794375483 0.137 1.16173654263e-38
-0.0585869435104 0.0487794375483 0.137 1.15251697964e-38
-0.058070758986 0.0487794375483 0.137 1.15251697964e-38
-0.0567143616959 0.0480673289709 0.135 1.13407757341e-38
-0.056205712712 0.0480673289709 0.135 1.18017538834e-38
-0.0556970637282 0.0480673289709 0.135 1.18017538834e-38
-0.0547796116722 0.0477112746823 0.134 1.17095582536e-38
-0.0542747304587 0.0477112746823 0.134 1.15251669938e-38
-0.0553749193718 0.049135491837 0.138 1.15251669938e-38
-0.0548549670772 0.049135491837 0.138 1.1432971364e-38
-0.0535475508003 0.0484233832596 0.136 1.15251669938e-38
-0.0518652413835 0.0473552203936 0.133 1.13407813393e-38
-0.0517503243908 0.0477112746823 0.134 1.13407813393e-38
-0.0523927292185 0.0487794375483 0.137 1.13407785367e-38
-0.0541485101553 0.0509157632803 0.143 1.14329741666e-38
-0.0517352533098 0.049135491837 0.138 1.17095610562e-38
-0.0504730502759 0.0484233832596 0.136 1.17095582536e-38
-0.0499606335218 0.0484233832596 0.136 1.17095582536e-38
-0.0490846269386 0.0480673289709 0.135 1.06954063251e-38
-0.0518143764851 0.051271817569 0.144 9.5890615693e-39
-0.0509157632803 0.0509157632803 0.143 1.04188250407e-38
-0.0486155395424 0.049135491837 0.138 1.14329769692e-38
-0.0467015122551 0.0477112746823 0.134 1.17095638588e-38
-0.0458518800636 0.0473552203936 0.133 1.1801756686e-38
-0.0463737162433 0.0484233832596 0.136 1.16173654263e-38
-0.0468729458015 0.0494915461256 0.139 1.02344281757e-38
-0.0460157780695 0.049135491837 0.138 6.36221172149e-39
-0.0445067860842 0.0480673289709 0.135 4.88565512184e-39
-0.0436722249737 0.0477112746823 0.134 6.45369689303e-39
-0.0428451994037 0.0473552203936 0.133 1.06032134978e-38
-0.0426624625466 0.0477112746823 0.134 1.15262459937e-38
-0.0431014077808 0.0487794375483 0.137 1.12496591041e-38
-0.0422743822108 0.0484233832596 0.136 1.16173626237e-38
-0.0420690387321 0.0487794375483 0.137 8.20540825524e-39
-0.0409462431975 0.0480673289709 0.135 3.13428847905e-39
-0.0401380564787 0.0477112746823 0.134 2.67260267401e-39
-0.0396331752652 0.0477112746823 0.134 4.33284147636e-39
-0.0391282940516 0.0477112746823 0.134 1.05110178679e-38
-0.0389116472622 0.0480673289709 0.135 1.13418533326e-38
-0.0384029982784 0.0480673289709 0.135 1.12496577028e-38
-0.0376136504109 0.0477112746823 0.134 1.13407757341e-38
-0.0373857003107 0.0480673289709 0.135 5.90052031125e-39
-0.0374233780132 0.0487794375483 0.137 2.76515283238e-39
-0.0369071934889 0.0487794375483 0.137 3.59383730393e-39
-0.0363910089646 0.0487794375483 0.137 3.96441488672e-39
-0.0353511043754 0.0480673289709 0.135 1.08808765846e-38
-0.0348424553916 0.0480673289709 0.135 1.08826702466e-38
-0.0345881308997 0.0484233832596 0.136 1.10670615064e-38
-0.0340757141456 0.0484233832596 0.136 1.08808751833e-38
-0.033810086343 0.0487794375483 0.137 5.16295246975e-39
-0.0332939018187 0.0487794375483 0.137 3.04101665197e-39
-0.0325384638834 0.0484233832596 0.136 2.67223413251e-39
-0.0320260471294 0.0484233832596 0.136 5.53101892569e-39
-0.0315136303753 0.0484233832596 0.136 1.11556712135e-38
-0.0307732635211 0.0480673289709 0.135 1.12493059768e-38
-0.0307129791971 0.0487794375483 0.137 1.15262487962e-38
-0.0306376237921 0.0494915461256 0.139 1.13418575365e-38
-0.0296806101484 0.0487794375483 0.137 6.54660298121e-39
-0.0289515466049 0.0484233832596 0.136 3.59598269188e-39
-0.028230018602 0.0480673289709 0.135 3.50522899814e-39
-0.0277213696182 0.0480673289709 0.135 7.3774426498e-39
-0.0284221748848 0.050203654703 0.141 1.15262459937e-38
-0.0280887272176 0.0505597089916 0.142 1.15262459937e-38
-0.0269715833383 0.0494915461256 0.139 1.17106372534e-38
-0.0260673184782 0.0487794375483 0.137 1.1987224143e-38
-0.0259241432087 0.0494915461256 0.139 1.01433115457e-38
-0.0254004231438 0.0494915461256 0.139 7.56183671213e-39
-0.0257715485135 0.051271817569 0.144 7.3774454524e-39
-0.025929794864 0.0526960347237 0.148 9.59014056912e-39
-0.0243435635886 0.0505597089916 0.142 1.1710640056e-38
-0.0228025455561 0.0484233832596 0.136 1.16184444261e-38
-0.0226179248138 0.049135491837 0.138 1.1710640056e-38
-0.0219378422836 0.0487794375483 0.137 1.18950313157e-38
-0.0226725574825 0.0516278718577 0.145 1.18028356858e-38
-0.0222788254913 0.0519839261463 0.146 1.14340531664e-38
-0.0218775579596 0.052339980435 0.147 1.04198984353e-38
-0.0205983999596 0.0505597089916 0.142 1.09730722145e-38
-0.0197807938152 0.0498476004143 0.14 1.16184416235e-38
-0.0193908295943 0.050203654703 0.141 1.18028328832e-38
-0.0191270856767 0.0509157632803 0.143 1.1987224143e-38
-0.0189782587518 0.0519839261463 0.146 1.16184416235e-38
-0.0183019439919 0.0516278718577 0.145 1.17106372534e-38
-0.0171433546398 0.0498476004143 0.14 1.1987224143e-38
-0.0162598125161 0.0487794375483 0.137 1.16184416235e-38
-0.0158585449844 0.049135491837 0.138 1.14340503638e-38
-0.0155608911346 0.0498476004143 0.14 1.16184416235e-38
-0.0152481662038 0.0505597089916 0.142 1.16184416235e-38
-0.0148167565101 0.0509157632803 0.143 1.16184416235e-38
-0.014078273541 0.050203654703 0.141 1.16184416235e-38
-0.0133548616529 0.0494915461256 0.139 1.15262459937e-38
-0.0128311415881 0.0494915461256 0.139 1.15262459937e-38
-0.0123959641242 0.0498476004143 0.14 1.15262459937e-38
-0.0118684762891 0.0498476004143 0.14 1.15262459937e-38
-0.0114219955144 0.050203654703 0.141 1.15262459937e-38
-0.0108907399091 0.050203654703 0.141 1.15262459937e-38
-0.0104329558237 0.0505597089916 0.142 1.14340503638e-38
-0.00996763619773 0.0509157632803 0.143 1.15262459937e-38
-0.00942884505191 0.0509157632803 0.143 1.16184416235e-38
-0.00882788569695 0.0505597089916 0.142 1.16184416235e-38
-0.0082344618825 0.050203654703 0.141 1.16184416235e-38
-0.00770320627718 0.050203654703 0.141 1.15262459937e-38
-0.00717195067185 0.050203654703 0.141 1.16184416235e-38
-0.00668779219466 0.0505597089916 0.142 1.15262459937e-38
-0.00610943946121 0.050203654703 0.141 1.15262459937e-38
-0.00557818385589 0.050203654703 0.141 1.16184416235e-38
-0.00504692825056 0.050203654703 0.141 1.17106372534e-38
-0.00451567264524 0.050203654703 0.141 1.16184416235e-38
-0.00404093359368 0.0509157632803 0.143 1.15251697964e-38
-0.00352663295448 0.051271817569 0.144 1.16173654263e-38
-0.00296335130203 0.0509157632803 0.143 1.14329741666e-38
-0.00242456015621 0.0509157632803 0.143 1.16173654263e-38
-0.00187258181451 0.0505597089916 0.142 1.15251697964e-38
-0.00134697786456 0.0509157632803 0.143 1.15251697964e-38
-0.000819490029487 0.0516278718577 0.145 1.16173654263e-38
-0.000271279458037 0.051271817569 0.144 1.16173654263e-38
0.000273163343162 0.0516278718577 0.145 1.15251697964e-38
0.000825141684863 0.0519839261463 0.146 1.10641916471e-38
0.00136581671581 0.0516278718577 0.145 1.06954091277e-38
0.00192533059801 0.0519839261463 0.146 1.10641916471e-38
0.00245847008846 0.0516278718577 0.145 1.13407785367e-38
0.00304624224754 0.052339980435 0.147 1.17095610562e-38
0.00360010447437 0.052339980435 0.147 1.17095610562e-38
0.00409745014743 0.0516278718577 0.145 1.16173654263e-38
0.00467580288089 0.0519839261463 0.146 1.22630893638e-38
0.00522589733746 0.0519839261463 0.146 1.06035680263e-38
0.00581555338167 0.052339980435 0.147 7.74514616944e-39
0.00641274496637 0.0526960347237 0.148 7.19197519285e-39
0.00701747209158 0.0530520890124 0.149 8.5749096408e-39
0.00757886985891 0.0530520890124 0.149 1.09719932147e-38
0.0080856349576 0.0526960347237 0.148 1.18943068444e-38
0.00864326495468 0.0526960347237 0.148 1.17099155847e-38
0.00907655853349 0.0519839261463 0.146 1.15269648598e-38
0.00969258896945 0.052339980435 0.147 1.06042924976e-38
0.0107343774437 0.0548323604557 0.154 6.36221732668e-39
0.0113146140623 0.0548323604557 0.154 3.68782519453e-39
0.0117403721006 0.0541202518784 0.152 3.59562956467e-39
0.0120700519975 0.0530520890124 0.149 6.08563043709e-39
0.0125466749342 0.0526960347237 0.148 1.12496619067e-38
0.0132813901331 0.053408143301 0.15 1.12503779702e-38
0.0140311764129 0.0541202518784 0.152 1.16184444261e-38
0.0153725026221 0.0569686861878 0.16 1.1801756686e-38
0.0158754999505 0.0566126318991 0.159 8.94297329415e-39
0.0160601206928 0.0551884147444 0.155 3.5030709985e-39
0.0161072178209 0.053408143301 0.15 2.85770158946e-39
0.0167835325809 0.0537641975897 0.151 2.30488794399e-39
0.0174673828814 0.0541202518784 0.152 5.90123637477e-39
0.0183961382481 0.0551884147444 0.155 1.10652706469e-38
0.0194699527695 0.0566126318991 0.159 1.18028314819e-38
0.019942807936 0.0562565776104 0.158 1.17106358521e-38
0.0197581871937 0.0541202518784 0.152 1.17106372534e-38
0.020063376584 0.053408143301 0.15 6.73099424094e-39
0.0206285421216 0.053408143301 0.15 3.31975873859e-39
0.0213349990435 0.0537641975897 0.151 2.3056096127e-39
0.0224841689699 0.0551884147444 0.155 2.67367606863e-39
0.0235146541335 0.0562565776104 0.158 7.46784882153e-39
0.0239573671379 0.0559005233218 0.157 1.11574634742e-38
0.024079819671 0.0548323604557 0.154 1.13418547339e-38
0.0243397958183 0.0541202518784 0.152 1.16173626237e-38
0.0250763949023 0.0544763061671 0.153 1.1156387277e-38
0.0258205295268 0.0548323604557 0.154 6.73027817743e-39
0.0267436332381 0.0555444690331 0.156 2.95025735303e-39
0.0275066067139 0.0559005233218 0.157 3.04245578549e-39
0.028456084817 0.0566126318991 0.159 4.14880334385e-39
0.0281414760011 0.0548323604557 0.154 9.95856715876e-39
0.0290947218745 0.0555444690331 0.156 1.11574662768e-38
0.0296824940335 0.0555444690331 0.156 1.14340503638e-38
0.0300762260247 0.0551884147444 0.155 1.18017538834e-38
0.0306602304136 0.0551884147444 0.155 1.16173626237e-38
0.0316473862192 0.0559005233218 0.157 9.21956298633e-39
0.0318282391912 0.0551884147444 0.155 5.07076244508e-39
0.03241224358 0.0551884147444 0.155 4.42503710623e-39
0.0329962479689 0.0551884147444 0.155 6.17890226418e-39
0.0342301927259 0.0562565776104 0.158 9.59014056912e-39
0.0346050858658 0.0559005233218 0.157 1.13418575365e-38
0.0349724434653 0.0555444690331 0.156 1.13407785367e-38
0.0355602156244 0.0555444690331 0.156 1.13407785367e-38
0.0363797056538 0.0559005233218 0.157 1.17095610562e-38
0.0367357599425 0.0555444690331 0.156 1.0418103372e-38
0.0373235321016 0.0555444690331 0.156 8.2976038851e-39
0.0379113042607 0.0555444690331 0.156 8.11500768871e-39
0.0384990764198 0.0555444690331 0.156 9.03696398734e-39
0.0393374053005 0.0559005233218 0.157 1.06964853249e-38
0.0399289452298 0.0559005233218 0.157 1.07886809547e-38
0.040262392897 0.0555444690331 0.156 1.11574634742e-38
0.0408501650561 0.0555444690331 0.156 1.11574634742e-38
0.0414379372152 0.0555444690331 0.156 1.12496591041e-38
0.0420257093742 0.0555444690331 0.156 1.10652678443e-38
0.0431598082196 0.0562565776104 0.158 1.07876075601e-38
0.0440320470326 0.0566126318991 0.159 1.05110206705e-38
0.0443504236188 0.0562565776104 0.158 1.06954091277e-38
0.0443767980106 0.0555444690331 0.156 1.10641916471e-38
0.0449645701696 0.0555444690331 0.156 1.14329741666e-38
0.0461363467175 0.0562565776104 0.158 1.1432971364e-38
0.0467316544171 0.0562565776104 0.158 1.15251669938e-38
0.0476264998516 0.0566126318991 0.159 1.1432971364e-38
0.0482255753215 0.0566126318991 0.159 1.12485829068e-38
0.0488246507913 0.0566126318991 0.159 1.12485829068e-38
0.0497345673068 0.0569686861878 0.16 1.1156387277e-38
0.0506520193628 0.0573247404764 0.161 1.08798003874e-38
0.0515770069593 0.0576807947651 0.162 1.1156387277e-38
0.0518652413835 0.0573247404764 0.161 1.13407785367e-38
0.0527977645205 0.0576807947651 0.162 1.15251697964e-38
0.053408143301 0.0576807947651 0.162 1.14329741666e-38
0.0536850744144 0.0573247404764 0.161 1.11574634742e-38
0.0546289008622 0.0576807947651 0.162 1.12496591041e-38
0.0552392796428 0.0576807947651 0.162 1.12496591041e-38
0.0558496584234 0.0576807947651 0.162 1.11574634742e-38
0.056460037204 0.0576807947651 0.162 1.08808765846e-38
0.057422702503 0.0580368490538 0.163 1.10652678443e-38
0.0580368490538 0.0580368490538 0.163 1.12496591041e-38
0.0586509956046 0.0580368490538 0.163 1.12496591041e-38
0.0592651421555 0.0580368490538 0.163 1.12496619067e-38
0.0606140039051 0.0587489576311 0.165 1.10652706469e-38
0.0604934352571 0.0580368490538 0.163 1.12496619067e-38
0.0614824749479 0.0583929033425 0.164 1.12496619067e-38
0.0613430674486 0.0576807947651 0.162 1.09730750171e-38
0.0619534462292 0.0576807947651 0.162 1.12496619067e-38
0.0629500214605 0.0580368490538 0.163 1.14340531664e-38
0.0639541322322 0.0583929033425 0.164 1.12496619067e-38
0.0649657785445 0.0587489576311 0.165 1.13407785367e-38
0.0651899608744 0.0583929033425 0.164 1.13407785367e-38
0.0662091427272 0.0587489576311 0.165 1.14329741666e-38
0.0664257895166 0.0583929033425 0.164 1.13407785367e-38
0.0666349007655 0.0580368490538 0.163 1.14329741666e-38
0.0668364764739 0.0576807947651 0.162 1.12485829068e-38
0.0678631938671 0.0580368490538 0.163 1.12485829068e-38
0.0688974468009 0.0583929033425 0.164 1.10641916471e-38
0.069515361122 0.0583929033425 0.164 1.11563844744e-38
0.0701332754431 0.0583929033425 0.164 1.12485801042e-38
0.0707511897642 0.0583929033425 0.164 1.13407757341e-38
0.0713691040852 0.0583929033425 0.164 1.1432971364e-38
0.0728649088747 0.0591050119198 0.166 1.08808765846e-38
0.0734903587363 0.0591050119198 0.166 1.09730722145e-38
0.0736693278232 0.0587489576311 0.165 1.04198984353e-38
0.0738407613696 0.0583929033425 0.164 9.77452902625e-39
0.0744586756907 0.0583929033425 0.164 9.77345282903e-39
0.0755343740972 0.0587489576311 0.165 1.05110178679e-38
0.0766176080442 0.0591050119198 0.166 1.15251697964e-38
0.0777083775317 0.0594610662085 0.167 1.13407785367e-38
0.0802139447483 0.0608852833632 0.171 1.15251697964e-38
0.0884239161242 0.066582151982 0.187 1.1156387277e-38
0.107240160755 0.0801122149516 0.225 1.12485829068e-38
-0.0658135268509 0.0492956220726 0.137 1.09712799537e-38
-0.0633908505798 0.0478563338369 0.133 8.2976066877e-39
-0.0614711716371 0.0467768676601 0.13 8.66638920715e-39
-0.0619195362969 0.047496511778 0.132 1.07876075601e-38
-0.0623528298758 0.0482161558958 0.134 1.14336972366e-38
-0.0627710523736 0.0489358000137 0.136 1.15258928664e-38
-0.0622586356195 0.0489358000137 0.136 1.16180884963e-38
-0.0617462188654 0.0489358000137 0.136 1.14344161027e-38
-0.0607835535664 0.0485759779548 0.135 1.13407785367e-38
-0.0593819430332 0.0478563338369 0.133 1.12485829068e-38
-0.0593235425943 0.0482161558958 0.134 1.12485829068e-38
-0.059257606615 0.0485759779548 0.135 1.16173654263e-38
-0.0583137801672 0.0482161558958 0.134 1.1801756686e-38
-0.0582403086473 0.0485759779548 0.135 1.17095610562e-38
-0.0585869435104 0.0492956220726 0.137 1.15251697964e-38
-0.0576468848329 0.0489358000137 0.136 1.14329741666e-38
-0.0562942553129 0.0482161558958 0.134 1.13407757341e-38
-0.0557893740994 0.0482161558958 0.134 1.12485801042e-38
-0.0552844928858 0.0482161558958 0.134 1.13407757341e-38
-0.0543708086 0.0478563338369 0.133 1.1432971364e-38
-0.0542747304587 0.0482161558958 0.134 1.17095582536e-38
-0.0545723843084 0.0489358000137 0.136 1.15251669938e-38
-0.0540599675544 0.0489358000137 0.136 1.17095582536e-38
-0.0523663548268 0.0478563338369 0.133 1.13407757341e-38
-0.0514752771625 0.047496511778 0.132 1.17095638588e-38
-0.0513641279401 0.0478563338369 0.133 1.1525172599e-38
-0.0512454431772 0.0482161558958 0.134 1.13407785367e-38
-0.051497883784 0.0489358000137 0.136 1.13407785367e-38
-0.05098546703 0.0489358000137 0.136 1.1801756686e-38
-0.0497307995365 0.0482161558958 0.134 1.15251669938e-38
-0.0495932759224 0.0485759779548 0.135 1.1432971364e-38
-0.0487210371094 0.0482161558958 0.134 1.15251669938e-38
