VERSION .7
FIELDS x y z rgb
SIZE 4 4 4 4
TYPE F F F F
COUNT 1 1 1 1
WIDTH 850
HEIGHT 1
VIEWPOINT 0 0 0 1 0 0 0
POINTS 850
DATA ascii
-0.0470217727264 0.0465394981343 0.128 9.95712802524e-39
-0.0461759083052 0.0461759083052 0.127 1.06024974343e-38
-0.0456974014834 0.0461759083052 0.127 1.07876047575e-38
-0.0455749489502 0.0465394981343 0.128 1.06032134978e-38
-0.0450926743582 0.0465394981343 0.128 1.06954091277e-38
-0.0442618810179 0.0461759083052 0.127 1.05103018044e-38
-0.0434386232182 0.045812318476 0.126 1.10634755836e-38
-0.0433048673743 0.0461759083052 0.127 9.40323818254e-39
-0.0431635759899 0.0465394981343 0.128 8.66567314364e-39
-0.0433481967322 0.0472666777927 0.13 8.7578687735e-39
-0.0431880664965 0.0476302676219 0.131 9.68054393825e-39
-0.042368576467 0.0472666777927 0.13 1.06024974343e-38
-0.0418787663345 0.0472666777927 0.13 1.05120940652e-38
-0.0417073327881 0.0476302676219 0.131 1.07886795534e-38
-0.0412137548852 0.0476302676219 0.131 1.06042882937e-38
-0.0416527001194 0.0487210371094 0.134 1.06950461914e-38
-0.0414548921813 0.0490846269386 0.135 1.05088626709e-38
-0.0406429376923 0.0487210371094 0.134 8.75642963998e-39
-0.039239443274 0.0476302676219 0.131 8.11070570242e-39
-0.0390416353358 0.047993857451 0.132 8.57240131655e-39
-0.0385442896628 0.047993857451 0.132 1.06021443071e-38
-0.0383351784139 0.0483574472802 0.133 1.06961350003e-38
-0.0378340649705 0.0483574472802 0.133 1.06042924976e-38
-0.0370522526436 0.047993857451 0.132 1.08808765846e-38
-0.0368318380839 0.0483574472802 0.133 1.10638287108e-38
-0.0366038879837 0.0487210371094 0.134 1.06950447901e-38
-0.0360990067702 0.0487210371094 0.134 9.21705326078e-39
-0.0355941255566 0.0487210371094 0.134 6.82068434915e-39
-0.035089244343 0.0487210371094 0.134 7.28166249847e-39
-0.0353586399159 0.0498118065969 0.137 9.12665129295e-39
-0.0343338064078 0.0490846269386 0.135 1.03266266082e-38
-0.033825157424 0.0490846269386 0.135 1.05120940652e-38
-0.0330697194888 0.0487210371094 0.134 1.08808765846e-38
-0.0325648382752 0.0487210371094 0.134 1.051281153e-38
-0.0320599570616 0.0487210371094 0.134 1.11560243407e-38
-0.0317905614887 0.0490846269386 0.135 1.00493208525e-38
-0.0315136303753 0.0494482167677 0.136 7.4660509556e-39
-0.0314571138215 0.0501753964261 0.138 7.09727123874e-39
-0.0307129791971 0.0498118065969 0.137 7.83483627765e-39
-0.0301967946727 0.0498118065969 0.137 1.06025002369e-38
-0.0296806101484 0.0498118065969 0.137 1.06964881275e-38
-0.0293773046433 0.0501753964261 0.138 1.08815954507e-38
-0.0288573523487 0.0501753964261 0.138 1.07886795534e-38
-0.0283374000541 0.0501753964261 0.138 1.11563844744e-38
-0.0278174477595 0.0501753964261 0.138 1.07861698279e-38
-0.0276931113413 0.0509025760844 0.14 7.92703190751e-39
-0.0269715833383 0.0505389862553 0.139 6.08311931024e-39
-0.0268284080688 0.0512661659136 0.141 7.00615460869e-39
-0.0262971524635 0.0512661659136 0.141 9.5890643719e-39
-0.025583160001 0.0509025760844 0.14 1.06961321977e-38
-0.0250556721659 0.0509025760844 0.14 1.08790815213e-38
-0.0245281843308 0.0509025760844 0.14 1.13400596706e-38
-0.0240006964958 0.0509025760844 0.14 1.15244509303e-38
-0.023808540213 0.0516297557428 0.142 1.08790843239e-38
-0.0229457208256 0.0509025760844 0.14 7.65223727866e-39
-0.0227384934619 0.0516297557428 0.142 5.71613185412e-39
-0.0223598325517 0.051993345572 0.143 6.82247941248e-39
-0.021973636101 0.0523569354011 0.144 9.21956578893e-39
-0.02128225026 0.051993345572 0.143 1.10641916471e-38
-0.0207434591142 0.051993345572 0.143 1.09719960173e-38
-0.0206285421216 0.0530841150595 0.146 1.12485829068e-38
-0.020078447665 0.0530841150595 0.146 1.11556712135e-38
-0.0191270856767 0.051993345572 0.143 1.08790843239e-38
-0.0188482706782 0.0527205252303 0.145 5.53102172828e-39
-0.0183019439919 0.0527205252303 0.145 4.2402829102e-39
-0.0177556173055 0.0527205252303 0.145 5.34663046856e-39
-0.0175653449079 0.0538112947178 0.148 7.92954303436e-39
-0.0172375488961 0.0545384743762 0.15 1.15251697964e-38
-0.0164500849137 0.0538112947178 0.148 1.09719932147e-38
-0.0156776920124 0.0530841150595 0.146 1.11560229394e-38
-0.0153348249196 0.0538112947178 0.148 1.13404156004e-38
-0.0148770408342 0.054174884547 0.149 8.48163501112e-39
-0.0146999556324 0.0556292438637 0.153 4.2402829102e-39
-0.0143081075263 0.0563564235221 0.155 3.13393815443e-39
-0.0135470179357 0.0556292438637 0.153 4.60799063373e-39
-0.0128857742568 0.0552656540345 0.152 9.31104535528e-39
-0.0123130731787 0.0552656540345 0.152 1.08790871265e-38
-0.0118176113907 0.0556292438637 0.153 1.06954119303e-38
-0.0117554431816 0.0581743726679 0.16 1.12478668433e-38
-0.0114314149401 0.0596287319846 0.164 1.03251944812e-38
-0.0103519487633 0.0570836031804 0.157 6.08240044413e-39
-0.00963607241569 0.0563564235221 0.155 3.96010449264e-39
-0.00899366758798 0.0559928336929 0.154 3.41088517773e-39
-0.00879585964982 0.0585379624971 0.161 5.5317405944e-39
-0.00829097843626 0.0592651421555 0.163 1.00493208525e-38
-0.00772392901355 0.0596287319846 0.164 1.06950461914e-38
-0.0068027091873 0.0570836031804 0.157 1.10638287108e-38
-0.00617160767034 0.0567200133512 0.156 1.13400596706e-38
-0.00565542314602 0.0574471930096 0.158 6.91467504235e-39
-0.0053483498706 0.0607195014722 0.167 3.04210265828e-39
-0.00471913223877 0.0607195014722 0.167 2.94954409211e-39
-0.00391848106053 0.0581743726679 0.16 3.59562956467e-39
-0.0032741923477 0.0574471930096 0.158 8.48343708095e-39
-0.00269583961424 0.0578107828388 0.159 1.06968482612e-38
-0.00214951292792 0.0592651421555 0.163 1.09734351508e-38
-0.00160130235647 0.0618102709597 0.17 1.09730722145e-38
-0.000955129758505 0.0614466811305 0.169 8.48235107464e-39
-0.000307073275417 0.0592651421555 0.163 3.50306819591e-39
0.000303305505166 0.0585379624971 0.161 3.13429828814e-39
0.000898613204748 0.0578107828388 0.159 2.58148043877e-39
0.00156362465396 0.060355911643 0.166 7.74443010592e-39
0.00218907451555 0.060355911643 0.166 1.12482199705e-38
0.00278061444488 0.0596287319846 0.164 1.12482199705e-38
0.00337780602959 0.0592651421555 0.163 1.07868858914e-38
0.00396746207379 0.0589015523263 0.162 8.57419637989e-39
0.00463435740813 0.0596287319846 0.164 3.59527643746e-39
0.00528429777635 0.0599923218138 0.165 2.85734846225e-39
0.00594177368506 0.060355911643 0.166 2.85734846225e-39
0.00660678513428 0.0607195014722 0.167 8.02030373459e-39
0.00719267340823 0.060355911643 0.166 1.12471507798e-38
0.00781812326982 0.060355911643 0.166 1.19847158187e-38
0.00854530292817 0.0610830913013 0.168 1.11549551499e-38
0.00912365566162 0.0607195014722 0.167 8.66567314364e-39
0.00986967417122 0.0614466811305 0.169 3.87150039074e-39
0.0105064273436 0.0614466811305 0.169 1.93682429065e-39
0.0110113085571 0.0607195014722 0.167 3.78073688791e-39
0.0117799336882 0.0614466811305 0.169 9.31247467971e-39
0.0124901583805 0.0618102709597 0.17 1.10641916471e-38
0.0130534400329 0.0614466811305 0.169 1.14329741666e-38
0.013852207326 0.0621738607889 0.171 1.1156387277e-38
0.0145812708695 0.062537450618 0.172 7.65295334217e-39
0.0153178699535 0.0629010404472 0.173 3.68854125805e-39
0.0158773838357 0.062537450618 0.172 2.58219369969e-39
0.0169097528843 0.0639918099347 0.176 6.36221452408e-39
0.0173731886251 0.0632646302764 0.174 1.05110178679e-38
0.0181323943306 0.0636282201056 0.175 1.13407785367e-38
0.0190065170287 0.0643553997639 0.177 1.13407785367e-38
0.0195622631407 0.0639918099347 0.176 1.06954091277e-38
0.02045522469 0.0647189895931 0.178 6.63880141367e-39
0.0208885182688 0.0639918099347 0.176 3.78073688791e-39
0.0219190034324 0.0650825794223 0.179 4.14951940736e-39
0.022845874914 0.0658097590806 0.181 8.11393149149e-39
0.0233978532557 0.0654461692514 0.18 1.1156387277e-38
0.0240760519008 0.0654461692514 0.18 1.15251697964e-38
0.0247542505459 0.0654461692514 0.18 1.1156387277e-38
0.0255737405754 0.0658097590806 0.181 1.01422353485e-38
0.0265458253 0.066536938739 0.183 5.62464948518e-39
0.0267888464812 0.0654461692514 0.18 4.33391066709e-39
0.0276196398214 0.0658097590806 0.181 8.02352952366e-39
0.0283016062367 0.0658097590806 0.181 1.04206159001e-38
0.0297842238303 0.0676277082265 0.186 1.14347678286e-38
0.0309767231146 0.068718477714 0.189 1.10659853091e-38
0.0313535001397 0.0679912980556 0.187 1.09737896793e-38
0.0317152060837 0.0672641183973 0.185 9.03768145216e-39
0.03241224358 0.0672641183973 0.185 6.82498633544e-39
0.0340041265109 0.0690820675432 0.19 7.47035574448e-39
0.0358164240014 0.0712636065182 0.196 1.08798003874e-38
0.0350628699513 0.0683548878848 0.188 1.13407785367e-38
0.0352003935654 0.0672641183973 0.185 1.17095610562e-38
0.0360914712297 0.0676277082265 0.186 1.15251697964e-38
0.037781316187 0.0694456573723 0.191 1.04188222381e-38
0.0395088388469 0.0712636065182 0.196 9.40467030957e-39
0.0388099174654 0.068718477714 0.189 9.12808341998e-39
0.0395220260428 0.068718477714 0.189 1.04188222381e-38
0.0419371667733 0.0716271963474 0.197 1.16184416235e-38
0.0441959450385 0.0741723251516 0.204 1.11574634742e-38
0.0436420828117 0.0719907861766 0.198 1.07886809547e-38
0.0434913720017 0.0705364268599 0.194 1.07886809547e-38
0.0444502695304 0.070900016689 0.195 1.05120940652e-38
0.0470387276925 0.0738087353224 0.203 1.05120940652e-38
0.0478035850534 0.0738087353224 0.203 1.0604289695e-38
0.0468936685379 0.0712636065182 0.196 1.06964853249e-38
0.0471461091447 0.0705364268599 0.194 1.10641916471e-38
0.0491110013303 0.0723543760057 0.199 1.09719960173e-38
0.0506124577752 0.0734451454933 0.202 1.1156387277e-38
0.0508648983819 0.0727179658349 0.2 1.10641916471e-38
0.051618452432 0.0727179658349 0.2 1.08798003874e-38
0.0513245663525 0.0712636065182 0.196 1.10641916471e-38
0.0531255605322 0.0727179658349 0.2 1.08798003874e-38
0.0541485101553 0.0730815556641 0.201 1.15251697964e-38
0.0546326686325 0.0727179658349 0.2 1.10641944497e-38
0.0553862226826 0.0727179658349 0.2 1.1525172599e-38
0.0561397767327 0.0727179658349 0.2 1.12485857094e-38
0.0577467307445 0.0738087353224 0.203 1.14329769692e-38
0.0587998225295 0.0741723251516 0.204 1.17095638588e-38
0.0592764454662 0.0738087353224 0.203 1.13407813393e-38
0.0603370727917 0.0741723251516 0.204 1.14329769692e-38
0.0614052356578 0.0745359149808 0.205 1.13407813393e-38
0.0615710175488 0.0738087353224 0.203 1.10641916471e-38
0.0641783145621 0.0759902742975 0.209 1.12485829068e-38
0.0643440964532 0.0752630946391 0.207 1.09719960173e-38
0.0648094160791 0.07489950481 0.206 1.12485829068e-38
0.0678142128539 0.0774446336142 0.213 1.15251697964e-38
0.0682946035608 0.077081043785 0.212 1.14329741666e-38
0.0687674587273 0.0767174539558 0.211 1.08798003874e-38
0.0692327783532 0.0763538641267 0.21 1.06032134978e-38
-0.052581117731 0.041511408735 0.113 1.00500397186e-38
-0.0512322559814 0.0407766935362 0.111 9.86564845889e-39
-0.051271817569 0.0411440511356 0.112 9.12808341998e-39
-0.0517578599313 0.0418787663345 0.114 7.56075771231e-39
-0.0522288312126 0.0426134815333 0.116 6.73064391632e-39
-0.0522382506383 0.0429808391327 0.117 7.09942643578e-39
-0.0517974215189 0.0429808391327 0.117 8.57455651359e-39
-0.052234482868 0.0437155543316 0.119 9.95784689135e-39
-0.0526564731361 0.0444502695304 0.121 1.02344337809e-38
-0.0522005729357 0.0444502695304 0.121 1.03266266082e-38
-0.0517446727354 0.0444502695304 0.121 1.01422353485e-38
-0.0521365208415 0.0451849847293 0.123 9.68125719916e-39
-0.0516730851007 0.0451849847293 0.123 9.21884412022e-39
-0.0512096493599 0.0451849847293 0.123 6.91395617623e-39
-0.0503336427766 0.0448176271299 0.122 5.43882890102e-39
-0.0498739748061 0.0448176271299 0.122 6.17675407363e-39
-0.0498193421374 0.0451849847293 0.123 8.29725356049e-39
-0.0493559063966 0.0451849847293 0.123 9.77345563162e-39
-0.0492899704172 0.0455523423287 0.124 1.03266238056e-38
-0.0492164988973 0.0459196999281 0.125 1.06035680263e-38
-0.049135491837 0.0462870575276 0.126 9.95963775079e-39
-0.0490469492361 0.046654415127 0.127 1.00511159158e-38
-0.0489508710947 0.0470217727264 0.128 9.03517172661e-39
-0.0477112746823 0.0462870575276 0.126 6.17531494011e-39
-0.0472365356307 0.0462870575276 0.126 4.05481545325e-39
-0.0467617965791 0.0462870575276 0.126 4.88457612202e-39
-0.0462870575276 0.0462870575276 0.126 7.19125912934e-39
-0.045812318476 0.0462870575276 0.126 9.58834550579e-39
-0.0456974014834 0.046654415127 0.127 1.05110178679e-38
-0.0448628403729 0.0462870575276 0.126 1.04188222381e-38
-0.0447403878397 0.046654415127 0.127 1.05110178679e-38
-0.0446103997661 0.0470217727264 0.128 1.0141519285e-38
-0.044128125174 0.0470217727264 0.128 8.20541105784e-39
-0.0433048673743 0.046654415127 0.127 4.79345668938e-39
-0.0435007914273 0.0473891303258 0.129 3.87150039074e-39
-0.0423478537307 0.046654415127 0.127 4.70126105951e-39
-0.0428583865996 0.0477564879253 0.13 7.46784882153e-39
-0.042368576467 0.0477564879253 0.13 1.02337149148e-38
-0.041556621978 0.0473891303258 0.129 1.05120940652e-38
-0.0417073327881 0.0481238455247 0.131 1.06964839236e-38
-0.0408991460693 0.0477564879253 0.13 1.06964839236e-38
-0.0410310180281 0.0484912031241 0.132 9.95748115245e-39
-0.040533672355 0.0484912031241 0.132 6.82103747636e-39
-0.0397330211768 0.0481238455247 0.131 3.87006125722e-39
-0.039239443274 0.0481238455247 0.131 3.1321416898e-39
-0.0390416353358 0.0484912031241 0.132 4.14701108311e-39
-0.0379602852739 0.0477564879253 0.13 7.83627541117e-39
-0.0380469439897 0.0484912031241 0.132 1.00507655912e-38
-0.0372651316627 0.0481238455247 0.131 1.06042924976e-38
-0.0370522526436 0.0484912031241 0.132 1.05120940652e-38
-0.0365549069705 0.0484912031241 0.132 1.08794374511e-38
-0.0363307246406 0.0488585607235 0.133 8.75893656293e-39
-0.0358296111973 0.0488585607235 0.133 4.05409798844e-39
-0.0355941255566 0.049225918323 0.134 2.6718810053e-39
-0.0348273843106 0.0488585607235 0.133 2.94846789489e-39
-0.0343262708673 0.0488585607235 0.133 5.43882609842e-39
-0.0343338064078 0.0495932759224 0.135 1.02344309783e-38
-0.033825157424 0.0495932759224 0.135 1.04198984353e-38
-0.0330697194888 0.049225918323 0.134 1.06964853249e-38
-0.0325648382752 0.049225918323 0.134 1.03284202702e-38
-0.0320599570616 0.049225918323 0.134 1.04184593018e-38
-0.0313195902074 0.0488585607235 0.133 6.08490876838e-39
-0.0312819125049 0.0495932759224 0.135 3.13285635202e-39
-0.0310012136212 0.0499606335218 0.136 2.6718810053e-39
-0.0304887968672 0.0499606335218 0.136 4.14701108311e-39
-0.0304172092324 0.0506953487207 0.138 8.66639200975e-39
-0.0296806101484 0.0503279911212 0.137 1.05120968678e-38
-0.0291644256241 0.0503279911212 0.137 1.06050085611e-38
-0.0290664635976 0.0510627063201 0.139 1.07886795534e-38
-0.0289534304901 0.0517974215189 0.141 1.04188194355e-38
-0.0280190234679 0.0510627063201 0.139 7.55932278268e-39
-0.0276931113413 0.0514300639195 0.14 3.77822856366e-39
-0.0267775431704 0.0506953487207 0.138 2.6718810053e-39
-0.0270186804664 0.0521647791184 0.142 3.04174252457e-39
-0.0268566663457 0.0528994943172 0.144 7.09978236559e-39
-0.0264968442867 0.0532668519166 0.145 1.02351540484e-38
-0.0254136103397 0.0521647791184 0.142 1.07868858914e-38
-0.0247033856475 0.0517974215189 0.141 1.1063472781e-38
-0.0241721300422 0.0517974215189 0.141 1.06946902615e-38
-0.023808540213 0.0521647791184 0.142 7.74443290852e-39
-0.0240930068669 0.0540015671155 0.147 3.41123830494e-39
-0.024019535347 0.0551036399138 0.15 2.30489354918e-39
-0.0229852824133 0.0540015671155 0.147 2.7658716985e-39
-0.0221262307961 0.0532668519166 0.145 6.82247941248e-39
-0.0214310771849 0.0528994943172 0.144 1.07876047575e-38
-0.0213236957328 0.0540015671155 0.147 1.09719960173e-38
-0.0220414559655 0.0573077855103 0.156 1.12485829068e-38
-0.0214536838064 0.0573077855103 0.156 1.0786888694e-38
-0.0196621090523 0.0540015671155 0.147 5.99271594112e-39
-0.0188482706782 0.0532668519166 0.145 2.76515283238e-39
-0.0185543845987 0.0540015671155 0.147 2.76515283238e-39
-0.0183678799713 0.0551036399138 0.15 2.85734846225e-39
-0.0188708772997 0.0584098583086 0.159 7.83734740449e-39
-0.0181568848372 0.0580425007092 0.158 1.07876047575e-38
-0.0167835325809 0.0554709975132 0.151 1.07876019549e-38
-0.0158924549167 0.0543689247149 0.148 1.11560229394e-38
-0.0155420522834 0.0551036399138 0.15 1.06950461914e-38
-0.015476116304 0.0569404279109 0.155 5.71576611522e-39
-0.0156607370463 0.0598792887063 0.163 2.85734846225e-39
-0.014769659382 0.058777215908 0.16 2.67296000512e-39
-0.0136355605366 0.0565730703115 0.154 3.41016771292e-39
-0.0128857742568 0.0558383551126 0.152 8.20505793062e-39
-0.0122320661183 0.0554709975132 0.151 1.06032163004e-38
-0.0121265685513 0.0576751431097 0.157 1.06954091277e-38
-0.0119758577413 0.0598792887063 0.163 1.07876047575e-38
-0.0112223036912 0.0591445735074 0.161 8.94225723063e-39
-0.0102200768045 0.0569404279109 0.155 4.33068347673e-39
-0.00951173599742 0.056205712712 0.153 2.67008454067e-39
-0.00899366758798 0.0565730703115 0.154 2.30453761937e-39
-0.0085773289753 0.0576751431097 0.157 5.43954496453e-39
-0.00813838374111 0.058777215908 0.16 1.02337121122e-38
-0.00744134624477 0.0580425007092 0.158 1.07872418212e-38
-0.00667272111366 0.0565730703115 0.154 1.10638287108e-38
-0.00613204608271 0.0569404279109 0.155 1.07868858914e-38
-0.00554804169388 0.0569404279109 0.155 6.36150126317e-39
-0.00509214149357 0.0584098583086 0.159 2.4889288791e-39
-0.00452132430062 0.058777215908 0.16 2.02758779348e-39
-0.00384500954065 0.0576751431097 0.157 3.87221645426e-39
-0.00325346961132 0.0576751431097 0.157 8.94441523027e-39
-0.00269583961424 0.0584098583086 0.159 1.06046526313e-38
-0.00209676414441 0.0584098583086 0.159 1.09734351508e-38
-0.00151652752583 0.0591445735074 0.161 1.0604289695e-38
-0.000909916515499 0.0591445735074 0.161 8.02137292532e-39
-0.000305189390292 0.0595119311069 0.162 3.50306819591e-39
0.000305189390292 0.0595119311069 0.162 2.48928480891e-39
0.000904264860123 0.058777215908 0.16 4.5175886659e-39
0.00153536637708 0.0598792887063 0.163 9.40395144346e-39
0.00217588731967 0.0606140039051 0.165 1.14322553005e-38
0.00276365947875 0.0598792887063 0.163 1.13400596706e-38
0.00337780602959 0.0598792887063 0.163 1.09712771511e-38
0.00396746207379 0.0595119311069 0.162 9.0351745292e-39
0.00460609913125 0.0598792887063 0.163 5.25515370481e-39
0.00525227172922 0.0602466463057 0.164 4.14808447774e-39
0.0058701860503 0.0602466463057 0.164 6.72956211391e-39
0.00656722354665 0.0609813615046 0.166 1.02329960487e-38
0.00714934405035 0.0606140039051 0.165 1.13393436071e-38
0.00777102614169 0.0606140039051 0.165 1.14315392369e-38
0.00849443802978 0.061348719104 0.167 1.11549523473e-38
0.00912365566162 0.061348719104 0.167 9.86421352926e-39
0.00981127373234 0.0617160767034 0.168 7.28273589309e-39
0.0104442591344 0.0617160767034 0.168 7.19197519285e-39
0.0110113085571 0.061348719104 0.167 8.48271401094e-39
0.0119193411875 0.0628181495017 0.171 1.08798003874e-38
0.0125636299003 0.0628181495017 0.171 1.13407785367e-38
0.0132851579033 0.0631855071011 0.172 1.1156387277e-38
0.0140952285072 0.0639202223 0.174 1.15251697964e-38
0.014920370192 0.0646549374988 0.176 1.02344309783e-38
0.0158491255588 0.0657570102971 0.179 8.66710527067e-39
0.0162466253202 0.0646549374988 0.176 8.66710527067e-39
0.0169097528843 0.0646549374988 0.176 1.02344309783e-38
0.0175728804484 0.0646549374988 0.176 1.16173654263e-38
0.0185468490582 0.0657570102971 0.179 1.14329741666e-38
0.0198655686458 0.0679611558936 0.185 1.14329741666e-38
0.020229158475 0.0668590830954 0.182 1.13407785367e-38
0.0209148926606 0.0668590830954 0.182 1.03266266082e-38
0.0211258877946 0.0653896526977 0.178 9.49686593944e-39
0.0230210762306 0.0690632286919 0.188 1.00500397186e-38
0.0241080779479 0.0701653014902 0.191 1.09719960173e-38
0.0244377578448 0.0690632286919 0.188 1.12485829068e-38
0.0244773194325 0.0672264406948 0.183 1.14329741666e-38
0.0250292977742 0.0668590830954 0.182 1.16173654263e-38
0.0268453630349 0.0697979438908 0.19 1.15251697964e-38
0.0277062985372 0.0701653014902 0.191 1.03266266082e-38
0.0273841541807 0.0675937982942 0.184 1.06032134978e-38
0.0280774239068 0.0675937982942 0.184 1.06972027897e-38
0.0286143311675 0.0672264406948 0.183 1.15269634585e-38
0.0310652657155 0.0712673742885 0.194 1.13425721987e-38
0.0314684171323 0.0705326590896 0.192 1.08815940494e-38
0.0315211659158 0.0690632286919 0.188 1.13425721987e-38
0.0322295067229 0.0690632286919 0.188 1.1158180939e-38
0.03293784753 0.0690632286919 0.188 1.08815940494e-38
0.0352569101192 0.0723694470867 0.197 1.13425721987e-38
0.0358164240014 0.0720020894873 0.196 1.15251697964e-38
0.0348763653239 0.0686958710925 0.187 1.15251697964e-38
0.0353906659631 0.0683285134931 0.186 1.15251697964e-38
0.0368676319013 0.0697979438908 0.19 1.13407785367e-38
0.0383747400015 0.0712673742885 0.194 1.14329741666e-38
0.0391056874301 0.0712673742885 0.194 1.14329741666e-38
0.0390152609441 0.0697979438908 0.19 1.14329741666e-38
0.0399402485406 0.0701653014902 0.191 1.14329741666e-38
0.0412985297159 0.0712673742885 0.194 1.11574634742e-38
0.0418128303551 0.070900016689 0.193 1.12496591041e-38
0.0420991808941 0.0701653014902 0.191 1.11574634742e-38
0.042818825012 0.0701653014902 0.191 1.10652678443e-38
0.0439943693301 0.070900016689 0.193 1.11574634742e-38
0.0451849847293 0.0716347318879 0.195 1.12496591041e-38
0.0463906712095 0.0723694470867 0.197 1.12496591041e-38
0.0468936685379 0.0720020894873 0.196 1.13418547339e-38
0.0469030879635 0.070900016689 0.193 1.15251697964e-38
0.0486174234275 0.0723694470867 0.197 1.13407785367e-38
0.0496102308885 0.0727368046862 0.198 1.12485829068e-38
0.05061057389 0.0731041622856 0.199 1.12485829068e-38
0.0513603601699 0.0731041622856 0.199 1.10641916471e-38
0.0518482864173 0.0727368046862 0.198 1.12485829068e-38
0.0525943049269 0.0727368046862 0.198 1.10641916471e-38
0.0544179057282 0.0742062350839 0.202 1.15251697964e-38
0.0549058319756 0.0738388774844 0.201 1.12485857094e-38
0.0553862226826 0.073471519885 0.2 1.11563900796e-38
0.055859077849 0.0731041622856 0.199 1.087980319e-38
0.0577467307445 0.0745735926833 0.203 1.11563900796e-38
0.059664525802 0.076043023081 0.207 1.11563900796e-38
0.0616124630215 0.0775124534787 0.211 1.16173682289e-38
0.0609286127211 0.0756756654816 0.206 1.16173682289e-38
0.0617047733927 0.0756756654816 0.206 1.13407813393e-38
0.0636941560849 0.0771450958793 0.21 1.10641916471e-38
0.0641783145621 0.0767777382798 0.209 1.08798003874e-38
0.0649657785445 0.0767777382798 0.209 1.12485829068e-38
0.0648094160791 0.0756756654816 0.206 1.10641916471e-38
0.0674958362677 0.0778798110781 0.212 1.10641916471e-38
0.067650314848 0.0771450958793 0.21 1.08798003874e-38
0.0674638102206 0.076043023081 0.207 1.09719960173e-38
0.0692327783532 0.0771450958793 0.21 1.00500397186e-38
-0.0535117569829 0.0426794175127 0.115 1.02344309783e-38
-0.0512322559814 0.041194916034 0.111 9.40467030957e-39
-0.0508140334836 0.041194916034 0.111 6.63880141367e-39
-0.0513038436161 0.0419371667733 0.113 3.31975873859e-39
-0.0513283341228 0.042308292143 0.114 2.7662318322e-39
-0.0508988083142 0.042308292143 0.114 3.50379687111e-39
-0.0509119955101 0.0426794175127 0.115 6.17747013714e-39
-0.0509176471654 0.0430505428824 0.116 9.03589059272e-39
-0.0517861182082 0.0441639189914 0.119 1.00500425212e-38
-0.0513377535484 0.0441639189914 0.119 1.02344309783e-38
-0.0508893888886 0.0441639189914 0.119 1.00500397186e-38
-0.0512887725351 0.0449061697308 0.121 9.40467030957e-39
-0.0508328723348 0.0449061697308 0.121 7.28129956216e-39
-0.0499606335218 0.0445350443611 0.12 3.59383730393e-39
-0.0495085010918 0.0445350443611 0.12 2.11870862742e-39
-0.0498739748061 0.0452772951004 0.122 3.04138519346e-39
-0.0494143068355 0.0452772951004 0.122 5.80725408936e-39
-0.0489546388649 0.0452772951004 0.122 9.21956578893e-39
-0.0492899704172 0.0460195458398 0.124 1.00493208525e-38
-0.0488227669062 0.0460195458398 0.124 1.04184593018e-38
-0.048745527616 0.0463906712095 0.125 9.95963775079e-39
-0.0494331456867 0.0475040473185 0.128 9.40574650679e-39
-0.0481860137338 0.0467617965791 0.126 7.00686786961e-39
-0.0473326137721 0.0463906712095 0.125 3.40944604421e-39
-0.0464867493508 0.0460195458398 0.124 2.21090285598e-39
-0.0463906712095 0.0463906712095 0.125 2.48748974557e-39
-0.0462870575276 0.0467617965791 0.126 4.88636838276e-39
-0.0454487286468 0.0463906712095 0.125 8.75858483702e-39
-0.0456974014834 0.0471329219488 0.127 1.03266266082e-38
-0.0452188946615 0.0471329219488 0.127 1.02344309783e-38
-0.0450926743582 0.0475040473185 0.128 1.02344309783e-38
-0.0449589185143 0.0478751726882 0.129 9.68054113565e-39
-0.044128125174 0.0475040473185 0.128 6.26930283071e-39
-0.043645850582 0.0475040473185 0.128 2.76515283238e-39
-0.0431635759899 0.0475040473185 0.128 2.02758779348e-39
-0.0433481967322 0.0482462980578 0.13 2.48856594279e-39
-0.0435177463934 0.0489885487972 0.132 5.90052311385e-39
-0.0426944885937 0.0486174234275 0.131 9.86493239538e-39
-0.041556621978 0.0478751726882 0.129 1.04198984353e-38
-0.0417073327881 0.0486174234275 0.131 1.06042882937e-38
-0.0412137548852 0.0486174234275 0.131 1.02355057743e-38
-0.0407201769824 0.0486174234275 0.131 9.40430737327e-39
-0.0411478189059 0.0497307995365 0.134 5.43810302841e-39
-0.0406429376923 0.0497307995365 0.134 2.671518069e-39
-0.0398385187438 0.0493596741669 0.133 2.11798976131e-39
-0.0393374053005 0.0493596741669 0.133 3.22505478448e-39
-0.0382522874683 0.0486174234275 0.131 7.28310163199e-39
-0.0380469439897 0.0489885487972 0.132 1.01429612211e-38
-0.0378340649705 0.0493596741669 0.133 1.05120968678e-38
-0.0376136504109 0.0497307995365 0.134 1.02355071756e-38
-0.0368318380839 0.0493596741669 0.133 1.07872418212e-38
-0.0363307246406 0.0493596741669 0.133 7.46819774484e-39
-0.0355602156244 0.0489885487972 0.132 3.96190235857e-39
-0.0353284977539 0.0493596741669 0.133 2.85627226503e-39
-0.0353511043754 0.0501019249062 0.135 2.39529411571e-39
-0.0353586399159 0.0508441756456 0.137 4.60906542965e-39
-0.0358597533593 0.0523286771243 0.141 1.02344309783e-38
-0.0348273843106 0.0515864263849 0.139 1.04198984353e-38
-0.0335632973916 0.0504730502759 0.136 1.0604289695e-38
-0.0328078594564 0.0501019249062 0.135 1.02362246404e-38
-0.0320599570616 0.0497307995365 0.134 9.588698633e-39
-0.0324970184107 0.0512153010152 0.138 4.33319180098e-39
-0.0322087839865 0.0515864263849 0.139 2.30309568325e-39
-0.0314571138215 0.0512153010152 0.138 2.76407663516e-39
-0.0307129791971 0.0508441756456 0.137 3.04066352475e-39
-0.0304172092324 0.0512153010152 0.138 8.20541386043e-39
-0.029463963359 0.0504730502759 0.136 1.06042924976e-38
-0.0306545787582 0.0534420532333 0.144 1.06050085611e-38
-0.0309484648377 0.054926554712 0.148 1.06042882937e-38
-0.0305961783193 0.0552976800817 0.149 1.02344281757e-38
-0.0286237505932 0.0526998024939 0.142 6.72956211391e-39
-0.0280887272176 0.0526998024939 0.142 3.31725041434e-39
-0.0271656235062 0.0519575517546 0.14 2.57968537544e-39
-0.0279700424547 0.0545554293423 0.147 2.85735126484e-39
-0.0279756941101 0.0556688054513 0.15 6.91539110586e-39
-0.0279587391439 0.0567821815604 0.153 1.04195453081e-38
-0.0254136103397 0.0526998024939 0.142 1.08790815213e-38
-0.0248785869641 0.0526998024939 0.142 1.1063472781e-38
-0.0241721300422 0.0523286771243 0.141 1.07868858914e-38
-0.0243115375414 0.053813178603 0.145 7.00686786961e-39
-0.0249124968964 0.0564110561907 0.152 3.41123830494e-39
-0.0243397958183 0.0564110561907 0.152 2.7658716985e-39
-0.0228289199479 0.0541843039726 0.146 2.58148043877e-39
-0.021973636101 0.0534420532333 0.144 6.82247941248e-39
-0.02128225026 0.0530709278636 0.143 1.06032134978e-38
-0.0211786365781 0.0541843039726 0.146 1.08798003874e-38
-0.0214762904279 0.0564110561907 0.152 1.10641916471e-38
-0.0207660657357 0.056039930821 0.151 1.05103018044e-38
-0.0195283532084 0.0541843039726 0.146 6.36149846057e-39
-0.0188482706782 0.053813178603 0.145 3.04173972197e-39
-0.0184281642953 0.0541843039726 0.146 2.67295720252e-39
-0.0182454274381 0.0552976800817 0.149 3.31832661156e-39
-0.0180400839595 0.0564110561907 0.152 9.22028185244e-39
-0.0171226319035 0.0552976800817 0.149 1.07876047575e-38
-0.016227786469 0.0541843039726 0.146 1.08797975848e-38
-0.0158924549167 0.054926554712 0.148 1.09716316796e-38
-0.0154384386015 0.0552976800817 0.149 1.00496767823e-38
-0.0150767326574 0.056039930821 0.151 5.71576611522e-39
-0.0147960337738 0.05715330693 0.154 2.76515283238e-39
-0.0140311764129 0.0564110561907 0.152 3.13393815443e-39
-0.0134584753348 0.0564110561907 0.152 6.08455844377e-39
-0.0128009994261 0.056039930821 0.151 9.22028185244e-39
-0.0122320661183 0.056039930821 0.151 1.06964881275e-38
-0.0117403721006 0.0564110561907 0.152 1.03277028054e-38
-0.0112411425424 0.0567821815604 0.153 1.01433115457e-38
-0.0106646736941 0.0567821815604 0.153 9.12736455387e-39
-0.0100882048458 0.0567821815604 0.153 5.80688554787e-39
-0.00951173599742 0.0567821815604 0.153 4.33068347673e-39
-0.00893526714909 0.0567821815604 0.153 4.97821088541e-39
-0.0084134309694 0.05715330693 0.154 7.83663134098e-39
-0.00793492414758 0.0578955576694 0.156 1.08790815213e-38
-0.0073471519885 0.0578955576694 0.156 1.09716330809e-38
-0.00667272111366 0.05715330693 0.154 1.11560243407e-38
-0.00609248449508 0.05715330693 0.154 1.07868858914e-38
-0.00554804169388 0.0575244322997 0.155 7.92882697084e-39
-0.00499606335218 0.0578955576694 0.156 5.34699340486e-39
-0.00446480774686 0.0586378084087 0.158 6.26858676719e-39
-0.00384500954065 0.0582666830391 0.157 8.02101979811e-39
-0.00325346961132 0.0582666830391 0.157 1.06039365678e-38
-0.00269583961424 0.0590089337784 0.159 1.05124570015e-38
-0.00208357694853 0.0586378084087 0.158 1.0789043891e-38
-0.00151652752583 0.0597511845178 0.161 1.09730722145e-38
-0.000915568170875 0.0601223098875 0.162 1.00496767823e-38
-0.000303305505166 0.0597511845178 0.161 8.11284968907e-39
0.000305189390292 0.0601223098875 0.162 7.92882416825e-39
0.000898613204748 0.0590089337784 0.159 9.58834550579e-39
0.00151652752583 0.0597511845178 0.161 1.12478668433e-38
0.00213632573204 0.0601223098875 0.162 1.13400624732e-38
0.00274670451262 0.0601223098875 0.162 1.0786888694e-38
0.00341925150234 0.0612356859965 0.165 1.11556712135e-38
0.00399195258042 0.0604934352571 0.163 1.09712799537e-38
0.00466261568501 0.0612356859965 0.165 1.0141519285e-38
0.00531632382348 0.0616068113662 0.166 9.77273396292e-39
0.00583439223292 0.0604934352571 0.163 1.11556684109e-38
0.00656722354665 0.0616068113662 0.166 1.08790815213e-38
0.00714934405035 0.0612356859965 0.165 1.09712771511e-38
0.00810070603861 0.0638335635842 0.172 1.09712771511e-38
0.0090030870136 0.0656891904326 0.177 1.12478640407e-38
0.00934218633615 0.0634624382145 0.171 1.11556684109e-38
0.0100448754879 0.0638335635842 0.172 1.08790815213e-38
0.0105685955527 0.0630913128449 0.17 1.07876047575e-38
0.0117366043304 0.0660603158023 0.178 1.14329741666e-38
0.0127557861831 0.0679159426506 0.183 1.13407785367e-38
0.01278404446 0.0645758143236 0.174 1.1156387277e-38
0.0133623971934 0.0642046889539 0.173 1.08798003874e-38
0.0142572426279 0.0653180650629 0.176 1.1156387277e-38
0.015852893329 0.0694004441293 0.187 1.1156387277e-38
0.0165574663659 0.0694004441293 0.187 1.10641916471e-38
0.0167081771759 0.0671736919113 0.181 1.1156387277e-38
0.0172940654499 0.0668025665416 0.18 1.12485829068e-38
0.01767272636 0.0656891904326 0.177 1.13407785367e-38
0.0194793721952 0.069771569499 0.188 1.12485829068e-38
0.019972950098 0.0690293187597 0.186 1.13407785367e-38
0.020229158475 0.067544817281 0.182 1.10641916471e-38
0.0206850586753 0.0668025665416 0.18 1.14329741666e-38
0.0211258877946 0.0660603158023 0.178 1.13407785367e-38
0.0231435287638 0.0701426948687 0.189 1.1156387277e-38
0.0238556373411 0.0701426948687 0.189 1.12485829068e-38
0.023657829403 0.067544817281 0.182 1.12485829068e-38
0.0242098077447 0.0671736919113 0.181 1.15251697964e-38
0.0247542505459 0.0668025665416 0.18 1.16173654263e-38
0.0259976147285 0.0682870680203 0.184 1.13407785367e-38
0.0266908844546 0.0682870680203 0.184 1.14329741666e-38
0.0270865003309 0.067544817281 0.182 1.14329741666e-38
0.0280774239068 0.0682870680203 0.184 1.1158180939e-38
0.0286143311675 0.0679159426506 0.183 1.1158180939e-38
0.0297842238303 0.0690293187597 0.186 1.08815940494e-38
0.0301572330851 0.0682870680203 0.184 1.09737896793e-38
0.0308505028112 0.0682870680203 0.184 1.08815940494e-38
0.0317152060837 0.06865819339 0.185 1.10659853091e-38
0.03241224358 0.06865819339 0.185 1.12503765689e-38
0.0334672192502 0.0694004441293 0.187 1.07893984196e-38
0.0345372660013 0.0701426948687 0.189 1.15251697964e-38
0.0345033560691 0.06865819339 0.185 1.14329741666e-38
0.0353906659631 0.0690293187597 0.186 1.14329741666e-38
0.0360914712297 0.0690293187597 0.186 1.14329741666e-38
0.0373857003107 0.0701426948687 0.189 1.1156387277e-38
0.0382993845965 0.0705138202384 0.19 1.1156387277e-38
0.0390152609441 0.0705138202384 0.19 1.10641916471e-38
0.0397311372917 0.0705138202384 0.19 1.1156387277e-38
0.0412985297159 0.0719983217171 0.194 1.11574634742e-38
0.0413795367763 0.070884945608 0.191 1.11574634742e-38
0.0418787663345 0.0705138202384 0.19 1.11574634742e-38
0.0425946426821 0.0705138202384 0.19 1.12496591041e-38
0.0439943693301 0.0716271963474 0.193 1.11574634742e-38
0.0449532668589 0.0719983217171 0.194 1.09730722145e-38
0.0461551855688 0.0727405724564 0.196 1.08808765846e-38
0.046654415127 0.0723694470867 0.195 1.12496591041e-38
0.0469030879635 0.0716271963474 0.193 1.10641916471e-38
0.0483706344761 0.0727405724564 0.196 1.15251697964e-38
0.0488585607235 0.0723694470867 0.195 1.12485829068e-38
0.05061057389 0.0738539485654 0.199 1.07876047575e-38
0.051618452432 0.0742250739351 0.2 1.06032134978e-38
0.0531575865794 0.0753384500442 0.203 1.12485829068e-38
0.0533911883349 0.0745961993048 0.201 1.12485829068e-38
0.0541485101553 0.0745961993048 0.201 1.12485829068e-38
0.0562716486914 0.0764518261532 0.206 1.15244537329e-38
0.0578786027033 0.0775652022622 0.209 9.95712802524e-39
0.0567011745 0.0749673246745 0.202 9.21956298633e-39
0.0583156640523 0.0760807007835 0.205 1.04181061746e-38
0.0605292290745 0.0779363276319 0.21 1.13400624732e-38
0.0619044652159 0.0786785783712 0.212 1.12478668433e-38
0.0612243826857 0.0768229515229 0.207 1.16166493628e-38
0.0623038488625 0.0771940768925 0.208 9.40395424606e-39
0.0649073781056 0.0794208291106 0.214 6.73028098002e-39
0.0641783145621 0.0775652022622 0.209 7.00686786961e-39
0.0649657785445 0.0775652022622 0.209 1.04181061746e-38
0.065124024895 0.0768229515229 0.207 1.09712799537e-38
0.0659039533369 0.0768229515229 0.207 1.11556712135e-38
0.0670060261351 0.0771940768925 0.208 1.06946930641e-38
0.0671378980939 0.0764518261532 0.206 7.56004164879e-39
0.0705514979409 0.0794208291106 0.214 5.90052031125e-39
-0.0513283341228 0.0427378179516 0.114 1.56768864398e-39
-0.0504523275395 0.0423629248117 0.113 2.30525368289e-39
-0.0504692825056 0.0427378179516 0.114 5.25551383851e-39
-0.0500397566971 0.0427378179516 0.114 8.94369496285e-39
-0.0496102308885 0.0427378179516 0.114 9.86565126149e-39
-0.0500435244673 0.0434876042314 0.116 1.01422353485e-38
-0.0500341050417 0.0438624973714 0.117 9.95784408875e-39
-0.0500171500756 0.0442373905113 0.118 9.12808341998e-39
-0.049572553186 0.0442373905113 0.118 6.26679170386e-39
-0.0495442949091 0.0446122836512 0.119 3.22433591837e-39
-0.0490959302493 0.0446122836512 0.119 2.76300324054e-39
-0.0490563686617 0.0449871767911 0.12 2.76372210665e-39
-0.0486042362316 0.0449871767911 0.12 5.25300411296e-39
-0.0485533713332 0.0453620699311 0.121 9.58763224487e-39
-0.0484949708944 0.045736963071 0.122 1.01408004189e-38
-0.0480353029238 0.045736963071 0.122 1.06943301278e-38
-0.048745527616 0.0468616424908 0.125 1.00518333807e-38
-0.0498193421374 0.0483612150505 0.129 9.40574650679e-39
-0.0489508710947 0.0479863219105 0.128 6.73028098002e-39
-0.0477112746823 0.0472365356307 0.126 3.77822856366e-39
-0.0468616424908 0.0468616424908 0.125 2.57968537544e-39
-0.0471329219488 0.0476114287706 0.127 2.85627226503e-39
-0.0462870575276 0.0472365356307 0.126 5.34734653207e-39
-0.045812318476 0.0472365356307 0.126 9.21956298633e-39
-0.0473552203936 0.0498607876102 0.133 1.03266266082e-38
-0.045797247395 0.0487361081904 0.13 1.02344309783e-38
-0.0453074372624 0.0487361081904 0.13 9.40395424606e-39
-0.0444728761519 0.0483612150505 0.129 6.08491157098e-39
-0.043645850582 0.0479863219105 0.128 3.68710913102e-39
-0.0445124377396 0.0494858944703 0.132 2.94954409211e-39
-0.0453488827352 0.05098546703 0.136 3.31832661156e-39
-0.045495825775 0.0517352533098 0.138 7.00687067221e-39
-0.043346312847 0.0498607876102 0.133 1.00493236551e-38
-0.041556621978 0.0483612150505 0.129 1.03277028054e-38
-0.0413889562019 0.0487361081904 0.13 1.05120926639e-38
-0.0412137548852 0.0491110013303 0.131 1.03277014041e-38
-0.0428960643021 0.0517352533098 0.138 9.40430737327e-39
-0.04421855166 0.0539846121494 0.144 6.36005932705e-39
-0.041856159713 0.0517352533098 0.138 3.96225688708e-39
-0.0404375942136 0.05061057389 0.135 3.50092420926e-39
-0.0396331752652 0.0502356807501 0.134 4.79238049216e-39
-0.0382522874683 0.0491110013303 0.131 8.48164482021e-39
-0.0383351784139 0.0498607876102 0.133 1.02351568509e-38
-0.0403942648558 0.0532348258695 0.142 1.05120968678e-38
-0.0392978437129 0.0524850395897 0.14 1.03277028054e-38
-0.0376626314241 0.05098546703 0.136 1.07872418212e-38
-0.0360575612974 0.0494858944703 0.132 8.48234967334e-39
-0.0352908200514 0.0491110013303 0.131 5.25264117666e-39
-0.0355941255566 0.0502356807501 0.134 4.05481545325e-39
-0.0366604045375 0.0524850395897 0.14 4.23920671298e-39
-0.0376814702754 0.0547343984292 0.146 6.72956491651e-39
-0.0368770513269 0.0543595052893 0.145 1.05110178679e-38
-0.0348273843106 0.0521101464497 0.139 1.0604289695e-38
-0.0335632973916 0.05098546703 0.136 1.07886809547e-38
-0.0328078594564 0.05061057389 0.135 1.03284202702e-38
-0.0327777172943 0.0513603601699 0.137 1.01418724122e-38
-0.0339099322546 0.0539846121494 0.144 6.73027817743e-39
-0.033599091209 0.0543595052893 0.145 4.23920391038e-39
-0.0319130140219 0.0524850395897 0.14 3.87042419352e-39
-0.030937161527 0.0517352533098 0.138 6.17531494011e-39
-0.0304172092324 0.0517352533098 0.138 9.68054393825e-39
-0.0296806101484 0.0513603601699 0.137 1.05120968678e-38
-0.030441699739 0.0536097190094 0.143 1.0697204191e-38
-0.0305302423399 0.0547343984292 0.146 1.06042882937e-38
-0.0297748044047 0.0543595052893 0.145 1.03266238056e-38
-0.0284221748848 0.0528599327296 0.141 7.74371404241e-39
-0.0280887272176 0.0532348258695 0.142 4.88457612202e-39
-0.0267775431704 0.0517352533098 0.138 3.87042419352e-39
-0.0270186804664 0.0532348258695 0.142 5.80761142047e-39
-0.0272296756005 0.0547343984292 0.146 8.94369496285e-39
-0.0263141074296 0.0539846121494 0.144 1.05117409379e-38
-0.0250556721659 0.0524850395897 0.14 1.08790815213e-38
-0.0247033856475 0.0528599327296 0.141 1.1063472781e-38
-0.0240006964958 0.0524850395897 0.14 1.05102990018e-38
-0.0236408744368 0.0528599327296 0.141 8.66638920715e-39
-0.0236013128492 0.0539846121494 0.144 4.88636838276e-39
-0.0232188841688 0.0543595052893 0.145 4.33319740617e-39
-0.0226725574825 0.0543595052893 0.145 5.99271874371e-39
-0.021973636101 0.0539846121494 0.144 9.58834830838e-39
-0.02128225026 0.0536097190094 0.143 1.06954091277e-38
-0.0211786365781 0.0547343984292 0.146 1.06954091277e-38
-0.0209111248904 0.0554841847091 0.148 1.09719960173e-38
-0.0202159712791 0.0551092915691 0.147 1.06946930641e-38
-0.0196621090523 0.0551092915691 0.147 9.03517172661e-39
-0.0189782587518 0.0547343984292 0.146 6.54517365678e-39
-0.0184281642953 0.0547343984292 0.146 6.82176054637e-39
-0.018122974905 0.0554841847091 0.148 7.743716845e-39
-0.0175653449079 0.0554841847091 0.148 1.03266294108e-38
-0.0170077149108 0.0554841847091 0.148 1.07876047575e-38
-0.016227786469 0.0547343984292 0.146 1.10641888445e-38
-0.0157850734645 0.0551092915691 0.147 1.08794360498e-38
-0.0153348249196 0.0554841847091 0.148 1.11560243407e-38
-0.0147771949225 0.0554841847091 0.148 9.58798256948e-39
-0.0144117212082 0.0562339709889 0.15 8.29689062418e-39
-0.0137542452995 0.055859077849 0.149 8.48128468651e-39
-0.0134584753348 0.0569837572688 0.152 9.68090407195e-39
-0.0128857742568 0.0569837572688 0.152 1.04195453081e-38
-0.0121510590579 0.0562339709889 0.15 1.05128129313e-38
-0.0115858935203 0.0562339709889 0.15 1.03284202702e-38
-0.0110941995026 0.0566088641288 0.151 1.051281153e-38
-0.0105252661948 0.0566088641288 0.151 1.06954063251e-38
-0.0100222688664 0.0569837572688 0.152 9.67982226954e-39
-0.00944956778829 0.0569837572688 0.152 9.58655044245e-39
-0.00887686671021 0.0569837572688 0.152 9.58799237857e-39
-0.00830416563213 0.0569837572688 0.152 1.0510304607e-38
-0.00783319435082 0.0577335435486 0.154 1.07868858914e-38
-0.00730005486037 0.0581084366886 0.155 1.07872418212e-38
-0.00667272111366 0.0577335435486 0.154 1.06950461914e-38
-0.00609248449508 0.0577335435486 0.154 1.09712771511e-38
-0.0055122478765 0.0577335435486 0.154 1.06946958667e-38
-0.00499606335218 0.0584833298285 0.156 1.00489705279e-38
-0.00449306602374 0.0596080092483 0.159 1.03251944812e-38
-0.00386950004728 0.0592331161083 0.158 1.08790843239e-38
-0.00325346961132 0.0588582229684 0.157 1.08805234574e-38
-0.00271279458037 0.0599829023882 0.16 1.05124570015e-38
-0.00212313853616 0.0603577955281 0.161 1.06968482612e-38
-0.00154478580271 0.0614824749479 0.164 1.09730722145e-38
-0.000904264860123 0.0599829023882 0.16 1.09716330809e-38
-0.000305189390292 0.060732688668 0.162 1.09709142148e-38
0.000308957160542 0.0614824749479 0.164 1.11560243407e-38
0.000938174792378 0.0622322612277 0.166 1.11556684109e-38
0.00157304407959 0.0626071543677 0.167 1.11556740161e-38
0.00220226171143 0.0626071543677 0.167 1.11553180862e-38
0.00278061444488 0.0614824749479 0.164 1.10631224564e-38
0.00343997423872 0.0622322612277 0.166 1.11556740161e-38
0.00418787663345 0.0641067269274 0.171 1.07868858914e-38
0.00500171500756 0.0663560857669 0.177 1.11560243407e-38
0.00550848010625 0.0644816200673 0.172 1.08797975848e-38
0.00597756750244 0.0626071543677 0.167 1.08797975848e-38
0.00664634672191 0.0629820475076 0.168 1.08797975848e-38
0.00740932019764 0.0641067269274 0.171 1.11563844744e-38
0.00833619167926 0.0663560857669 0.177 1.09719932147e-38
0.0090030870136 0.0663560857669 0.177 1.13407757341e-38
0.00939681900478 0.0644816200673 0.172 1.11563844744e-38
0.0100448754879 0.0644816200673 0.172 1.1432971364e-38
0.0106307637618 0.0641067269274 0.171 1.10641916471e-38
0.0116047323716 0.065981192627 0.176 1.12485829068e-38
0.012198156186 0.0656062994871 0.175 1.10641916471e-38
0.0126371014202 0.0644816200673 0.172 1.14329741666e-38
0.0133623971934 0.0648565132072 0.173 1.14329741666e-38
0.0141762355676 0.0656062994871 0.175 1.13407785367e-38
0.0152594695146 0.0674807651867 0.18 1.12485829068e-38
0.0157605829579 0.0667309789069 0.178 1.10641916471e-38
0.0161543149491 0.0656062994871 0.175 1.1156387277e-38
0.0170058310257 0.0663560857669 0.177 1.12485829068e-38
0.0175728804484 0.065981192627 0.176 1.14329741666e-38
0.0184432353763 0.0667309789069 0.178 1.14329741666e-38
0.019221279933 0.0671058720468 0.179 1.12485829068e-38
0.0197845615854 0.0667309789069 0.178 1.12485829068e-38
0.0205701416827 0.0671058720468 0.179 1.08798003874e-38
0.0210072030317 0.0663560857669 0.177 1.07876047575e-38
0.0222863610318 0.0682305514666 0.182 1.14329741666e-38
0.0229720952174 0.0682305514666 0.182 1.14329741666e-38
0.023267865182 0.0671058720468 0.179 1.15251697964e-38
0.0240760519008 0.0674807651867 0.18 1.12485829068e-38
0.0246167269317 0.0671058720468 0.179 1.1156387277e-38
0.025432449191 0.0674807651867 0.18 1.09719960173e-38
0.0264007661454 0.0682305514666 0.182 1.08798003874e-38
0.0270865003309 0.0682305514666 0.182 1.08798003874e-38
0.0283826132971 0.0697301240263 0.186 1.10659853091e-38
0.0287706936329 0.0689803377464 0.184 1.10659853091e-38
0.0296240935947 0.0693552308863 0.185 1.1158180939e-38
0.0299933350792 0.0686054446065 0.183 1.10659853091e-38
0.0306828370351 0.0686054446065 0.183 1.10659853091e-38
0.0315437725373 0.0689803377464 0.184 1.03284202702e-38
0.0320618409467 0.0686054446065 0.183 1.051281153e-38
0.0329303119895 0.0689803377464 0.184 1.10659853091e-38
0.0336235817156 0.0689803377464 0.184 1.13407785367e-38
0.0346898606965 0.0697301240263 0.186 1.15251697964e-38
0.0352003935654 0.0693552308863 0.185 1.14329741666e-38
0.0360914712297 0.0697301240263 0.186 1.09719960173e-38
0.0373857003107 0.070854803446 0.189 9.77345282903e-39
0.0382993845965 0.071229696586 0.19 9.68125719916e-39
0.0392206044227 0.0716045897259 0.191 1.02344309783e-38
0.0399402485406 0.0716045897259 0.191 1.1156387277e-38
0.041511408735 0.0731041622856 0.195 1.09730722145e-38
0.0413795367763 0.0716045897259 0.191 1.12496591041e-38
0.0418787663345 0.071229696586 0.19 1.04198984353e-38
0.042818825012 0.0716045897259 0.191 8.29939894843e-39
0.0446782196306 0.0734790554255 0.196 7.56183390953e-39
0.0456484204701 0.0738539485654 0.197 9.40574650679e-39
0.0461551855688 0.0734790554255 0.196 1.11574634742e-38
0.0464151617161 0.0727292691457 0.194 1.11574634742e-38
0.0486042362316 0.0749786279852 0.2 1.1801756686e-38
0.050098157136 0.076103307405 0.203 1.02344309783e-38
0.0491091174452 0.0734790554255 0.196 7.00758393313e-39
0.0508648983819 0.0749786279852 0.2 5.53245385531e-39
0.0529089137428 0.0768530936849 0.205 9.40467030957e-39
0.0539431666766 0.0772279868248 0.206 1.08798003874e-38
0.0541880717429 0.0764782005449 0.204 1.13407785367e-38
0.0544179057282 0.0757284142651 0.202 1.07876047575e-38
0.0565448120346 0.0776028799647 0.207 7.92810530213e-39
0.0584324649301 0.0791024525244 0.211 3.96369321801e-39
0.057543271151 0.0768530936849 0.205 3.68710632842e-39
0.0586001307062 0.0772279868248 0.206 8.7578659709e-39
0.0593762913778 0.0772279868248 0.206 1.11549523473e-38
0.0601524520495 0.0772279868248 0.206 1.18925173863e-38
0.0609286127211 0.0772279868248 0.206 1.02329960487e-38
0.0620043111276 0.0776028799647 0.207 5.43882329582e-39
0.0627842395694 0.0776028799647 0.207 3.31832661156e-39
0.062642948185 0.0764782005449 0.204 4.05589165047e-39
0.0637224143618 0.0768530936849 0.205 9.95641196172e-39
0.0654386337109 0.0779777731046 0.208 1.12471507798e-38
0.0659039533369 0.0776028799647 0.207 1.15237376694e-38
0.0666838817787 0.0776028799647 0.207 8.85006440336e-39
0.0687674587273 0.0791024525244 0.211 3.59491350115e-39
-0.0513547085145 0.0439246655805 0.116 6.63808535016e-39
-0.0504787019313 0.0435460046703 0.115 9.49614987592e-39
-0.0504805858164 0.0439246655805 0.116 1.01422353485e-38
-0.0496121147736 0.0435460046703 0.115 1.00511159158e-38
-0.0500341050417 0.0443033264907 0.117 9.77524649106e-39
-0.0500171500756 0.0446819874008 0.118 9.22207271188e-39
-0.049572553186 0.0446819874008 0.118 6.82211367358e-39
-0.0499606335218 0.0454393092212 0.12 4.60941855686e-39
-0.0482387625173 0.0446819874008 0.118 3.68782239194e-39
-0.0481992009297 0.045060648311 0.119 7.92954023176e-39
-0.0477508362699 0.045060648311 0.119 9.1291624198e-39
-0.0476999713715 0.0454393092212 0.12 1.03280657417e-38
-0.0464603749591 0.0446819874008 0.118 1.03280657417e-38
-0.050098157136 0.0496045792331 0.131 8.38979951497e-39
-0.0477112746823 0.0477112746823 0.126 5.80832187879e-39
-0.0468616424908 0.0473326137721 0.125 4.70197432043e-39
-0.0463906712095 0.0473326137721 0.125 5.99271313852e-39
-0.0459196999281 0.0473326137721 0.125 8.11321262538e-39
-0.0443579591593 0.0461966310416 0.122 9.77273396292e-39
-0.0469991661049 0.0499832401433 0.132 9.95892308857e-39
-0.0450926743582 0.0484685965026 0.128 9.86672745871e-39
-0.0446103997661 0.0484685965026 0.128 9.86672745871e-39
-0.044128125174 0.0484685965026 0.128 8.29940175103e-39
-0.043645850582 0.0484685965026 0.128 6.91646730308e-39
-0.0445124377396 0.0499832401433 0.132 6.3632935239e-39
-0.0446819874008 0.0507405619637 0.134 7.65403234199e-39
-0.0448364659811 0.051497883784 0.136 1.03266266082e-38
-0.0426944885937 0.0496045792331 0.131 1.04188222381e-38
-0.041556621978 0.0488472574128 0.129 1.05110178679e-38
-0.0413889562019 0.049225918323 0.13 1.06954091277e-38
-0.0412137548852 0.0496045792331 0.131 1.05110178679e-38
-0.0425852232564 0.0518765446942 0.137 1.00500397186e-38
-0.0426831852829 0.0526338665146 0.139 9.31247467971e-39
-0.0415528542078 0.0518765446942 0.137 8.66710527067e-39
