VERSION .7
FIELDS x y z rgb
SIZE 4 4 4 4
TYPE F F F F
COUNT 1 1 1 1
WIDTH 847
HEIGHT 1
VIEWPOINT 0 0 0 1 0 0 0
POINTS 847
DATA ascii
0.00687241293694 -0.0256811220275 0.192 1.42009898517e-38
0.00759582482504 -0.0256811220275 0.192 1.41087970244e-38
0.00883918900771 -0.0272861921542 0.204 1.42931882842e-38
0.00937232849815 -0.0266174129348 0.199 1.42928323544e-38
0.0098677902861 -0.0259486337153 0.194 1.41084410946e-38
0.0104894723774 -0.0256811220275 0.192 1.41084424959e-38
0.0113296851433 -0.0259486337153 0.194 1.39240512362e-38
0.013055323918 -0.0280887272176 0.21 1.43850279842e-38
0.0137146837119 -0.0278212155298 0.208 1.43850279842e-38
0.0138013424276 -0.0264836570909 0.198 1.42006367245e-38
0.0142534748577 -0.0259486337153 0.194 1.39240498349e-38
0.0149844222863 -0.0259486337153 0.194 1.32786804259e-38
0.0165254403188 -0.0272861921542 0.204 1.4569419244e-38
0.017717939603 -0.0279549713737 0.209 1.42006367245e-38
0.0175314349756 -0.0264836570909 0.198 1.33708760557e-38
0.0178159016296 -0.0258148778714 0.193 1.35563435127e-38
0.0185430812879 -0.0258148778714 0.193 1.39240498349e-38
0.0197694905044 -0.0264836570909 0.198 1.47530930389e-38
0.0207227363778 -0.0267511687786 0.2 1.21705392055e-38
0.0209393831672 -0.0260823895592 0.195 1.14329741666e-38
0.0216740983661 -0.0260823895592 0.195 1.4015528e-38
0.0222938965723 -0.0259486337153 0.194 1.39240498349e-38
0.0231435287638 -0.0260823895592 0.195 1.32797566231e-38
0.0238782439626 -0.0260823895592 0.195 1.36456720859e-38
0.0243605185547 -0.0258148778714 0.193 1.20783463782e-38
0.0248277220658 -0.0255473661836 0.191 4.61122062669e-39
0.0252798544958 -0.0252798544958 0.189 6.54768478363e-39
0.0259919630732 -0.0252798544958 0.189 1.05128129313e-38
0.0268453630349 -0.0254136103397 0.19 1.41084424959e-38
0.0277062985372 -0.0255473661836 0.191 1.30031739374e-38
0.0285747695799 -0.0256811220275 0.192 1.3095368166e-38
0.0294507761631 -0.0258148778714 0.193 8.38979951497e-39
0.0303343182869 -0.0259486337153 0.194 3.87221365166e-39
0.0310652657155 -0.0259486337153 0.194 3.87221365166e-39
0.0316323151382 -0.0258148778714 0.193 9.03588498752e-39
0.0320241632442 -0.0255473661836 0.191 1.36467454805e-38
0.0334295415477 -0.0260823895592 0.195 1.34623528195e-38
0.0339890554299 -0.0259486337153 0.194 1.36467440792e-38
0.0345410337716 -0.0258148778714 0.193 7.37851604443e-39
0.0356336871442 -0.0260823895592 0.195 3.68997198378e-39
0.0361818977157 -0.0259486337153 0.194 3.78216761364e-39
0.0369128451443 -0.0259486337153 0.194 1.04202529638e-38
0.037449752405 -0.0258148778714 0.193 1.41080781583e-38
0.0385725479396 -0.0260823895592 0.195 1.3647100009e-38
0.0399119902637 -0.0264836570909 0.198 1.37392956389e-38
0.0404526652946 -0.026349901247 0.197 1.02358617041e-38
0.0409858047851 -0.0262161454031 0.196 7.74657969777e-39
0.041511408735 -0.0260823895592 0.195 9.95963775079e-39
0.0450625321961 -0.0278212155298 0.208 1.30942891661e-38
0.0454053992889 -0.027553703842 0.206 1.35552673155e-38
0.0464057422905 -0.0276874596859 0.207 1.35552673155e-38
0.0478695210328 -0.0280887272176 0.21 1.32786804259e-38
0.0486607527854 -0.0280887272176 0.21 1.32786804259e-38
0.0482745563347 -0.0274199479981 0.205 1.33708760557e-38
0.049286202647 -0.027553703842 0.206 1.34630716856e-38
0.0520065327678 -0.0286237505932 0.214 1.35552673155e-38
0.0530596245529 -0.028757506437 0.215 1.3831854205e-38
0.0548719220434 -0.0292925298126 0.219 1.36474629453e-38
0.0546797657606 -0.028757506437 0.215 1.36474629453e-38
0.0619421429184 -0.0321014025344 0.24 1.37396585752e-38
0.163253717185 -0.0810560413993 0.606 1.35552673155e-38
0.169361272761 -0.0829286232138 0.62 1.31868379232e-38
0.170589565862 -0.0823935998382 0.616 1.35556204427e-38
0.17852449001 -0.0850687167161 0.636 1.32790335531e-38
0.184334391736 -0.0866737868428 0.648 1.32783174896e-38
0.190234719948 -0.0882788569695 0.66 1.32772384897e-38
0.19972950098 -0.091488997223 0.684 1.31850456625e-38
0.204672815548 -0.0925590439741 0.692 1.34616325521e-38
0.209077338971 -0.0933615790375 0.698 1.36453049457e-38
0.215650214173 -0.0951004050081 0.711 1.34634248128e-38
0.223856417779 -0.0975080101982 0.729 1.31868407258e-38
0.234063307388 -0.100718150452 0.753 1.37396599765e-38
0.24350722352 -0.103527023173 0.774 1.27251521182e-38
0.250562373315 -0.105265849144 0.787 1.30017390078e-38
0.25191688672 -0.104597069925 0.782 1.36474643466e-38
0.257144667942 -0.105533360832 0.789 1.3094645096e-38
0.261436158258 -0.106068384207 0.793 1.34634248128e-38
0.266091238402 -0.106737163427 0.798 1.45672612443e-38
0.269772349937 -0.107004675115 0.8 1.05113723964e-38
0.271763616514 -0.106603407583 0.797 7.00793846164e-39
0.27200852158 -0.105533360832 0.789 8.29867727973e-39
0.275678329804 -0.10580087252 0.791 1.22638096313e-38
0.280772355183 -0.106603407583 0.797 1.33708760557e-38
0.292320571001 -0.109813547836 0.821 1.33708760557e-38
0.293974622141 -0.109278524461 0.817 1.23567241272e-38
0.298507249752 -0.109813547836 0.821 5.6257256824e-39
0.30013115873 -0.109278524461 0.817 4.24279123445e-39
0.302467176286 -0.109011012773 0.815 4.79596501363e-39
0.307787267879 -0.109813547836 0.821 1.14340503638e-38
0.310501946345 -0.109679791992 0.82 1.28169848117e-38
0.315121232672 -0.110214815368 0.824 1.33701585909e-38
0.317453482457 -0.10994730368 0.822 1.18950285131e-38
0.321720482266 -0.110348571212 0.825 5.6257256824e-39
0.327585016661 -0.111284862119 0.832 4.97927727354e-39
0.321974806758 -0.108342233554 0.81 4.51829912422e-39
0.329440643509 -0.109813547836 0.821 1.19861451432e-38
0.340634688923 -0.112488664714 0.841 1.32768839612e-38
0.343394580632 -0.11235490887 0.84 1.32768839612e-38
0.347384649327 -0.112622420558 0.842 1.2078340773e-38
0.356385852456 -0.114495002373 0.856 8.02173305903e-39
0.358350744641 -0.114093734841 0.853 5.53245105272e-39
0.360716904359 -0.113826223153 0.851 9.68233339638e-39
0.362640351071 -0.113424955621 0.848 1.24482022923e-38
0.373169385037 -0.115698804968 0.865 1.32779629611e-38
0.3716415542 -0.114227490685 0.854 1.32779629611e-38
0.377492901399 -0.115030025748 0.86 1.22638110326e-38
0.387816591885 -0.11717011925 0.876 1.18950285131e-38
0.388438273977 -0.116367584187 0.87 1.14340503638e-38
0.393967476819 -0.117036363407 0.875 1.23560066624e-38
0.402712471571 -0.118641433533 0.887 1.30942891661e-38
0.411090108723 -0.120112747816 0.898 1.30020935363e-38
0.420012188676 -0.121717817943 0.91 1.29098979064e-38
0.416461065215 -0.119711480284 0.895 1.28177022766e-38
0.417956870004 -0.119176456909 0.891 1.29098979064e-38
0.420368242965 -0.118908945221 0.889 1.29098979064e-38
0.41752169254 -0.11717011925 0.876 1.26333110168e-38
0.431390854833 -0.120112747816 0.898 1.3186484796e-38
0.434774312518 -0.120112747816 0.898 1.28177022766e-38
0.439621548945 -0.120514015348 0.901 1.30020935363e-38
0.433674123604 -0.117972654314 0.882 1.28177022766e-38
0.437988220541 -0.118240166002 0.884 1.2541115387e-38
0.440320470326 -0.117972654314 0.882 1.26333110168e-38
0.446158630329 -0.118641433533 0.887 1.26333110168e-38
0.443926226456 -0.11717011925 0.876 1.26333110168e-38
0.436505602948 -0.114361246529 0.855 1.29098979064e-38
0.432526837563 -0.112488664714 0.841 1.30935717013e-38
0.448129174171 -0.115698804968 0.865 1.30013760715e-38
0.443038916562 -0.113558711465 0.849 1.27247891819e-38
0.443609733755 -0.112889932246 0.844 1.28169848117e-38
0.45525967937 -0.115030025748 0.86 1.30935717013e-38
0.45263542739 -0.113558711465 0.849 1.32779629611e-38
0.471941482154 -0.117571386782 0.879 1.33701585909e-38
0.468765251833 -0.115966316655 0.867 1.32779629611e-38
0.467131923429 -0.11476251406 0.858 1.40119294655e-38
0.475298565447 -0.115966316655 0.867 1.37346195059e-38
0.47293994127 -0.113826223153 0.851 1.06910791154e-38
0.494050757984 -0.118106410158 0.883 1.09676646037e-38
0.490055037633 -0.116367584187 0.87 1.10605762971e-38
0.492198898906 -0.116100072499 0.868 1.08779829033e-38
0.478503054045 -0.10994730368 0.822 1.06917965802e-38
0.495661479766 -0.113157443934 0.846 1.09683806672e-38
0.475852427674 -0.107940966022 0.807 1.13371631867e-38
0.478947650935 -0.107272186802 0.802 1.11531278567e-38
-0.110480443171 -0.0240477936239 0.185 1.31857659299e-38
-0.109783405674 -0.0240477936239 0.185 1.30013746702e-38
-0.108496712134 -0.0239178055503 0.184 1.28169834104e-38
-0.107803442408 -0.0239178055503 0.184 1.30013746702e-38
-0.107692293185 -0.0240477936239 0.185 1.30935703e-38
-0.106416902956 -0.0239178055503 0.184 1.31857659299e-38
-0.105723633229 -0.0239178055503 0.184 1.30935703e-38
-0.10445954631 -0.0237878174766 0.183 1.29098979064e-38
-0.103770044355 -0.0237878174766 0.183 1.29098979064e-38
-0.103643824051 -0.0239178055503 0.184 1.29098979064e-38
-0.102950554325 -0.0239178055503 0.184 1.30942891661e-38
-0.102257284599 -0.0239178055503 0.184 1.30020935363e-38
-0.103219949898 -0.0243077697712 0.187 1.3186484796e-38
-0.10196716629 -0.0241777816975 0.186 1.30942891661e-38
-0.100177475421 -0.0239178055503 0.184 1.33708760557e-38
-0.0989435306636 -0.0237878174766 0.183 1.30935717013e-38
-0.0982540287078 -0.0237878174766 0.183 1.34623542208e-38
-0.100230224204 -0.0244377578448 0.188 1.25403979221e-38
-0.0984631399567 -0.0241777816975 0.186 1.2632593552e-38
-0.09828793864 -0.0243077697712 0.187 1.32779629611e-38
-0.0975833656032 -0.0243077697712 0.187 1.32779629611e-38
-0.0989510662041 -0.0248277220658 0.191 1.33701585909e-38
-0.0987457227255 -0.0249577101394 0.192 1.25403979221e-38
-0.0959801793616 -0.0244377578448 0.188 8.29832275121e-39
-0.0947650734558 -0.0243077697712 0.187 5.62464948518e-39
-0.0960724897327 -0.0248277220658 0.191 9.40467030957e-39
-0.0988474525222 -0.0257376385813 0.198 1.32768867638e-38
-0.0931468161332 -0.0244377578448 0.188 1.35534736534e-38
-0.0899800052376 -0.0237878174766 0.183 1.36456692833e-38
-0.0892905032818 -0.0237878174766 0.183 8.94369216026e-39
-0.0905376352347 -0.0243077697712 0.187 4.0573237775e-39
-0.0893526714909 -0.0241777816975 0.186 3.0431746516e-39
-0.0862687515409 -0.0235278413293 0.181 9.77345282903e-39
-0.086059640292 -0.023657829403 0.182 1.31846883314e-38
-0.086781168295 -0.0240477936239 0.185 1.32772384897e-38
-0.0865494504246 -0.0241777816975 0.186 1.21708909314e-38
-0.0840024377352 -0.023657829403 0.182 5.16366853326e-39
-0.0828589194642 -0.0235278413293 0.181 3.96512814764e-39
-0.0821769530488 -0.0235278413293 0.181 7.09978236559e-39
-0.0819452351784 -0.023657829403 0.182 1.31857673312e-38
-0.0812595009928 -0.023657829403 0.182 1.32779629611e-38
-0.0796883407984 -0.0233978532557 0.18 1.37389411104e-38
-0.0794490873875 -0.0235278413293 0.181 1.1987224143e-38
-0.0783319435082 -0.0233978532557 0.18 8.11500768871e-39
-0.0776537448631 -0.0233978532557 0.18 8.85257272761e-39
-0.0761202623711 -0.0231378771084 0.178 1.22638110326e-38
-0.0771450958793 -0.023657829403 0.182 1.35545498506e-38
-0.0739387233961 -0.0228779009611 0.176 1.33687194574e-38
-0.0778553205715 -0.0243077697712 0.187 1.38300577404e-38
-0.0796261725892 -0.025087698213 0.193 1.37378621106e-38
-0.0756285683534 -0.0240477936239 0.185 1.410664463e-38
-0.0729063543474 -0.0233978532557 0.18 1.31857673312e-38
-0.0718268881707 -0.023267865182 0.179 1.31864861973e-38
-0.0763199541944 -0.0249577101394 0.192 1.31864861973e-38
-0.0791401302269 -0.0261276028022 0.201 1.30020949376e-38
-0.0733132735345 -0.0244377578448 0.188 1.26333110168e-38
-0.0702877540233 -0.023657829403 0.182 1.32786804259e-38
-0.070749305879 -0.0240477936239 0.185 1.30942891661e-38
-0.074974860215 -0.0257376385813 0.198 1.3186484796e-38
-0.0701050171662 -0.0243077697712 0.187 1.32786804259e-38
-0.0679159426506 -0.0237878174766 0.183 1.33708760557e-38
-0.0657570102971 -0.023267865182 0.179 1.3186484796e-38
-0.0661733489098 -0.023657829403 0.182 1.32786804259e-38
-0.066207258842 -0.0239178055503 0.184 1.32779615598e-38
-0.0640897719612 -0.0233978532557 0.18 1.34623528195e-38
-0.0623547137609 -0.0230078890348 0.177 1.37389397091e-38
-0.0616878184265 -0.0230078890348 0.177 1.31857659299e-38
-0.062055176026 -0.0233978532557 0.18 1.32779615598e-38
-0.0613769773809 -0.0233978532557 0.18 1.35545484493e-38
-0.0606987787358 -0.0233978532557 0.18 1.2448200891e-38
-0.0596871324235 -0.023267865182 0.179 9.31354947563e-39
-0.0580236618579 -0.0228779009611 0.176 9.77452902625e-39
-0.0580123585472 -0.0231378771084 0.178 1.30935717013e-38
-0.057663839799 -0.023267865182 0.179 1.38311367402e-38
-0.0569894089241 -0.023267865182 0.179 1.30935717013e-38
-0.0560003692334 -0.0231378771084 0.178 1.32779629611e-38
-0.0553297061288 -0.0231378771084 0.178 6.45548635117e-39
-0.0549661162996 -0.023267865182 0.179 3.78181308513e-39
-0.0548982964351 -0.0235278413293 0.181 5.53353005254e-39
-0.053317716815 -0.0231378771084 0.178 1.24499987569e-38
-0.0520555137811 -0.0228779009611 0.176 1.35563463153e-38
-0.051392386217 -0.0228779009611 0.176 1.37396585752e-38
-0.0544763061671 -0.0245677459185 0.189 1.05128129313e-38
-0.0557554641671 -0.025477662434 0.196 3.50522899814e-39
-0.0519292934777 -0.0240477936239 0.185 4.15059840718e-39
-0.0498476004143 -0.0233978532557 0.18 6.17782326436e-39
-0.0491694017692 -0.0233978532557 0.18 1.30924983067e-38
-0.0528015322907 -0.025477662434 0.196 1.39233309688e-38
-0.0533911883349 -0.0261276028022 0.201 1.37389397091e-38
-0.0489678260608 -0.0243077697712 0.187 9.68233199509e-39
-0.0474889762375 -0.0239178055503 0.184 4.15059420329e-39
-0.0473043554952 -0.0241777816975 0.186 5.07255050192e-39
-0.0503619010535 -0.0261276028022 0.201 9.4057451055e-39
-0.0491110013303 -0.0258676266549 0.199 1.38311353389e-38
-0.0444728761519 -0.0237878174766 0.183 1.34623528195e-38
-0.0430656139634 -0.0233978532557 0.18 1.42921148896e-38
-0.0421519296776 -0.023267865182 0.179 1.22638110326e-38
-0.0430995238956 -0.0241777816975 0.186 1.04198984353e-38
-0.0419428184287 -0.0239178055503 0.184 1.12496591041e-38
-0.0401286370531 -0.023267865182 0.179 1.34623542208e-38
-0.0392337916186 -0.0231378771084 0.178 1.37389411104e-38
-0.0389964220928 -0.0233978532557 0.18 1.4015528e-38
-0.038743981486 -0.023657829403 0.182 1.39233323701e-38
-0.0382673585493 -0.0237878174766 0.183 1.46616148738e-38
-0.0373725131148 -0.023657829403 0.182 1.4569419244e-38
-0.0364852032209 -0.0235278413293 0.181 1.42928323544e-38
-0.0358032368055 -0.0235278413293 0.181 1.40162454648e-38
-0.035509350726 -0.0237878174766 0.183 1.39240498349e-38
-0.0344393039748 -0.0235278413293 0.181 1.42006367245e-38
-0.0339438421869 -0.023657829403 0.182 1.39240498349e-38
-0.032892634287 -0.0233978532557 0.18 1.37396585752e-38
-0.032035466555 -0.023267865182 0.179 1.3740737575e-38
-0.0320618409467 -0.0237878174766 0.183 1.34641506854e-38
-0.0317152060837 -0.0240477936239 0.185 1.41095200945e-38
-0.0305151712589 -0.023657829403 0.182 1.39251288347e-38
-0.0298294370733 -0.023657829403 0.182 1.38329332049e-38
-0.0289835726521 -0.0235278413293 0.181 1.41095200945e-38
-0.0286143311675 -0.0237878174766 0.183 1.3740737575e-38
-0.0296033708583 -0.0252176862867 0.194 1.36485419451e-38
-0.0275329811056 -0.0240477936239 0.185 1.41084410946e-38
-0.0265458253 -0.0237878174766 0.183 1.42928323544e-38
-0.0257150319598 -0.023657829403 0.182 1.37396585752e-38
-0.0261294866873 -0.0246977339921 0.19 1.3831854205e-38
-0.0268849246225 -0.0261276028022 0.201 1.42006367245e-38
-0.0249577101394 -0.0249577101394 0.192 1.16191590883e-38
-0.023476976431 -0.0241777816975 0.186 9.49865960147e-39
-0.0225312660981 -0.0239178055503 0.184 1.27255066467e-38
-0.0220753658978 -0.0241777816975 0.186 1.40166013946e-38
-0.0234430664987 -0.0265175670231 0.204 1.39240498349e-38
-0.0217852475885 -0.025477662434 0.196 1.42928337557e-38
-0.019972950098 -0.0241777816975 0.186 1.08812395209e-38
-0.0189613037857 -0.0237878174766 0.183 3.68998039157e-39
-0.0186711854764 -0.0243077697712 0.187 3.96692321097e-39
-0.0187352375707 -0.0253476743603 0.195 8.20792078339e-39
-0.0179082120007 -0.0252176862867 0.194 1.39244057647e-38
-0.0165574663659 -0.0243077697712 0.187 1.34641478828e-38
-0.0156833436678 -0.0240477936239 0.185 1.40162454648e-38
-0.0149863061714 -0.0240477936239 0.185 8.02281205884e-39
-0.0143665079652 -0.0241777816975 0.186 3.31975873859e-39
-0.0137391742185 -0.0243077697712 0.187 2.48999806982e-39
-0.012964897432 -0.0241777816975 0.186 9.68233339638e-39
-0.0121322202067 -0.0239178055503 0.184 1.42928323544e-38
-0.0113767822714 -0.0237878174766 0.183 1.39251260321e-38
-0.0106872803156 -0.0237878174766 0.183 1.42006367245e-38
-0.010107043697 -0.0240477936239 0.185 7.10157322503e-39
-0.00946087109904 -0.0241777816975 0.186 3.50594366036e-39
-0.00871296870431 -0.0240477936239 0.185 5.1654649979e-39
-0.00805926056585 -0.0241777816975 0.186 1.3186484796e-38
-0.00731889371162 -0.0240477936239 0.185 1.40162454648e-38
-0.00665765003266 -0.0241777816975 0.186 1.3831854205e-38
-0.00595684476606 -0.0241777816975 0.186 1.3831854205e-38
-0.00522778122259 -0.0240477936239 0.185 1.11581823403e-38
-0.0045797247395 -0.0243077697712 0.187 9.86744352222e-39
-0.00385442896628 -0.0241777816975 0.186 1.18035503481e-38
-0.00318753363193 -0.0244377578448 0.188 1.40162454648e-38
-0.00250556721659 -0.0246977339921 0.19 1.3740014505e-38
-0.00178027144337 -0.0245677459185 0.189 1.42009926543e-38
-0.00105120789989 -0.0241777816975 0.186 1.45697723712e-38
-0.000346634863047 -0.0239178055503 0.184 1.42931854816e-38
0.000356054288674 -0.0245677459185 0.189 1.42928323544e-38
0.00108511783215 -0.0249577101394 0.192 1.46616148738e-38
0.00176143259212 -0.0243077697712 0.187 1.43850279842e-38
0.00247919282484 -0.0244377578448 0.188 1.39240498349e-38
0.00318753363193 -0.0244377578448 0.188 1.39240498349e-38
0.0040202108573 -0.0252176862867 0.194 1.42928323544e-38
0.00509402537869 -0.0270375193177 0.208 1.39240498349e-38
0.00567991365265 -0.0261276028022 0.201 1.35552673155e-38
0.00624507919023 -0.0253476743603 0.195 1.41087942219e-38
0.0069440005717 -0.0252176862867 0.194 1.4016598592e-38
0.00787275593845 -0.0258676266549 0.199 1.42009926543e-38
0.00918582387075 -0.0275574716123 0.212 1.42931882842e-38
0.0097491055232 -0.026907531244 0.207 1.37396585752e-38
0.00996952008286 -0.025477662434 0.196 1.42006367245e-38
0.0105441050461 -0.025087698213 0.193 1.44772250154e-38
0.0113296851433 -0.0252176862867 0.194 1.41084424959e-38
0.0123714736176 -0.0258676266549 0.199 1.39240498349e-38
0.0131212598974 -0.0258676266549 0.199 1.44772236141e-38
0.0135225274291 -0.0252176862867 0.194 1.39240498349e-38
0.014033060298 -0.0248277220658 0.191 1.41084410946e-38
0.0146754651258 -0.0246977339921 0.19 1.16191590883e-38
0.0156343626545 -0.025087698213 0.193 9.22207271188e-39
0.0165310919741 -0.0253476743603 0.195 1.20801372376e-38
0.0170001793703 -0.0249577101394 0.192 1.44772236141e-38
0.017446660145 -0.0245677459185 0.189 1.37407347724e-38
0.0183509250051 -0.0248277220658 0.191 1.42928323544e-38
0.019070569123 -0.0248277220658 0.191 1.22638110326e-38
0.0201010542865 -0.0252176862867 0.194 4.97928007613e-39
0.0205098573587 -0.0248277220658 0.191 4.51830192682e-39
0.0214517999213 -0.025087698213 0.193 7.46963827967e-39
0.0221789795797 -0.025087698213 0.193 1.36474629453e-38
0.0231435287638 -0.0253476743603 0.195 1.34641478828e-38
0.0238782439626 -0.0253476743603 0.195 1.41988458651e-38
0.0242342982513 -0.0249577101394 0.192 9.77345282903e-39
0.0248277220658 -0.0248277220658 0.191 3.32083773841e-39
0.0251460986519 -0.0244377578448 0.188 4.15059560459e-39
0.025854439459 -0.0244377578448 0.188 6.73279210687e-39
0.0265627802661 -0.0244377578448 0.188 1.35552673155e-38
0.0275612393825 -0.0246977339921 0.19 1.29109769062e-38
0.0282771157301 -0.0246977339921 0.19 1.3095368166e-38
0.0291455867729 -0.0248277220658 0.191 8.85077766428e-39
0.0301779558215 -0.025087698213 0.193 3.68853845545e-39
0.0312253959511 -0.0253476743603 0.195 3.96512534504e-39
0.0324518051677 -0.0257376385813 0.198 9.49794213666e-39
0.0325271605727 -0.0252176862867 0.194 1.35545484493e-38
0.0334295415477 -0.0253476743603 0.195 1.34634276154e-38
0.0339890554299 -0.0252176862867 0.194 1.41087970244e-38
0.0357938173799 -0.0259976147285 0.2 1.14351237584e-38
0.0385574768586 -0.0274274835386 0.211 8.9458417521e-39
0.0376739347349 -0.0262575908758 0.202 9.40681990142e-39
0.0376739347349 -0.0257376385813 0.198 1.28180582064e-38
0.0380318729087 -0.025477662434 0.196 1.42009926543e-38
0.0401550114449 -0.0263875789495 0.203 1.41087970244e-38
0.0439435044317 -0.0283374000541 0.218 1.40166013946e-38
0.0431221305171 -0.027297495465 0.21 1.41087970244e-38
0.0416131385318 -0.0258676266549 0.199 1.38322101349e-38
0.0419371667733 -0.0256076505076 0.197 1.32786804259e-38
0.0441959450385 -0.0265175670231 0.204 1.41084410946e-38
0.0449645701696 -0.0265175670231 0.204 1.39240498349e-38
0.0470782892802 -0.027297495465 0.21 1.34630716856e-38
0.0478695210328 -0.027297495465 0.21 1.41084410946e-38
0.0468070098221 -0.0262575908758 0.202 1.36474629453e-38
0.0468616424908 -0.0258676266549 0.199 1.37396585752e-38
0.0507217231124 -0.0275574716123 0.212 1.34630716856e-38
0.0505484056809 -0.0270375193177 0.208 1.32786804259e-38
0.0496045792331 -0.0261276028022 0.201 1.33708760557e-38
0.0506124577752 -0.0262575908758 0.202 1.36474629453e-38
0.0511192228738 -0.0261276028022 0.201 1.35552673155e-38
0.0552317441023 -0.0278174477595 0.214 1.3186484796e-38
0.158135201299 -0.0763029992283 0.587 1.34630716856e-38
0.166356475986 -0.0791627368484 0.609 1.33712291829e-38
0.168374116955 -0.0790327487748 0.608 1.34634248128e-38
0.176559597824 -0.0817624983213 0.629 1.35556232453e-38
0.183765458428 -0.0839722955732 0.646 1.33705131194e-38
0.188505313403 -0.0850122001623 0.654 1.19865024743e-38
0.199145496591 -0.0886518662243 0.682 1.16177199548e-38
0.203193965725 -0.0893018065926 0.687 1.30002970716e-38
0.206381499357 -0.0895617827398 0.689 1.37375019768e-38
0.211707242606 -0.0907316754026 0.698 1.34634276154e-38
0.220785685025 -0.0934614249491 0.719 1.30942891661e-38
0.233130784251 -0.097491055232 0.75 1.06050085611e-38
0.24350722352 -0.100610768999 0.774 5.90267550829e-39
0.24928886697 -0.101780661662 0.783 5.99487113815e-39
0.25095045365 -0.101260709368 0.779 1.10659867104e-38
0.256492843689 -0.102300613957 0.787 1.30942891661e-38
0.258139359288 -0.101780661662 0.783 1.32790363557e-38
0.26275676173 -0.10243060203 0.788 1.37375005755e-38
0.269097919062 -0.103730482767 0.798 7.1001340915e-39
0.270740666891 -0.103210530472 0.794 4.24206956574e-39
0.271319019625 -0.102300613957 0.787 3.87328704629e-39
0.27463277356 -0.10243060203 0.788 1.09730708132e-38
0.280067782146 -0.103340518546 0.795 1.30942891661e-38
0.288760028114 -0.105420327724 0.811 1.30020935363e-38
0.290016579493 -0.104770387356 0.806 1.24489197571e-38
0.296325710777 -0.105940280019 0.815 5.81011694213e-39
0.302335304327 -0.106980184608 0.823 3.78181308513e-39
0.303951677764 -0.106460232313 0.819 4.33498686431e-39
0.307787267879 -0.106720208461 0.821 1.10652678443e-38
0.310123285435 -0.106460232313 0.819 1.34623542208e-38
0.316650947394 -0.107630124976 0.828 1.29091804416e-38
0.321701643415 -0.108280065344 0.833 1.29091804416e-38
0.326400052917 -0.108800017639 0.837 9.03696398734e-39
0.32404142874 -0.106980184608 0.823 7.56075490971e-39
0.316409810098 -0.10347050662 0.796 8.02173305903e-39
0.331045713636 -0.107240160755 0.825 1.30002970716e-38
0.342254830131 -0.109839922228 0.845 1.33690795911e-38
0.340532959127 -0.108280065344 0.833 1.3461275221e-38
0.346559507642 -0.10918998186 0.84 1.36456664807e-38
0.358883884132 -0.11204971948 0.862 1.26315145522e-38
0.362131702088 -0.11204971948 0.862 1.24471232925e-38
0.360716904359 -0.11061985067 0.851 1.27247891819e-38
0.363923276842 -0.11061985067 0.851 1.33701585909e-38
0.370580926874 -0.111659755259 0.859 1.28169848117e-38
0.372511909128 -0.111269791038 0.856 1.29091804416e-38
0.376615010931 -0.111529767185 0.858 1.33701585909e-38
0.385603026863 -0.113219612143 0.871 1.30013760715e-38
0.384866427779 -0.11204971948 0.862 1.30013760715e-38
0.394417725364 -0.113869552511 0.876 1.30935717013e-38
0.399534357365 -0.114389504806 0.88 1.29098979064e-38
0.410632324637 -0.116599302058 0.897 1.30020935363e-38
0.414012014552 -0.116599302058 0.897 1.30020935363e-38
0.422510220352 -0.118029170868 0.908 1.30020935363e-38
0.413265996042 -0.114519492879 0.881 1.29098979064e-38
0.427461070461 -0.117509218573 0.904 1.27255066467e-38
0.420858053097 -0.114779469027 0.883 1.28177022766e-38
0.419381087159 -0.11347958829 0.873 1.30020935363e-38
0.427027776883 -0.114649480953 0.882 1.3186484796e-38
0.432302655233 -0.115169433247 0.886 1.28177022766e-38
0.433182429587 -0.114519492879 0.881 1.28177022766e-38
0.436501835177 -0.114519492879 0.881 1.24489197571e-38
0.442317388559 -0.115169433247 0.886 1.20801372376e-38
0.452194598271 -0.116859278205 0.899 1.24489197571e-38
0.451527702936 -0.115819373616 0.891 1.27255066467e-38
0.448758391802 -0.114259516732 0.879 1.29098979064e-38
0.43458404012 -0.109839922228 0.845 1.32779629611e-38
0.447093037352 -0.112179707554 0.863 1.27247891819e-38
0.445126261281 -0.110879826817 0.853 1.01433115457e-38
0.444135337705 -0.109839922228 0.845 1.01433115457e-38
0.453142192489 -0.111269791038 0.856 1.20794197728e-38
0.458499961785 -0.111789743333 0.86 1.35545498506e-38
0.460666429679 -0.111529767185 0.858 1.33701585909e-38
0.453085675935 -0.108930005713 0.838 1.32779629611e-38
0.461143052616 -0.110099898375 0.847 1.38282570719e-38
0.465978985732 -0.110489862596 0.85 1.37353397733e-38
0.478013243912 -0.112569671775 0.866 1.13368114608e-38
0.464603749591 -0.108670029565 0.836 1.06910791154e-38
0.491812702455 -0.114259516732 0.879 1.09676646037e-38
0.49850426242 -0.115039445174 0.885 1.09683806672e-38
0.486528404679 -0.111529767185 0.858 1.09690995333e-38
0.469435914937 -0.106200256166 0.817 1.09680261387e-38
0.469044066831 -0.105420327724 0.811 1.06917965802e-38
0.488399102608 -0.109059993786 0.839 1.05996009504e-38
-0.109883251586 -0.0232245358242 0.184 1.30013746702e-38
-0.10918998186 -0.0232245358242 0.184 1.30935703e-38
-0.108496712134 -0.0232245358242 0.184 1.31857659299e-38
-0.107803442408 -0.0232245358242 0.184 1.30013746702e-38
-0.107692293185 -0.0233507561276 0.185 1.28169834104e-38
-0.105838550222 -0.0230983155208 0.183 1.28169834104e-38
-0.105723633229 -0.0232245358242 0.184 1.28169834104e-38
-0.10445954631 -0.0230983155208 0.183 1.27255066467e-38
-0.1049041432 -0.0233507561276 0.185 1.30020935363e-38
-0.104207105704 -0.0233507561276 0.185 1.27255066467e-38
-0.102950554325 -0.0232245358242 0.184 1.16191590883e-38
-0.102813030711 -0.0233507561276 0.185 1.07893984196e-38
-0.105427863265 -0.0241080779479 0.191 1.20801372376e-38
-0.104708219147 -0.0241080779479 0.191 1.33708760557e-38
-0.101266361023 -0.023476976431 0.186 1.32786804259e-38
-0.0989435306636 -0.0230983155208 0.183 1.31857673312e-38
-0.100401657751 -0.0236031967343 0.187 1.03277028054e-38
-0.102895921656 -0.0243605185547 0.193 5.34913879281e-39
-0.101639370278 -0.0242342982513 0.192 5.6257256824e-39
-0.0998647504899 -0.0239818576445 0.19 1.14340503638e-38
-0.0981052017829 -0.0237294170377 0.188 1.32779629611e-38
-0.099987203023 -0.0243605185547 0.193 1.35545498506e-38
-0.0982314220863 -0.0241080779479 0.191 1.13418547339e-38
-0.0944485807548 -0.0233507561276 0.185 4.97928007613e-39
-0.0937515432584 -0.0233507561276 0.185 3.87293251777e-39
-0.0925515084336 -0.0232245358242 0.184 6.54660578381e-39
-0.0928566978239 -0.023476976431 0.186 1.26315173548e-38
-0.0896785836176 -0.022845874914 0.181 1.33690823937e-38
-0.08948831122 -0.0229720952174 0.182 1.37378649132e-38
-0.0888025770344 -0.0229720952174 0.182 8.5749096408e-39
-0.088601001326 -0.0230983155208 0.183 3.87293251777e-39
-0.0874311086632 -0.0229720952174 0.182 5.44026102805e-39
-0.0848388827308 -0.0224672140038 0.178 1.1156387277e-38
-0.0851139299591 -0.0227196546106 0.18 1.3461275221e-38
-0.0853739061064 -0.0229720952174 0.182 1.33694341196e-38
-0.0851534915467 -0.0230983155208 0.183 1.42913904182e-38
-0.0840024377352 -0.0229720952174 0.182 1.03266238056e-38
-0.0819433512933 -0.0225934343072 0.179 9.68125719916e-39
-0.0808149041033 -0.0224672140038 0.178 1.20783463782e-38
-0.0832959808132 -0.0233507561276 0.185 1.32779615598e-38
-0.0830454240916 -0.023476976431 0.186 1.34623528195e-38
-0.0801310538028 -0.022845874914 0.181 1.31857659299e-38
-0.0794490873875 -0.022845874914 0.181 1.35545484493e-38
-0.0826837181475 -0.0239818576445 0.19 1.32779615598e-38
-0.0858505290431 -0.0251178403751 0.199 1.34623528195e-38
-0.0795413977586 -0.023476976431 0.186 1.35545484493e-38
-0.0784167183388 -0.0233507561276 0.185 1.34623528195e-38
-0.0756191489278 -0.0227196546106 0.18 1.37375005755e-38
-0.0820187066983 -0.0248653997683 0.197 1.35538281819e-38
-0.0833393101711 -0.0254965012852 0.202 1.34616325521e-38
-0.0756285683534 -0.0233507561276 0.185 1.30928500326e-38
-0.0733113896494 -0.022845874914 0.181 1.34623528195e-38
-0.0730306907657 -0.0229720952174 0.182 1.30020935363e-38
-0.0755249546716 -0.0239818576445 0.19 1.3186484796e-38
-0.0740216143416 -0.0237294170377 0.188 1.32786804259e-38
-0.0717534166508 -0.0232245358242 0.184 1.3186484796e-38
-0.0691291646713 -0.0225934343072 0.179 1.3186484796e-38
-0.068072305116 -0.0224672140038 0.178 1.27255066467e-38
-0.0689162856522 -0.0229720952174 0.182 1.3186484796e-38
-0.0678556583266 -0.022845874914 0.181 1.33708760557e-38
-0.0668025665416 -0.0227196546106 0.18 1.35552673155e-38
-0.0653896526977 -0.0224672140038 0.178 1.34630716856e-38
-0.0650825794223 -0.0225934343072 0.179 1.22645284974e-38
-0.0647679706063 -0.0227196546106 0.18 8.20720612117e-39
-0.0630216090952 -0.0223409937004 0.177 8.11501049131e-39
-0.0620024272425 -0.022214773397 0.176 1.18028356858e-38
-0.0609907809302 -0.0220885530936 0.175 1.35545526532e-38
-0.0606761721143 -0.022214773397 0.176 1.3738943913e-38
-0.0606950109655 -0.0224672140038 0.178 1.30013788741e-38
-0.0600243478609 -0.0224672140038 0.178 7.93061923158e-39
-0.0600205800907 -0.0227196546106 0.18 3.597424628e-39
-0.057693981961 -0.0220885530936 0.175 3.13644367609e-39
-0.0586641828005 -0.0227196546106 0.18 1.03277028054e-38
-0.0599188502939 -0.023476976431 0.186 1.35545498506e-38
-0.0576261620965 -0.022845874914 0.181 1.31857673312e-38
-0.0566295868652 -0.0227196546106 0.18 1.27247891819e-38
-0.0543971829918 -0.0220885530936 0.175 4.51937812404e-39
-0.0592651421555 -0.0243605185547 0.193 4.33498686431e-39
-0.0603577955281 -0.0251178403751 0.199 4.88816064349e-39
-0.0557140186944 -0.023476976431 0.186 1.20812162375e-38
-0.0541259035338 -0.0230983155208 0.183 1.34641506854e-38
-0.0540204059667 -0.0233507561276 0.185 1.39240498349e-38
-0.0590880569537 -0.0258751621954 0.205 1.21723342688e-38
-0.059453530668 -0.026380043409 0.209 5.25694596554e-39
-0.053332787896 -0.0239818576445 0.19 5.07255470582e-39
-0.050955324868 -0.0232245358242 0.184 9.12808341998e-39
-0.0497157284555 -0.0229720952174 0.182 1.34612808262e-38
-0.0514545544261 -0.0241080779479 0.191 1.38311353389e-38
-0.0507349103083 -0.0241080779479 0.191 1.37389397091e-38
-0.0481822459636 -0.0232245358242 0.184 1.35545484493e-38
-0.046714699451 -0.022845874914 0.181 1.18028314819e-38
-0.0462870575276 -0.0229720952174 0.182 1.18028314819e-38
-0.0461024367853 -0.0232245358242 0.184 1.34623528195e-38
-0.0454091670592 -0.0232245358242 0.184 1.40155265987e-38
-0.0435007914273 -0.0225934343072 0.179 1.34623528195e-38
-0.0425871071416 -0.0224672140038 0.178 1.34630716856e-38
-0.041916444037 -0.0224672140038 0.178 1.37396585752e-38
-0.0417092166732 -0.0227196546106 0.18 1.40162454648e-38
-0.0410310180281 -0.0227196546106 0.18 1.3831854205e-38
-0.0401286370531 -0.0225934343072 0.179 1.36474629453e-38
-0.0394542061783 -0.0225934343072 0.179 1.3831854205e-38
-0.0389964220928 -0.0227196546106 0.18 1.39240498349e-38
-0.0383182234477 -0.0227196546106 0.18 1.37396585752e-38
-0.0380582473004 -0.0229720952174 0.182 1.33708760557e-38
-0.0371671696362 -0.022845874914 0.181 1.3831854205e-38
-0.0364852032209 -0.022845874914 0.181 1.3831854205e-38
-0.0358032368055 -0.022845874914 0.181 1.36474629453e-38
-0.0349272302223 -0.0227196546106 0.18 1.3831854205e-38
-0.0344393039748 -0.022845874914 0.181 1.37396585752e-38
-0.0339438421869 -0.0229720952174 0.182 1.39240498349e-38
-0.0332581080013 -0.0229720952174 0.182 1.39240498349e-38
-0.0322144356419 -0.0227196546106 0.18 1.3186484796e-38
-0.0331130488466 -0.0238556373411 0.189 1.37396585752e-38
-0.0334295415477 -0.0246129591615 0.195 1.41084410946e-38
-0.0315211659158 -0.0237294170377 0.188 1.3831854205e-38
-0.0299933350792 -0.0230983155208 0.183 1.3831854205e-38
-0.0293038331234 -0.0230983155208 0.183 1.41084410946e-38
-0.0304906807523 -0.0246129591615 0.195 1.09737896793e-38
-0.0321974806758 -0.0266324840158 0.211 8.02352952366e-39
-0.0290212503546 -0.0246129591615 0.195 1.06972027897e-38
-0.0266908844546 -0.0232245358242 0.184 1.40162454648e-38
-0.0258563233442 -0.0230983155208 0.183 1.40162454648e-38
-0.0259919630732 -0.0238556373411 0.189 1.42006367245e-38
-0.026349901247 -0.0248653997683 0.197 1.24489197571e-38
-0.0249577101394 -0.0242342982513 0.192 5.07326936803e-39
-0.023476976431 -0.023476976431 0.186 3.69033492008e-39
-0.0225312660981 -0.0232245358242 0.184 6.45620381598e-39
-0.0217193116091 -0.0230983155208 0.183 1.40166013946e-38
-0.0218342286017 -0.0239818576445 0.19 1.39240498349e-38
-0.020784904587 -0.0236031967343 0.187 1.4753811905e-38
-0.0196508057416 -0.0230983155208 0.183 9.68269633269e-39
-0.0189613037857 -0.0230983155208 0.183 3.78217602143e-39
-0.0181719559182 -0.0229720952174 0.182 3.69033632138e-39
-0.0176783780154 -0.0232245358242 0.184 7.37816011462e-39
-0.0169851082893 -0.0232245358242 0.184 1.40166013946e-38
-0.0162918385632 -0.0232245358242 0.184 1.37407347724e-38
-0.0155985688371 -0.0232245358242 0.184 1.42006367245e-38
-0.014905299111 -0.0232245358242 0.184 1.04198984353e-38
-0.0142120293849 -0.0232245358242 0.184 5.44025822545e-39
-0.0135922311787 -0.0233507561276 0.185 5.90123637477e-39
-0.0128254899327 -0.0232245358242 0.184 1.09730722145e-38
-0.0121322202067 -0.0232245358242 0.184 1.44772236141e-38
-0.0114389504806 -0.0232245358242 0.184 1.38329304023e-38
-0.0106872803156 -0.0230983155208 0.183 1.46616148738e-38
-0.010107043697 -0.0233507561276 0.185 1.30942891661e-38
-0.00941000620066 -0.0233507561276 0.185 1.21723328675e-38
-0.00861877444805 -0.0230983155208 0.183 1.22645284974e-38
-0.00805926056585 -0.023476976431 0.186 1.42928323544e-38
-0.00731889371162 -0.0233507561276 0.185 1.37396585752e-38
-0.00672923766742 -0.0237294170377 0.188 1.41084410946e-38
-0.00598887081319 -0.0236031967343 0.187 1.3831854205e-38
-0.00519952294571 -0.0232245358242 0.184 1.44772250154e-38
-0.0045797247395 -0.0236031967343 0.187 1.43850293855e-38
-0.00393731991179 -0.0239818576445 0.19 1.42006367245e-38
-0.00332317336095 -0.0247391794649 0.196 1.39240498349e-38
-0.00263743917536 -0.0252440606784 0.2 1.42931882842e-38
-0.00181794914587 -0.0243605185547 0.193 1.42009926543e-38
-0.00106816286602 -0.0238556373411 0.189 1.38322073323e-38
-0.000357938173799 -0.0239818576445 0.19 1.4016598592e-38
0.00036924148455 -0.0247391794649 0.196 1.40162454648e-38
0.00117554431816 -0.0262538231056 0.208 1.36474629453e-38
0.00189330455088 -0.0253702809818 0.201 1.37396585752e-38
0.00253194160835 -0.0242342982513 0.192 1.42928323544e-38
0.00320448859806 -0.0238556373411 0.189 1.42006367245e-38
0.00397876538454 -0.0242342982513 0.192 1.40162454648e-38
0.00494708233892 -0.0254965012852 0.202 1.43850279842e-38
0.00565165537577 -0.0252440606784 0.2 1.34630716856e-38
0.00618102709597 -0.0243605185547 0.193 1.35556204427e-38
0.00683661911956 -0.0241080779479 0.191 1.43853811114e-38
0.0076749480003 -0.0244867388581 0.194 1.42931882842e-38
0.00849255414466 -0.0247391794649 0.196 1.42009926543e-38
0.00923103711376 -0.0247391794649 0.196 1.4569419244e-38
0.00976606048933 -0.0242342982513 0.192 1.10659853091e-38
0.0104348397088 -0.0241080779479 0.191 7.93133529509e-39
0.0110960833878 -0.0239818576445 0.19 9.49866100277e-39
0.0118119597354 -0.0239818576445 0.19 1.40162454648e-38
0.0126597080417 -0.0242342982513 0.192 1.43850279842e-38
0.0131043049313 -0.0237294170377 0.188 1.42006367245e-38
0.0139595887782 -0.0239818576445 0.19 1.23567241272e-38
0.0146754651258 -0.0239818576445 0.19 3.59813929022e-39
0.0153913414733 -0.0239818576445 0.19 3.96692180967e-39
0.0161919926516 -0.0241080779479 0.191 5.25766062776e-39
0.0168230941685 -0.0239818576445 0.19 1.35552673155e-38
0.017446660145 -0.0238556373411 0.189 1.4017321662e-38
0.0182548468637 -0.0239818576445 0.19 1.41084410946e-38
0.0191704150346 -0.0242342982513 0.192 1.14340503638e-38
0.0199974406046 -0.0243605185547 0.193 3.96512814764e-39
0.0204024759065 -0.0239818576445 0.19 4.14951940736e-39
0.0213406506989 -0.0242342982513 0.192 5.6257256824e-39
0.0221789795797 -0.0243605185547 0.193 1.33708760557e-38
0.0230248440009 -0.0244867388581 0.194 1.34641478828e-38
0.0237557914295 -0.0244867388581 0.194 1.39222533703e-38
0.0246129591615 -0.0246129591615 0.195 1.1432971364e-38
0.0248277220658 -0.0241080779479 0.191 4.51937812404e-39
0.0254136103397 -0.0239818576445 0.19 4.42718109288e-39
0.0262670103015 -0.0241080779479 0.191 9.31426834175e-39
0.0272692371881 -0.0243605185547 0.193 1.36478188751e-38
0.0293019492382 -0.0254965012852 0.202 1.3371952253e-38
0.0293189042044 -0.0248653997683 0.197 1.32797566231e-38
0.0297559655534 -0.0246129591615 0.195 1.34623542208e-38
0.0304906807523 -0.0246129591615 0.195 1.07886795534e-38
0.0323463076007 -0.0254965012852 0.202 1.09730708132e-38
0.0352380712679 -0.0271373652293 0.215 1.32790363557e-38
0.0345391498865 -0.0260013824988 0.206 1.36478188751e-38
0.0341152757333 -0.0251178403751 0.199 1.34645038126e-38
0.0345146593798 -0.0248653997683 0.197 1.34645038126e-38
0.0361517555537 -0.0254965012852 0.202 1.35566994425e-38
0.0400193717158 -0.0276422464429 0.219 1.36485391425e-38
0.0391659717541 -0.0265062637124 0.21 1.36485391425e-38
0.0384350243255 -0.0254965012852 0.202 1.34641478828e-38
0.0384199532445 -0.0249916200717 0.198 1.34641478828e-38
0.0397593955685 -0.0253702809818 0.201 1.34641478828e-38
0.0421293230561 -0.026380043409 0.209 1.36485391425e-38
0.0425061000812 -0.0261276028022 0.207 1.32797566231e-38
0.0414040272829 -0.0249916200717 0.198 1.30953653634e-38
0.0419371667733 -0.0248653997683 0.197 1.35552673155e-38
0.0435460046703 -0.0253702809818 0.201 1.32786804259e-38
0.044082911931 -0.0252440606784 0.2 1.36474629453e-38
0.0452848306409 -0.0254965012852 0.202 1.37396585752e-38
0.0453620699311 -0.0251178403751 0.199 1.34630716856e-38
0.0463435740813 -0.0252440606784 0.2 1.34630716856e-38
0.0461551855688 -0.0247391794649 0.196 1.36474629453e-38
0.0471329219488 -0.0248653997683 0.197 1.37396585752e-38
0.0478751726882 -0.0248653997683 0.197 1.3831854205e-38
0.0488642123789 -0.0249916200717 0.198 1.35552673155e-38
0.0498607876102 -0.0251178403751 0.199 1.3186484796e-38
0.0503562493981 -0.0249916200717 0.198 1.32786804259e-38
0.0526508214807 -0.025748941892 0.204 1.36474629453e-38
0.153286080987 -0.0718193526302 0.569 1.22645284974e-38
0.163351679211 -0.0754797414285 0.598 1.32790363557e-38
0.166158668048 -0.0757321820353 0.6 1.35556232453e-38
0.176278898941 -0.0792663505303 0.628 1.37396585752e-38
0.183480991774 -0.081412095688 0.645 1.08808751833e-38
0.189370016676 -0.0829267393287 0.657 4.70269038395e-39
0.197393483424 -0.0853249250931 0.676 5.16366853326e-39
0.198757416255 -0.0848200438796 0.672 9.40467030957e-39
0.201289357863 -0.0848200438796 0.672 1.40137329366e-38
0.207157660029 -0.0862084672169 0.683 1.33694369222e-38
0.218329098821 -0.0897426357119 0.711 1.3461275221e-38
0.230644055885 -0.093655465117 0.742 8.11393149149e-39
0.241304961809 -0.0968109727018 0.767 3.87293532037e-39
0.247060230867 -0.0979469554324 0.776 2.58219650229e-39
0.249339731868 -0.0976945148256 0.774 8.75930090053e-39
0.254537370929 -0.0985780569493 0.781 1.38300577404e-38
0.258139359288 -0.0988304975561 0.783 1.35538281819e-38
0.262089866396 -0.0992091584663 0.786 1.32765224262e-38
0.268423488187 -0.1004713615 0.796 7.56111224082e-39
0.271081650099 -0.100345141197 0.795 4.61085208519e-39
0.271319019625 -0.0993353787697 0.787 4.42646082547e-39
0.275678329804 -0.0998402599832 0.791 1.1065266443e-38
0.280772355183 -0.100597581804 0.797 1.3186484796e-38
0.288760028114 -0.102364666051 0.811 1.3186484796e-38
0.290016579493 -0.101733564534 0.806 1.29098979064e-38
0.298507249752 -0.103626869085 0.821 1.0604289695e-38
0.302335304327 -0.103879309692 0.823 9.03696398734e-39
0.303580552395 -0.103248208175 0.818 9.1291596172e-39
0.307787267879 -0.103626869085 0.821 1.2632593552e-38
0.312395250896 -0.104131750299 0.825 1.29091804416e-38
0.318945519476 -0.105267733029 0.834 1.33701585909e-38
0.323632625668 -0.105772614243 0.838 1.35545498506e-38
0.32367030337 -0.104762851816 0.83 1.31857673312e-38
0.324435160731 -0.104005529995 0.824 1.28159058119e-38
0.320384807712 -0.101733564534 0.806 1.29081014418e-38
0.333453318826 -0.104889072119 0.831 1.3461275221e-38
0.33779944181 -0.105267733029 0.834 1.33690795911e-38
0.341350565271 -0.105393953333 0.835 1.30924927015e-38
0.348209791012 -0.106529936063 0.844 1.31846883314e-38
0.35388782078 -0.107287257883 0.85 1.30002970716e-38
0.357930638258 -0.10753969849 0.852 1.29081014418e-38
0.361140778512 -0.10753969849 0.852 1.30013760715e-38
0.363923276842 -0.107413478187 0.851 1.30935717013e-38
0.371012336568 -0.108549460917 0.86 1.30013760715e-38
0.367724957025 -0.106656156366 0.845 1.29091804416e-38
0.376176065696 -0.108170800007 0.857 1.27247891819e-38
0.383832174845 -0.109433003041 0.867 1.27247891819e-38
0.385312908554 -0.108928121827 0.863 1.30013760715e-38
0.39216648264 -0.109937884255 0.871 1.30013760715e-38
0.403620504201 -0.112209849716 0.889 1.28177022766e-38
0.401018858843 -0.110568985772 0.876 1.30020935363e-38
0.409396495995 -0.111957409109 0.887 1.30020935363e-38
0.410411910078 -0.111326307592 0.882 1.27255066467e-38
0.412796908646 -0.111073866985 0.88 1.30020935363e-38
0.4170582568 -0.111326307592 0.882 1.1158180939e-38
0.422287921907 -0.111831188806 0.886 1.13425721987e-38
0.424184994228 -0.111452527895 0.883 1.2541115387e-38
0.431385203177 -0.112462290322 0.891 1.29098979064e-38
0.435718138965 -0.112714730929 0.893 1.28177022766e-38
0.433674123604 -0.111326307592 0.882 1.30020935363e-38
0.444429223785 -0.113219612143 0.897 9.77524649106e-39
0.445811995466 -0.112714730929 0.893 7.00937759516e-39
0.444649638344 -0.111578748199 0.884 8.6688989327e-39
0.45000740764 -0.112083629412 0.888 1.21723328675e-38
0.444674128851 -0.109937884255 0.871 1.3186484796e-38
0.435612641398 -0.106908596973 0.847 1.32779629611e-38
0.446574968942 -0.108801901524 0.862 1.17106372534e-38
0.44669176982 -0.108044579704 0.856 5.90231257199e-39
0.446763357455 -0.107287257883 0.85 4.79596501363e-39
0.464788370333 -0.110821426378 0.878 9.03696398734e-39
0.462765077709 -0.109559223344 0.868 1.32779629611e-38
0.464961687765 -0.109306782738 0.866 1.31857673312e-38
0.460114451337 -0.107413478187 0.851 1.34623542208e-38
0.469854137435 -0.108928121827 0.863 1.35523904497e-38
0.473653933733 -0.109054342131 0.864 1.38282542693e-38
0.474701373862 -0.108549460917 0.86 1.1890704106e-38
0.467938226263 -0.106277495456 0.842 1.05988834855e-38
0.483979508104 -0.109180562434 0.865 1.10587812337e-38
0.464839235232 -0.102112225444 0.809 1.08758305088e-38
0.485237943368 -0.105898834546 0.839 1.08761878399e-38
0.492473946134 -0.10678237667 0.846 1.09683834698e-38
0.508551021793 -0.109559223344 0.868 1.12449675568e-38
0.489414516691 -0.104762851816 0.83 1.11527719269e-38
-0.110480443171 -0.0226537186312 0.185 1.30013746702e-38
-0.10918998186 -0.0225312660981 0.184 1.32779615598e-38
-0.108496712134 -0.0225312660981 0.184 1.29091790403e-38
-0.10956110723 -0.0228986236975 0.187 1.20794183715e-38
-0.1100207752 -0.0231435287638 0.189 9.49794073536e-39
-0.108151961156 -0.0228986236975 0.187 1.00511145145e-38
-0.107447388119 -0.0228986236975 0.187 1.27247877806e-38
-0.107884449468 -0.0231435287638 0.189 1.28177022766e-38
-0.109440538582 -0.0236333388963 0.193 1.34630716856e-38
-0.107023513966 -0.0232659812969 0.19 1.14347678286e-38
-0.103510068207 -0.0226537186312 0.185 6.45620381598e-39
-0.103924522935 -0.0228986236975 0.187 3.78253054995e-39
-0.10708379829 -0.0237557914295 0.194 7.83913826393e-39
-0.104708219147 -0.0233884338301 0.191 1.26333110168e-38
-0.101810803824 -0.0228986236975 0.187 1.30942891661e-38
-0.0994842056946 -0.0225312660981 0.184 1.30013760715e-38
-0.0982540287078 -0.0224088135649 0.183 7.74622516925e-39
-0.0986308057328 -0.0226537186312 0.185 3.68961745527e-39
-0.0979337682365 -0.0226537186312 0.185 5.34913879281e-39
-0.0972367307401 -0.0226537186312 0.185 1.0604289695e-38
-0.0954960208844 -0.0224088135649 0.183 1.35545498506e-38
-0.0942884505191 -0.0222863610318 0.182 1.32779629611e-38
-0.0951456182511 -0.0226537186312 0.185 1.23560066624e-38
-0.0939380478858 -0.0225312660981 0.184 5.071475706e-39
-0.092738013061 -0.0224088135649 0.183 5.25586696572e-39
-0.0910425164483 -0.0221639084986 0.181 8.5749096408e-39
-0.0908597795911 -0.0222863610318 0.182 1.3184691134e-38
-0.0896785836176 -0.0221639084986 0.181 1.35534736534e-38
-0.08948831122 -0.0222863610318 0.182 1.36456692833e-38
-0.0892905032818 -0.0224088135649 0.183 1.3184691134e-38
-0.0876326843716 -0.0221639084986 0.181 1.05110178679e-38
-0.0864703272493 -0.0220414559655 0.18 1.10641944497e-38
-0.0853155056675 -0.0219190034324 0.179 1.30924955041e-38
-0.0846410747927 -0.0219190034324 0.179 1.35534708508e-38
-0.0858429935026 -0.0224088135649 0.183 1.36460210092e-38
-0.0898066878061 -0.0236333388963 0.193 1.35538253793e-38
-0.087233300725 -0.0231435287638 0.189 1.37378621106e-38
-0.0837744876351 -0.0224088135649 0.183 1.3830060543e-38
-0.0830849856792 -0.0224088135649 0.183 1.3553476456e-38
-0.0886989633525 -0.0241231490289 0.197 1.30939262298e-38
-0.0879567126131 -0.0241231490289 0.197 1.35549043792e-38
-0.0819019058205 -0.0226537186312 0.185 1.33705131194e-38
-0.0798880326216 -0.0222863610318 0.182 1.31861218597e-38
-0.0826837181475 -0.0232659812969 0.19 1.34627087493e-38
-0.0849877096557 -0.0241231490289 0.197 1.33705131194e-38
-0.0786861139117 -0.0225312660981 0.184 1.32783174896e-38
-0.0775689700325 -0.0224088135649 0.183 1.32783174896e-38
-0.0756191489278 -0.0220414559655 0.18 1.36453021431e-38
-0.0766063047335 -0.0225312660981 0.184 1.38304122689e-38
-0.0767381766922 -0.0227761711644 0.186 1.32772384897e-38
-0.0739933560647 -0.0221639084986 0.181 1.28162603404e-38
-0.0725013190455 -0.0219190034324 0.179 1.26329480805e-38
-0.0718268881707 -0.0219190034324 0.179 1.33712319855e-38
-0.0715499570573 -0.0220414559655 0.18 1.34634276154e-38
-0.0716592223945 -0.0222863610318 0.182 1.32790363557e-38
-0.070583523988 -0.0221639084986 0.181 1.29098979064e-38
-0.0687429682206 -0.0217965508992 0.178 8.57670330284e-39
-0.0669250190748 -0.0214291932998 0.175 5.9030300368e-39
-0.0674016420114 -0.0217965508992 0.178 9.77524649106e-39
-0.0674807651867 -0.0220414559655 0.18 1.34630716856e-38
-0.0656891904326 -0.0216740983661 0.177 1.30942891661e-38
-0.0646549374988 -0.0215516458329 0.176 1.34630716856e-38
-0.0643553997639 -0.0216740983661 0.177 9.6830508612e-39
-0.0651277926653 -0.0221639084986 0.181 3.597424628e-39
-0.0626655548065 -0.0215516458329 0.176 3.68962025787e-39
-0.0620024272425 -0.0215516458329 0.176 7.83842360172e-39
-0.0609907809302 -0.0214291932998 0.175 1.39233351727e-38
-0.0627446779818 -0.0222863610318 0.182 1.30013788741e-38
-0.0647868094576 -0.0232659812969 0.19 1.34623570234e-38
-0.0620476404855 -0.0225312660981 0.184 7.74622797185e-39
-0.060687475425 -0.0222863610318 0.182 3.96620714746e-39
-0.0590127015487 -0.0219190034324 0.179 4.05839997472e-39
-0.0645306010806 -0.0242456015621 0.198 1.05120940652e-38
-0.0650731599966 -0.0247354116946 0.202 1.34623542208e-38
-0.0598547981997 -0.0230210762306 0.188 1.31857673312e-38
-0.0572588044971 -0.0222863610318 0.182 1.33701585909e-38
-0.0562622292658 -0.0221639084986 0.181 8.48379020816e-39
-0.0601863619817 -0.0240006964958 0.196 6.6398776109e-39
-0.0606611010333 -0.0244905066283 0.2 9.40574650679e-39
-0.0554144809594 -0.0226537186312 0.185 1.29109769062e-38
-0.0538301335691 -0.0222863610318 0.182 1.34641506854e-38
-0.0531443993835 -0.0222863610318 0.182 1.35552673155e-38
