VERSION .7
FIELDS x y z rgb
SIZE 4 4 4 4
TYPE F F F F
COUNT 1 1 1 1
WIDTH 850
HEIGHT 1
VIEWPOINT 0 0 0 1 0 0 0
POINTS 850
DATA ascii
-0.0328304660779 0.043286028523 0.111 1.12485829068e-38
-0.0329962479689 0.0440659569649 0.113 1.10641916471e-38
-0.0322822555064 0.043675992744 0.112 1.08798003874e-38
-0.0321447318923 0.0440659569649 0.113 1.09719960173e-38
-0.0319996727376 0.0444559211858 0.114 1.06032134978e-38
-0.0315701469291 0.0444559211858 0.114 1.06032134978e-38
-0.0311406211205 0.0444559211858 0.114 1.05110178679e-38
-0.0312498864578 0.0452358496277 0.116 1.07876019549e-38
-0.030547197306 0.0448458854067 0.115 1.09719960173e-38
-0.0301139037272 0.0448458854067 0.115 1.12485829068e-38
-0.0294225178863 0.0444559211858 0.114 1.1156387277e-38
-0.0295016410615 0.0452358496277 0.116 1.09719988198e-38
-0.0288140229908 0.0448458854067 0.115 1.10641944497e-38
-0.0286275183634 0.0452358496277 0.116 1.12485857094e-38
-0.0284334781955 0.0456258138486 0.117 1.097164289e-38
-0.0282319024871 0.0460157780695 0.118 1.10634755836e-38
-0.0277873055975 0.0460157780695 0.118 1.09712799537e-38
-0.0275744265784 0.0464057422905 0.119 1.11556712135e-38
-0.0266701617183 0.0456258138486 0.117 1.10634755836e-38
-0.0264535149289 0.0460157780695 0.118 1.08790843239e-38
-0.0257885034796 0.0456258138486 0.117 1.11556712135e-38
-0.0255643211497 0.0460157780695 0.118 1.08790843239e-38
-0.0255454822985 0.0467957065114 0.12 1.09712799537e-38
-0.0253024611173 0.0471856707323 0.121 1.09719932147e-38
-0.024846560917 0.0471856707323 0.121 1.1156387277e-38
-0.0241890850083 0.0467957065114 0.12 1.10641916471e-38
-0.0241325684545 0.0475756349532 0.122 1.06042924976e-38
-0.0234788603161 0.0471856707323 0.121 1.05120968678e-38
-0.0232132325134 0.0475756349532 0.122 1.05117409379e-38
-0.0231265737977 0.0483555633951 0.124 1.02358729145e-38
-0.0228421071437 0.048745527616 0.125 1.05124598041e-38
-0.0223711358624 0.048745527616 0.125 1.09712799537e-38
-0.0215497619478 0.0479655991742 0.123 1.10634755836e-38
-0.0207434591142 0.0471856707323 0.121 1.10641916471e-38
-0.0206228904662 0.0479655991742 0.123 1.09719960173e-38
-0.0201594547254 0.0479655991742 0.123 1.06032134978e-38
-0.0196960189846 0.0479655991742 0.123 1.03277028054e-38
-0.0193889457091 0.0483555633951 0.124 9.77452902625e-39
-0.0189217421981 0.0483555633951 0.124 9.68233339638e-39
-0.0186033656119 0.048745527616 0.125 9.58978463931e-39
-0.0178422760213 0.0479655991742 0.123 1.03266294108e-38
-0.0175201316649 0.0483555633951 0.124 1.06954119303e-38
-0.017190451768 0.048745527616 0.125 1.087980319e-38
-0.0167194804867 0.048745527616 0.125 1.10634755836e-38
-0.0165084853526 0.0495254560579 0.127 1.09712799537e-38
-0.0161561988342 0.0499154202788 0.128 1.09712799537e-38
-0.015551471709 0.0495254560579 0.127 1.05095829383e-38
-0.0148355953614 0.048745527616 0.125 9.86565126149e-39
-0.0143646240801 0.048745527616 0.125 7.92954303436e-39
-0.0137825035764 0.0483555633951 0.124 7.46856488504e-39
-0.0132079186132 0.0479655991742 0.123 7.92954303436e-39
-0.0129517102361 0.048745527616 0.125 9.12808622258e-39
-0.0126804307781 0.0495254560579 0.127 1.05110206705e-38
-0.0123940802391 0.0503053844997 0.129 1.06954119303e-38
-0.0116311067633 0.049135491837 0.126 1.09719988198e-38
-0.0112449103127 0.0495254560579 0.127 1.1063472781e-38
-0.0107664034908 0.0495254560579 0.127 1.07868858914e-38
-0.010287896669 0.0495254560579 0.127 9.58834550579e-39
-0.00996386842748 0.0503053844997 0.129 6.82247660989e-39
-0.00962476910494 0.0510853129416 0.131 5.07075964248e-39
-0.00927059870139 0.0518652413835 0.133 4.24099897371e-39
-0.00870354927869 0.0514752771625 0.132 5.43954496453e-39
-0.00808186718735 0.0506953487207 0.13 7.92882697084e-39
-0.00747525617702 0.0499154202788 0.128 1.0141519285e-38
-0.00699298158495 0.0499154202788 0.128 1.05110206705e-38
-0.00661243678965 0.0506953487207 0.13 1.06954091277e-38
-0.00616972378522 0.0510853129416 0.131 1.05120968678e-38
-0.0056761458824 0.0510853129416 0.131 1.00500397186e-38
-0.00510344480432 0.0503053844997 0.129 7.92882136565e-39
-0.00458160862462 0.0499154202788 0.128 4.51686699719e-39
-0.00413136007969 0.0503053844997 0.129 3.2261281791e-39
-0.00367357599425 0.0506953487207 0.13 3.2261281791e-39
-0.00320825636831 0.0510853129416 0.131 4.51686699719e-39
-0.00275612393825 0.0518652413835 0.133 8.2976066877e-39
-0.00225501049493 0.0518652413835 0.133 1.01422381511e-38
-0.00176708424749 0.0522552056044 0.134 1.06039365678e-38
-0.00123394475704 0.0510853129416 0.131 1.07876075601e-38
-0.000746018509602 0.0514752771625 0.132 1.09719988198e-38
-0.000248672836534 0.0514752771625 0.132 9.49614987592e-39
0.000250556721659 0.0518652413835 0.133 5.80653242065e-39
0.000774276786481 0.0534250982672 0.137 3.31832941416e-39
0.00130930016205 0.054205026709 0.139 2.94954689471e-39
0.00183302022688 0.054205026709 0.139 2.67367606863e-39
0.00230587539331 0.0530351340462 0.136 5.44026102805e-39
0.00283901488376 0.0534250982672 0.137 9.77345282903e-39
0.00333070890145 0.0530351340462 0.136 1.04199012379e-38
0.00381486737865 0.0526451698253 0.135 1.09730750171e-38
0.00451567264524 0.0549849551509 0.141 1.10634783862e-38
0.00511851588532 0.0557648835927 0.143 1.07868914966e-38
0.00557818385589 0.0549849551509 0.141 8.29689062418e-39
0.00597945138757 0.0538150624881 0.138 4.14700828052e-39
0.00654650081027 0.054205026709 0.139 2.76407383257e-39
0.00707022087509 0.054205026709 0.139 2.39637031293e-39
0.00759394093991 0.054205026709 0.139 3.5034367374e-39
0.00835126276026 0.0557648835927 0.143 8.38980512016e-39
0.00895222211522 0.0561548478137 0.144 1.09719988198e-38
0.0094947810313 0.0561548478137 0.144 1.12485857094e-38
0.00975852494883 0.0545949909299 0.14 1.13407813393e-38
0.0105798988634 0.0561548478137 0.144 1.11563900796e-38
0.0108907399091 0.0549849551509 0.141 9.40395704866e-39
0.0115840096352 0.0557648835927 0.143 5.07076244508e-39
0.0123771252729 0.0569347762555 0.146 2.85806732836e-39
0.0130157623304 0.0573247404764 0.147 2.7658716985e-39
0.0134773141861 0.0569347762555 0.146 2.85878339188e-39
0.0138352523599 0.0561548478137 0.144 6.45441295654e-39
0.014377811276 0.0561548478137 0.144 1.06032163004e-38
0.0151275975558 0.0569347762555 0.146 1.12485857094e-38
0.0156776920124 0.0569347762555 0.146 1.1525172599e-38
0.0165612341361 0.0581046689183 0.149 1.12485857094e-38
0.0171226319035 0.0581046689183 0.149 1.05110206705e-38
0.0176840296708 0.0581046689183 0.149 6.36221732668e-39
0.0180005223718 0.0573247404764 0.147 3.50128714556e-39
0.0185543845987 0.0573247404764 0.147 2.6718824066e-39
0.0189782587518 0.0569347762555 0.146 2.76515563498e-39
0.0199296207401 0.0581046689183 0.149 5.71541298801e-39
0.0207660657357 0.0588845973602 0.151 1.03259105447e-38
0.0213349990435 0.0588845973602 0.151 1.10641916471e-38
0.0217588731967 0.0584946331392 0.15 1.1432971364e-38
0.0223240387343 0.0584946331392 0.15 1.09730722145e-38
0.0227366095767 0.0581046689183 0.149 1.07868914966e-38
0.0234543698094 0.0584946331392 0.15 7.19126193194e-39
0.0248201865253 0.0604444542439 0.155 3.87150039074e-39
0.0252402929082 0.0600544900229 0.154 2.85734846225e-39
0.0259881953029 0.0604444542439 0.155 2.76515283238e-39
0.0258864655062 0.0588845973602 0.151 5.25515370481e-39
0.0266306001306 0.0592745615811 0.152 1.06028603706e-38
0.0275612393825 0.0600544900229 0.154 1.12493087794e-38
0.0283242128582 0.0604444542439 0.155 1.18939551185e-38
0.0294677311293 0.0616143469067 0.158 1.17088449926e-38
0.0298727664312 0.0612243826857 0.157 1.13393436071e-38
0.0302702661926 0.0608344184648 0.156 7.92810530213e-39
0.0304624224754 0.0600544900229 0.154 4.2402801076e-39
0.0308410833856 0.059664525802 0.153 3.04173691938e-39
0.0316228957126 0.0600544900229 0.154 2.95026015563e-39
0.0328304660779 0.0612243826857 0.157 5.53245665791e-39
0.0338477640455 0.0620043111276 0.159 1.02344281757e-38
0.0346634863047 0.0623942753485 0.16 1.12485801042e-38
0.0343846713062 0.0608344184648 0.156 1.14329741666e-38
0.0349724434653 0.0608344184648 0.156 1.12485829068e-38
0.0357881657245 0.0612243826857 0.157 1.08790843239e-38
0.0370748592651 0.0623942753485 0.16 8.38980512016e-39
0.0379131881458 0.0627842395694 0.161 5.5317405944e-39
0.0382805457452 0.0623942753485 0.16 4.33284147636e-39
0.0386403678041 0.0620043111276 0.159 4.05660771399e-39
0.0389926543226 0.0616143469067 0.158 6.5458897203e-39
0.0395879620222 0.0616143469067 0.158 1.04184593018e-38
0.0406919187056 0.0623942753485 0.16 1.11560243407e-38
0.0420690387321 0.0635641680113 0.163 1.161700249e-38
0.0432069053478 0.0643440964532 0.165 1.14326112303e-38
0.0430317040311 0.0631742037904 0.162 1.08790843239e-38
0.0431032916659 0.0623942753485 0.16 8.94297609674e-39
0.043706134906 0.0623942753485 0.16 6.823195476e-39
0.0448628403729 0.0631742037904 0.162 5.8090435475e-39
0.0454732191535 0.0631742037904 0.162 5.53245665791e-39
0.046083597934 0.0631742037904 0.162 8.11393149149e-39
0.0464057422905 0.0627842395694 0.161 1.06032134978e-38
0.0470123533008 0.0627842395694 0.161 1.11563844744e-38
0.0473231943465 0.0623942753485 0.16 1.11563844744e-38
0.0485251130564 0.0631742037904 0.162 1.11563844744e-38
0.049135491837 0.0631742037904 0.162 1.11556712135e-38
0.0506670904438 0.0643440964532 0.165 1.0141519285e-38
0.0515996135808 0.0647340606741 0.166 8.66638920715e-39
0.0519104546265 0.0643440964532 0.165 7.92882416825e-39
0.0531688898901 0.065124024895 0.167 8.2976066877e-39
0.0531538188091 0.0643440964532 0.165 9.77273676551e-39
0.0544273251538 0.065124024895 0.167 1.08790843239e-38
0.0553862226826 0.0655139891159 0.168 1.09712799537e-38
0.0553523127503 0.0647340606741 0.166 1.07883278275e-38
0.0559777626119 0.0647340606741 0.166 1.11563900796e-38
0.0566032124735 0.0647340606741 0.166 1.087980319e-38
0.0579181642909 0.0655139891159 0.168 9.95712802524e-39
0.0588996684412 0.0659039533369 0.169 9.21956298633e-39
0.0591841350951 0.0655139891159 0.168 8.75930370313e-39
0.0601731747858 0.0659039533369 0.169 9.49686874203e-39
0.0611697500171 0.0662939175578 0.17 1.07883278275e-38
0.0614466811305 0.0659039533369 0.169 1.13407785367e-38
0.0628181495017 0.0666838817787 0.171 1.15251697964e-38
0.0627201874752 0.0659039533369 0.169 1.17095610562e-38
0.0633569406475 0.0659039533369 0.169 1.14329741666e-38
0.06437235473 0.0662939175578 0.17 1.10641916471e-38
0.0646304469922 0.0659039533369 0.169 1.03266266082e-38
0.0652672001645 0.0659039533369 0.169 9.77345282903e-39
0.0670738459996 0.0670738459996 0.172 1.00500397186e-38
0.0681156344739 0.0674638102206 0.173 1.06964881275e-38
0.0691649584887 0.0678537744415 0.174 1.13407785367e-38
0.0698205505123 0.0678537744415 0.174 1.17095610562e-38
0.0704761425359 0.0678537744415 0.174 1.17095638588e-38
0.0711317345595 0.0678537744415 0.174 1.18017594886e-38
0.0721998974255 0.0682437386624 0.175 1.16166493628e-38
0.0728592572193 0.0682437386624 0.175 1.09712799537e-38
0.0735186170132 0.0682437386624 0.175 1.04181089772e-38
0.0746018509602 0.0686337028834 0.176 9.77453182885e-39
0.073982052754 0.0674638102206 0.173 1.06964881275e-38
0.0754966963947 0.0682437386624 0.175 1.09730722145e-38
0.0761560561885 0.0682437386624 0.175 1.14340503638e-38
0.0776933064507 0.0690236671043 0.177 1.15262459937e-38
0.0770320627718 0.0678537744415 0.174 1.14340503638e-38
0.0790270971194 0.0690236671043 0.177 1.15262487962e-38
0.0792437439088 0.0686337028834 0.176 1.07886837573e-38
0.0794528551577 0.0682437386624 0.175 1.03266266082e-38
0.080569999037 0.0686337028834 0.176 9.86564845889e-39
0.0821562303125 0.0694136313252 0.178 1.03266266082e-38
0.0814309345392 0.0682437386624 0.175 1.10641916471e-38
0.0820902943331 0.0682437386624 0.175 1.14329741666e-38
0.0822767989605 0.0678537744415 0.174 1.16173654263e-38
0.0834090139208 0.0682437386624 0.175 1.17095610562e-38
0.0864703272493 0.0701935597671 0.18 1.15251697964e-38
0.0856960504628 0.0690236671043 0.177 1.10641916471e-38
0.0878267245395 0.0701935597671 0.18 1.04188222381e-38
0.0880132291669 0.0698035955461 0.179 9.86564845889e-39
0.0896785836176 0.070583523988 0.181 1.02344309783e-38
0.0893620909166 0.0698035955461 0.179 1.1156387277e-38
0.0890305271345 0.0690236671043 0.177 1.13407785367e-38
0.0876703620741 0.0674638102206 0.173 1.15251697964e-38
-0.0398441703992 0.0370108071708 0.094 1.04198984353e-38
-0.0390698936127 0.0366170751796 0.093 1.06024974343e-38
-0.0387194909794 0.0366170751796 0.093 9.95712802524e-39
-0.0383690883461 0.0366170751796 0.093 7.46784601893e-39
-0.0380186857128 0.0366170751796 0.093 4.33319460358e-39
-0.0372632477776 0.0362233431884 0.092 3.59562956467e-39
-0.0373178804462 0.0366170751796 0.093 4.14808447774e-39
-0.0373649775743 0.0370108071708 0.094 5.991997075e-39
-0.037404539162 0.037404539162 0.095 8.66567034104e-39
-0.0374365652091 0.0377982711532 0.096 1.05110206705e-38
-0.0370748592651 0.0377982711532 0.096 1.06954119303e-38
-0.036713153321 0.0377982711532 0.096 1.08790843239e-38
-0.0371087691973 0.0385857351355 0.098 1.0786888694e-38
-0.0363646345728 0.0381920031443 0.097 1.09712799537e-38
-0.0363702862282 0.0385857351355 0.098 9.68054113565e-39
-0.0360010447437 0.0385857351355 0.098 6.72956211391e-39
-0.0359953930883 0.0389794671267 0.099 5.34662766596e-39
-0.0356223838335 0.0389794671267 0.099 5.98912721575e-39
-0.0352493745787 0.0389794671267 0.099 7.74192178167e-39
-0.0352286518423 0.0393731991179 0.1 9.58583437894e-39
-0.0352003935654 0.039766931109 0.101 1.05095857409e-38
-0.035509350726 0.0405543950914 0.103 1.08790815213e-38
-0.0351212703902 0.0405543950914 0.103 1.07876019549e-38
-0.0347331900544 0.0405543950914 0.103 1.0604289695e-38
-0.0350120050529 0.0413418590738 0.105 1.0419897034e-38
-0.0346163891766 0.0413418590738 0.105 1.05120968678e-38
-0.034546685427 0.0417355910649 0.106 9.12808341998e-39
-0.0344694461368 0.0421293230561 0.107 7.28417362531e-39
-0.03406629472 0.0421293230561 0.107 7.65224008125e-39
-0.0339777521191 0.0425230550473 0.108 8.20541386043e-39
-0.0338816739777 0.0429167870385 0.109 9.40467311217e-39
-0.033163913745 0.0425230550473 0.108 1.05110178679e-38
-0.032756994558 0.0425230550473 0.108 1.06964881275e-38
-0.0329491508407 0.0433105190297 0.11 1.09719960173e-38
-0.0322389261485 0.0429167870385 0.109 1.10641916471e-38
-0.0321202413856 0.0433105190297 0.11 1.09712799537e-38
-0.0319940210822 0.0437042510208 0.111 1.12478668433e-38
-0.0321447318923 0.0444917150032 0.113 1.08790843239e-38
-0.0314382749703 0.044097983012 0.112 9.58834550579e-39
-0.0310162847022 0.044097983012 0.112 9.31104255268e-39
-0.0305942944342 0.044097983012 0.112 9.58762944227e-39
-0.0307110953119 0.0448854469944 0.114 1.03259105447e-38
-0.0300159417007 0.0444917150032 0.113 1.087980319e-38
-0.0298520436948 0.0448854469944 0.114 1.11563900796e-38
-0.0291644256241 0.0444917150032 0.113 1.09727190873e-38
-0.0289929920777 0.0448854469944 0.114 1.07883278275e-38
-0.0285634662691 0.0448854469944 0.114 1.12485857094e-38
-0.028380729412 0.0452791789856 0.115 1.07876075601e-38
-0.027704414652 0.0448854469944 0.114 1.08790843239e-38
-0.0272748888435 0.0448854469944 0.114 1.06939770006e-38
-0.0270808486756 0.0452791789856 0.115 1.07868914966e-38
-0.0271109908376 0.0460666429679 0.117 1.06028603706e-38
-0.0266701617183 0.0460666429679 0.117 1.05117409379e-38
-0.026229332599 0.0460666429679 0.117 1.06042924976e-38
-0.0253476743603 0.0452791789856 0.115 1.07886837573e-38
-0.0251310275709 0.0456729109767 0.116 1.09719932147e-38
-0.0251197242602 0.0464603749591 0.118 1.08794374511e-38
-0.0246751273706 0.0464603749591 0.118 1.11574662768e-38
-0.0244358739597 0.0468541069503 0.119 1.10641916471e-38
-0.0239875092999 0.0468541069503 0.119 1.11556684109e-38
-0.0237369525782 0.0472478389414 0.12 1.07868858914e-38
-0.0232848201482 0.0472478389414 0.12 1.09712771511e-38
-0.0232132325134 0.0480353029238 0.122 1.07868858914e-38
-0.0227535645429 0.0480353029238 0.122 1.06032134978e-38
-0.0224766334294 0.048429034915 0.123 1.06964881275e-38
-0.0216552595148 0.0476415709326 0.121 1.10641944497e-38
-0.0210241579979 0.0472478389414 0.12 1.09719988198e-38
-0.0205720255678 0.0472478389414 0.12 1.08798003874e-38
-0.0202875589139 0.0476415709326 0.121 1.10641916471e-38
-0.0196677607077 0.0472478389414 0.12 1.07876019549e-38
-0.0193757585133 0.0476415709326 0.121 1.07886809547e-38
-0.0187634958476 0.0472478389414 0.12 1.06964853249e-38
-0.0186165528078 0.0480353029238 0.122 1.06964839236e-38
-0.018454538687 0.0488227669062 0.124 1.09712799537e-38
-0.0178422760213 0.048429034915 0.123 1.08790843239e-38
-0.0175201316649 0.0488227669062 0.124 1.0786888694e-38
-0.0170529281538 0.0488227669062 0.124 1.09712799537e-38
-0.0164519687989 0.048429034915 0.123 1.11556712135e-38
-0.0161185211317 0.0488227669062 0.124 1.08790843239e-38
-0.0156513176206 0.0488227669062 0.124 1.10634755836e-38
-0.0150616615764 0.048429034915 0.123 1.09712799537e-38
-0.0145982258356 0.048429034915 0.123 1.06032163004e-38
-0.0140198731022 0.0480353029238 0.122 1.02344337809e-38
-0.013671354354 0.048429034915 0.123 1.00500425212e-38
-0.013100537161 0.0480353029238 0.122 1.03266294108e-38
-0.0128480965543 0.0488227669062 0.124 1.06954119303e-38
-0.0124807389548 0.0492164988973 0.125 1.07876075601e-38
-0.0121058458149 0.0496102308885 0.126 1.07876075601e-38
-0.0115387963922 0.0492164988973 0.125 1.07876075601e-38
-0.0112449103127 0.0500039628797 0.127 1.07876075601e-38
-0.0107664034908 0.0500039628797 0.127 1.087980319e-38
-0.010287896669 0.0500039628797 0.127 1.05110206705e-38
-0.00988662913735 0.0503976948709 0.128 9.49686874203e-39
-0.00947782606517 0.0507914268621 0.129 8.75930370313e-39
-0.00899178370285 0.0507914268621 0.129 8.85149933299e-39
-0.00850574134054 0.0507914268621 0.129 9.31247748231e-39
-0.00801969897822 0.0507914268621 0.129 9.95784689135e-39
-0.0075336566159 0.0507914268621 0.129 1.06032163004e-38
-0.00693834891632 0.0500039628797 0.127 1.06954119303e-38
-0.00645984209451 0.0500039628797 0.127 1.07876075601e-38
-0.00588714101643 0.0492164988973 0.125 1.087980319e-38
-0.00545949909299 0.0496102308885 0.126 1.06032163004e-38
-0.00486607527854 0.048429034915 0.123 9.68126000176e-39
-0.00433105190297 0.0476415709326 0.121 8.5749124434e-39
-0.00387515170265 0.0476415709326 0.121 7.92954303436e-39
-0.00344750977922 0.0480353029238 0.122 7.93061642898e-39
-0.00296335130203 0.0476415709326 0.121 8.76037709775e-39
-0.00254889657447 0.048429034915 0.123 9.86672465611e-39
-0.00210241579979 0.0488227669062 0.124 1.04198984353e-38
-0.00167477387635 0.0500039628797 0.127 1.05120940652e-38
-0.00120568648016 0.0503976948709 0.128 1.06964853249e-38
-0.000723411888099 0.0503976948709 0.128 1.07886809547e-38
-0.000244905066283 0.0511851588532 0.13 1.02355071756e-38
0.000246788951409 0.0515788908444 0.131 8.39051838108e-39
0.000762973475729 0.0531538188091 0.135 6.54660578381e-39
0.00128104188517 0.0535475508003 0.136 5.90123637477e-39
0.00179345863924 0.0535475508003 0.136 7.00758393313e-39
0.00228892042719 0.0531538188091 0.135 9.49686593944e-39
0.00281829214738 0.0535475508003 0.136 1.04188222381e-38
0.00333070890145 0.0535475508003 0.136 1.10641916471e-38
0.00384312565552 0.0535475508003 0.136 1.1156387277e-38
0.00441959450385 0.0543350147827 0.138 1.11563900796e-38
0.00501113443318 0.055122478765 0.14 1.06954119303e-38
0.00545949909299 0.0543350147827 0.138 8.94369496285e-39
0.00593612202968 0.0539412827915 0.137 6.36221732668e-39
0.00645230655401 0.0539412827915 0.137 4.61050035928e-39
0.00701935597671 0.0543350147827 0.138 5.62465228777e-39
0.00748467560265 0.0539412827915 0.137 7.83734740449e-39
0.00811766100473 0.0547287467738 0.139 1.00500425212e-38
0.00870354927869 0.055122478765 0.14 1.12485829068e-38
0.00923103711376 0.055122478765 0.14 1.13407785367e-38
0.00961911744956 0.0543350147827 0.138 1.14329741666e-38
0.0104329558237 0.0559099427474 0.142 1.1156387277e-38
0.010813500619 0.055122478765 0.14 9.49686593944e-39
0.0111789743333 0.0543350147827 0.138 7.09977956299e-39
0.0119532511198 0.0555162107562 0.141 4.61049755668e-39
0.0128386771286 0.0570911387209 0.145 4.51830192682e-39
0.0132926934438 0.0566974067297 0.144 6.6398776109e-39
0.0137391742185 0.0563036747386 0.143 9.03696398734e-39
0.0142779653643 0.0563036747386 0.143 1.08808765846e-38
0.0150239838739 0.0570911387209 0.145 1.12496591041e-38
0.0155703105602 0.0570911387209 0.145 1.14340503638e-38
0.0163389356914 0.0578786027033 0.147 1.11574634742e-38
0.0168927979182 0.0578786027033 0.147 1.02355071756e-38
0.0175653449079 0.0582723346944 0.148 6.36329072131e-39
0.0178780698387 0.0574848707121 0.146 3.50522899814e-39
0.0184281642953 0.0574848707121 0.146 2.8598595891e-39
0.0187182826046 0.0566974067297 0.144 4.42718529677e-39
0.0196621090523 0.0578786027033 0.147 7.93061923158e-39
0.0203534948933 0.0582723346944 0.148 1.05120940652e-38
0.0209111248904 0.0582723346944 0.148 1.08808765846e-38
0.0214687548874 0.0582723346944 0.148 1.10652678443e-38
0.0223240387343 0.0590597986768 0.15 1.09730722145e-38
0.0225840148816 0.0582723346944 0.148 9.86672745871e-39
0.0234543698094 0.0590597986768 0.15 6.63988041349e-39
0.0243397958183 0.0598472626592 0.152 3.32083773841e-39
0.0249124968964 0.0598472626592 0.152 2.95205521896e-39
0.0254851979745 0.0598472626592 0.152 4.15059840718e-39
0.0258864655062 0.059453530668 0.151 7.65403234199e-39
0.0266306001306 0.0598472626592 0.152 1.09730750171e-38
0.0270243321218 0.059453530668 0.151 1.18028356858e-38
0.0275932654296 0.059453530668 0.151 1.21705364029e-38
0.0289082172471 0.0610284586327 0.155 1.18017538834e-38
0.0293019492382 0.0606347266415 0.154 1.08798003874e-38
0.0302702661926 0.0614221906239 0.156 6.27001889422e-39
0.0306602304136 0.0610284586327 0.155 3.0431746516e-39
0.0308410833856 0.0602409946503 0.153 2.67439213215e-39
0.0316228957126 0.0606347266415 0.154 2.85842746207e-39
0.0332486885757 0.0626033865974 0.159 6.63844828646e-39
0.0340606430646 0.0629971185886 0.16 1.05120968678e-38
0.0344468395153 0.0626033865974 0.159 1.09730750171e-38
0.0343846713062 0.0614221906239 0.156 1.13415016067e-38
0.0349724434653 0.0614221906239 0.156 1.12485857094e-38
0.0355602156244 0.0614221906239 0.156 1.0326273481e-38
0.0366114235242 0.0622096546062 0.158 6.63808815276e-39
0.0383841594271 0.0641783145621 0.163 3.04245858809e-39
0.0385197991561 0.0633908505798 0.161 3.04210265828e-39
0.0388833889853 0.0629971185886 0.16 2.39887863718e-39
0.0387458653712 0.0618159226151 0.157 5.90231257199e-39
0.0398385187438 0.0626033865974 0.159 9.95892028597e-39
0.0406919187056 0.0629971185886 0.16 1.11574634742e-38
0.0423271309943 0.0645720465533 0.164 1.12485801042e-38
0.0432069053478 0.0649657785445 0.165 1.12485801042e-38
0.0432973318338 0.0641783145621 0.163 1.03266238056e-38
0.0433726872388 0.0633908505798 0.161 5.90123357217e-39
0.0434329715628 0.0626033865974 0.159 3.50164167407e-39
0.0445859092595 0.0633908505798 0.161 3.31725041434e-39
0.0457539180371 0.0641783145621 0.163 2.94954409211e-39
0.0466525312419 0.0645720465533 0.164 7.2834547592e-39
0.0466939767146 0.063784582571 0.162 1.06032163004e-38
0.047888359884 0.0645720465533 0.164 1.08808793872e-38
0.0485062742051 0.0645720465533 0.164 1.08815954507e-38
0.0488246507913 0.0641783145621 0.163 1.08815954507e-38
0.0500454083525 0.0649657785445 0.165 1.03241154814e-38
0.0512812369946 0.0657532425268 0.167 7.18946406601e-39
0.0522212956721 0.066146974518 0.168 4.79237768956e-39
0.0531688898901 0.0665407065092 0.169 3.59491350115e-39
0.0531688898901 0.0657532425268 0.167 3.13465421795e-39
0.053798107522 0.0657532425268 0.167 8.11357836427e-39
0.0544273251538 0.0657532425268 0.167 1.06028603706e-38
0.0563752623733 0.0673281704916 0.171 1.07883306301e-38
0.056686103419 0.0669344385004 0.17 1.10634755836e-38
0.0573266243616 0.0669344385004 0.17 1.10627567175e-38
0.0569441956811 0.0657532425268 0.167 1.03241154814e-38
0.0582629152688 0.0665407065092 0.169 7.65044501792e-39
0.0588996684412 0.0665407065092 0.169 5.34555427134e-39
0.0609455676872 0.0681156344739 0.173 5.06896457915e-39
0.0612413376519 0.0677219024827 0.172 6.36077959446e-39
0.0618893941349 0.0677219024827 0.172 1.04181061746e-38
0.0610830913013 0.066146974518 0.168 1.13407813393e-38
0.0620834343028 0.0665407065092 0.169 1.16173682289e-38
0.0630913128449 0.0669344385004 0.17 1.18010406225e-38
0.0637318337874 0.0669344385004 0.17 1.10634783862e-38
0.0647510156402 0.0673281704916 0.171 9.772020702e-39
0.0650128756726 0.0669344385004 0.17 6.91395897883e-39
0.0668119859672 0.0681156344739 0.173 5.89980705033e-39
0.0674638102206 0.0681156344739 0.173 5.89872805052e-39
0.0689030984563 0.0689030984563 0.175 9.22100211986e-39
0.0691649584887 0.0685093664651 0.174 1.10641944497e-38
0.0698205505123 0.0685093664651 0.174 1.1525172599e-38
0.0700711072339 0.0681156344739 0.173 1.15244565355e-38
0.0715405376316 0.0689030984563 0.175 1.18925201889e-38
0.0726124682679 0.0692968304475 0.176 1.0969487693e-38
0.0736919344447 0.0696905624386 0.177 8.75679257628e-39
0.074778936162 0.0700842944298 0.178 6.91287997901e-39
0.0758734734197 0.070478026421 0.179 5.07147850859e-39
0.0748373366008 0.0689030984563 0.175 7.74622797185e-39
0.0754966963947 0.0689030984563 0.175 1.04202613716e-38
0.0765912336524 0.0692968304475 0.176 1.12503779702e-38
0.0785711969191 0.070478026421 0.179 1.11581823403e-38
0.0783602017851 0.0696905624386 0.177 1.16184444261e-38
0.0790270971194 0.0696905624386 0.177 1.11556684109e-38
0.0783432468189 0.0685093664651 0.174 8.94225723063e-39
0.0799068714729 0.0692968304475 0.176 6.7295677191e-39
0.0810277831224 0.0696905624386 0.177 5.62358029445e-39
0.0830793340238 0.0708717584122 0.18 7.83699147468e-39
0.0814309345392 0.0689030984563 0.175 1.06039393704e-38
0.0825593817293 0.0692968304475 0.176 1.12493087794e-38
0.0822767989605 0.0685093664651 0.174 1.17088449926e-38
0.0843622597941 0.0696905624386 0.177 1.17081261265e-38
0.0864703272493 0.0708717584122 0.18 1.09698408202e-38
0.0856960504628 0.0696905624386 0.177 9.86314013464e-39
0.0863629457972 0.0696905624386 0.177 7.09727123874e-39
0.0870298411315 0.0696905624386 0.177 6.08419831006e-39
0.0881921982538 0.0700842944298 0.178 7.46712995541e-39
0.0888628613584 0.0700842944298 0.178 1.09712799537e-38
0.0880245324776 0.0689030984563 0.175 1.15251697964e-38
0.0881771271728 0.0685093664651 0.174 1.15262487962e-38
-0.0402680445524 0.0377624773358 0.095 1.06032134978e-38
-0.0386497872298 0.0365699780515 0.092 1.03277028054e-38
-0.0383031523667 0.0365699780515 0.092 9.49794213666e-39
-0.0379565175037 0.0365699780515 0.092 6.8231926734e-39
-0.0376098826406 0.0365699780515 0.092 3.31904267508e-39
-0.0372632477776 0.0365699780515 0.092 2.21269511672e-39
-0.0373178804462 0.0369674778129 0.093 2.30417468307e-39
-0.0365699780515 0.0365699780515 0.092 3.87042419352e-39
-0.0366170751796 0.0369674778129 0.093 7.46605375819e-39
-0.0370466009882 0.0377624773358 0.095 1.03266294108e-38
-0.0366886628144 0.0377624773358 0.095 1.05110206705e-38
-0.0363307246406 0.0377624773358 0.095 1.08790843239e-38
-0.036351447377 0.0381599770972 0.096 1.08790843239e-38
-0.0363646345728 0.0385574768586 0.097 1.04181061746e-38
-0.0352569101192 0.0377624773358 0.095 8.02101979811e-39
-0.0348989719454 0.0377624773358 0.095 4.2402801076e-39
-0.0352682134299 0.0385574768586 0.097 2.67295439992e-39
-0.0352625617746 0.0389549766201 0.098 2.48677087946e-39
-0.03489332029 0.0389549766201 0.098 3.86970532741e-39
-0.0352286518423 0.0397499761429 0.1 7.00507280628e-39
-0.0345033560691 0.0393524763815 0.099 9.95640915913e-39
-0.0341303468143 0.0393524763815 0.099 1.0786888694e-38
-0.0340983207672 0.0397499761429 0.1 1.07876047575e-38
-0.0340587591795 0.0401474759044 0.101 1.06964853249e-38
-0.0340116620514 0.0405449756658 0.102 1.02355071756e-38
-0.0336273494858 0.0405449756658 0.102 9.12808622258e-39
-0.0332430369203 0.0405449756658 0.102 4.97856681522e-39
-0.0331808687112 0.0409424754272 0.103 3.50271787129e-39
-0.0334295415477 0.0417374749501 0.105 3.31832941416e-39
-0.0333485344873 0.0421349747115 0.106 4.60906823225e-39
-0.0323274687494 0.0413399751886 0.104 7.37493432555e-39
-0.0328568404696 0.0425324744729 0.107 1.01415220876e-38
-0.0321503835476 0.0421349747115 0.106 1.07876075601e-38
-0.032050537636 0.0425324744729 0.107 1.08798003874e-38
-0.0313516162545 0.0421349747115 0.106 1.09719960173e-38
-0.030952232608 0.0421349747115 0.106 1.10634755836e-38
-0.0311293178097 0.0429299742344 0.108 1.0141519285e-38
-0.0310068652766 0.0433274739958 0.109 7.00686786961e-39
-0.030876877203 0.0437249737572 0.11 5.16295527235e-39
-0.0304624224754 0.0437249737572 0.11 4.88565231924e-39
-0.0300479677478 0.0437249737572 0.11 6.17639113733e-39
-0.0296335130203 0.0437249737572 0.11 8.48199794743e-39
-0.0294846860954 0.0441224735186 0.111 1.03266294108e-38
-0.0290664635976 0.0441224735186 0.111 1.087980319e-38
-0.0286482410998 0.0441224735186 0.111 1.07883278275e-38
-0.0279756941101 0.0437249737572 0.11 1.1157110347e-38
-0.0280623528258 0.0445199732801 0.112 1.09719988198e-38
-0.0276403625578 0.0445199732801 0.112 1.07876075601e-38
-0.0269753511086 0.0441224735186 0.111 9.12736735647e-39
-0.0265571286107 0.0441224735186 0.111 8.2036187971e-39
-0.0268453630349 0.0453149728029 0.114 7.55932558528e-39
-0.0266475550968 0.0457124725644 0.115 8.20541386043e-39
-0.026214261518 0.0457124725644 0.115 9.77345563162e-39
-0.026005150269 0.0461099723258 0.116 1.04195453081e-38
-0.02556808892 0.0461099723258 0.116 1.08798003874e-38
-0.0249143807815 0.0457124725644 0.115 1.10641916471e-38
-0.024906845241 0.0465074720872 0.117 1.08797975848e-38
-0.0244660161217 0.0465074720872 0.117 1.06954119303e-38
-0.0240251870024 0.0465074720872 0.117 1.087980319e-38
-0.0235843578831 0.0465074720872 0.117 1.05103018044e-38
-0.0231435287638 0.0465074720872 0.117 1.00493236551e-38
-0.0228967398124 0.0469049718486 0.118 9.86493239538e-39
-0.0226424153205 0.0473024716101 0.119 1.02337149148e-38
-0.0221940506607 0.0473024716101 0.119 1.06032163004e-38
-0.021928422858 0.0476999713715 0.12 1.07876075601e-38
-0.0211183522541 0.0469049718486 0.118 1.087980319e-38
-0.0208489566812 0.0473024716101 0.119 1.087980319e-38
-0.0204005920214 0.0473024716101 0.119 1.09719960173e-38
-0.0197845615854 0.0469049718486 0.118 1.09719960173e-38
-0.0195038627018 0.0473024716101 0.119 1.07876047575e-38
-0.019055498042 0.0473024716101 0.119 1.07876047575e-38
-0.0184507709168 0.0469049718486 0.118 1.07876019549e-38
-0.0183113634175 0.0476999713715 0.12 1.07876019549e-38
-0.0180080579123 0.0480974711329 0.121 1.0786888694e-38
-0.017552157712 0.0480974711329 0.121 1.08790843239e-38
-0.0172375488961 0.0484949708944 0.122 1.0786888694e-38
-0.0169154045397 0.0488924706558 0.123 1.09712799537e-38
-0.016318212955 0.0484949708944 0.122 1.10634755836e-38
-0.0155985688371 0.0476999713715 0.12 1.10634755836e-38
-0.0152726567105 0.0480974711329 0.121 1.10634755836e-38
-0.014694303977 0.0476999713715 0.12 1.09712799537e-38
-0.0143608563098 0.0480974711329 0.121 1.07876075601e-38
-0.0136751221242 0.0473024716101 0.119 1.06954119303e-38
-0.0133379066868 0.0476999713715 0.12 1.07876075601e-38
-0.0128857742568 0.0476999713715 0.12 1.09719988198e-38
-0.0125372555086 0.0480974711329 0.121 1.07876075601e-38
-0.0121812012199 0.0484949708944 0.122 1.07876075601e-38
-0.0118176113907 0.0488924706558 0.123 1.087980319e-38
-0.0114464860211 0.0492899704172 0.124 1.07876075601e-38
-0.01097928251 0.0492899704172 0.124 1.06954119303e-38
-0.0105968538296 0.0496874701787 0.125 1.07876075601e-38
-0.0102068896086 0.0500849699401 0.126 1.087980319e-38
-0.00973215055708 0.0500849699401 0.126 1.06954119303e-38
-0.00925741150551 0.0500849699401 0.126 1.05110206705e-38
-0.00878267245395 0.0500849699401 0.126 1.05110206705e-38
-0.00830793340238 0.0500849699401 0.126 1.06032163004e-38
-0.00789536255995 0.0504824697015 0.127 1.06032163004e-38
-0.00735845529925 0.0500849699401 0.126 1.06954119303e-38
-0.00682908357906 0.0496874701787 0.125 1.07876075601e-38
-0.00640897719612 0.0500849699401 0.126 1.07876075601e-38
-0.00574584963203 0.0484949708944 0.122 1.087980319e-38
-0.00524285230359 0.0480974711329 0.121 1.07876075601e-38
-0.00470782892802 0.0473024716101 0.119 1.06032163004e-38
-0.00411628899869 0.0457124725644 0.115 1.03266294108e-38
-0.00365096937275 0.0453149728029 0.114 1.02344337809e-38
-0.00324970184107 0.0457124725644 0.115 1.00511187184e-38
-0.00281640826226 0.0457124725644 0.115 1.0327705608e-38
-0.00238311468345 0.0457124725644 0.115 1.05120968678e-38
-0.00196677607077 0.0461099723258 0.116 1.06964881275e-38
-0.00158246350522 0.0476999713715 0.12 1.06964881275e-38
-0.00115858935203 0.0488924706558 0.123 1.07886837573e-38
-0.000700805266596 0.0492899704172 0.124 1.08808793872e-38
-0.000239253410908 0.0504824697015 0.127 1.06042924976e-38
0.000241137296033 0.0508799694629 0.128 1.03266266082e-38
0.00073471519885 0.0516749689858 0.13 9.86564845889e-39
0.00123394475704 0.0520724687472 0.131 9.95784408875e-39
0.00172752265986 0.0520724687472 0.131 1.04188222381e-38
0.00223805552881 0.0524699685087 0.132 1.06032134978e-38
0.00275612393825 0.0528674682701 0.133 1.10641916471e-38
0.0032817278882 0.0532649680315 0.134 1.1156387277e-38
0.00375835082489 0.0528674682701 0.133 1.10641916471e-38
0.00429149031534 0.0532649680315 0.134 1.09719988198e-38
0.00483216534628 0.0536624677929 0.135 1.09719988198e-38
0.00530125274247 0.0532649680315 0.134 1.06954119303e-38
0.00584946331392 0.0536624677929 0.135 1.00500425212e-38
0.00640520942587 0.0540599675544 0.136 9.86565126149e-39
0.00686676128156 0.0536624677929 0.135 1.00500425212e-38
0.00743004293401 0.0540599675544 0.136 1.06032163004e-38
0.0078840592492 0.0536624677929 0.135 1.12485857094e-38
0.00851704465129 0.0544574673158 0.137 1.12485829068e-38
0.00909916515499 0.0548549670772 0.138 1.13407785367e-38
0.00954941369993 0.0544574673158 0.137 1.13407785367e-38
0.0101390697441 0.0548549670772 0.138 1.12485829068e-38
0.0106590220387 0.0548549670772 0.138 1.10641916471e-38
0.0110979672729 0.0544574673158 0.137 1.01422353485e-38
0.0117837014585 0.0552524668387 0.139 9.40467030957e-39
0.0124845067251 0.0560474663615 0.141 9.68125719916e-39
0.0130157623304 0.0560474663615 0.141 1.02355071756e-38
0.0137391742185 0.0568424658844 0.143 1.08808765846e-38
0.014078273541 0.0560474663615 0.141 1.09730722145e-38
0.0146095291464 0.0560474663615 0.141 1.08808765846e-38
0.0151407847517 0.0560474663615 0.141 1.12496591041e-38
0.0157831895794 0.0564449661229 0.142 1.11574634742e-38
0.0165480469403 0.0572399656458 0.144 1.08808765846e-38
0.0172092906192 0.0576374654072 0.145 9.59013776652e-39
0.0177556173055 0.0576374654072 0.145 8.76037990035e-39
0.0181757236885 0.0572399656458 0.144 8.57598864062e-39
0.0185882945309 0.0568424658844 0.143 9.40574930939e-39
0.0192608415206 0.0572399656458 0.144 1.07886837573e-38
0.020078447665 0.0580349651687 0.146 1.07886809547e-38
0.0204872507372 0.0576374654072 0.145 1.09730722145e-38
0.0211786365781 0.0580349651687 0.146 1.10652678443e-38
0.0220263848845 0.0588299646915 0.148 1.10652678443e-38
0.0222788254913 0.0580349651687 0.146 1.09730750171e-38
0.0229852824133 0.0584324649301 0.147 9.31355367953e-39
0.0236992748757 0.0588299646915 0.148 7.74622797185e-39
0.0242569048728 0.0588299646915 0.148 7.74622797185e-39
0.024982200646 0.059227464453 0.149 9.03696678994e-39
0.0257150319598 0.0596249642144 0.15 1.0327705608e-38
0.0262801974973 0.0596249642144 0.15 1.12496619067e-38
0.0268453630349 0.0596249642144 0.15 1.15262487962e-38
0.0277760022868 0.0604199637372 0.152 1.18939523159e-38
0.0279756941101 0.0596249642144 0.15 1.17095610562e-38
0.0289214044429 0.0604199637372 0.152 1.10641916471e-38
0.0296881456889 0.0608174634987 0.153 8.5749096408e-39
0.0300668065991 0.0604199637372 0.152 6.73099984613e-39
0.0304379319688 0.0600224639758 0.151 6.63880421627e-39
0.0314175522339 0.0608174634987 0.153 7.28417362531e-39
0.03241224358 0.0616124630215 0.155 9.68126000176e-39
0.0329962479689 0.0616124630215 0.155 1.09730750171e-38
0.0335802523577 0.0616124630215 0.155 1.11574662768e-38
0.0341642567465 0.0616124630215 0.155 1.14329769692e-38
0.0347482611354 0.0616124630215 0.155 1.12485857094e-38
0.0355602156244 0.062009962783 0.156 1.04188250407e-38
0.0361479877834 0.062009962783 0.156 7.65295614477e-39
0.0374422168645 0.0632024620672 0.159 4.97856681522e-39
0.0382805457452 0.0635999618287 0.16 4.79417555549e-39
0.0388833889853 0.0635999618287 0.16 6.08670663431e-39
0.039239443274 0.0632024620672 0.159 8.76037990035e-39
0.0398385187438 0.0632024620672 0.159 1.06042924976e-38
0.0404375942136 0.0632024620672 0.159 1.10652706469e-38
0.0412947619456 0.0635999618287 0.16 1.15251697964e-38
0.0424213252505 0.0643949613515 0.162 1.14329741666e-38
0.0430317040311 0.0643949613515 0.162 1.01422353485e-38
0.0433726872388 0.0639974615901 0.161 5.71684511504e-39
0.0442524615923 0.0643949613515 0.162 3.2261337843e-39
0.0448628403729 0.0643949613515 0.162 3.68710913102e-39
0.0457539180371 0.064792461113 0.163 4.60978429576e-39
0.0466525312419 0.0651899608744 0.164 8.38980231756e-39
0.0469822111388 0.064792461113 0.163 1.07876075601e-38
0.0473043554952 0.0643949613515 0.162 1.1156387277e-38
0.0479147342758 0.0643949613515 0.162 1.08808793872e-38
0.0485251130564 0.0643949613515 0.162 1.06964853249e-38
0.0494387973421 0.064792461113 0.163 8.84898540355e-39
0.0512812369946 0.0663824601587 0.167 4.42467416992e-39
0.0515996135808 0.0659849603973 0.166 3.31832661156e-39
0.0528542810742 0.0667799599201 0.168 3.04245858809e-39
0.0531688898901 0.0663824601587 0.167 4.5175886659e-39
0.053798107522 0.0663824601587 0.167 8.57455651359e-39
0.0544273251538 0.0663824601587 0.167 1.05106647407e-38
0.0567049422702 0.0683699589658 0.172 1.07883306301e-38
0.0570195510862 0.0679724592044 0.171 1.09719988198e-38
0.0569894089241 0.0671774596815 0.169 1.06946930641e-38
0.0572851788888 0.0667799599201 0.168 7.743716845e-39
0.0579181642909 0.0667799599201 0.168 4.05589165047e-39
0.0588996684412 0.0671774596815 0.169 3.13393535184e-39
0.0598887081319 0.067574959443 0.17 3.31832661156e-39
0.0605292290745 0.067574959443 0.17 5.5317377918e-39
0.0608099279582 0.0671774596815 0.169 1.03266294108e-38
0.0618102709597 0.067574959443 0.17 1.13407813393e-38
0.0628181495017 0.0679724592044 0.171 1.16173682289e-38
0.0627201874752 0.0671774596815 0.169 1.16166493628e-38
0.0633569406475 0.0671774596815 0.169 1.0141519285e-38
0.0647510156402 0.0679724592044 0.171 6.08491437358e-39
0.0650128756726 0.067574959443 0.17 3.78002362699e-39
0.0664257895166 0.0683699589658 0.172 3.2261309817e-39
0.0670738459996 0.0683699589658 0.172 4.42467416992e-39
0.0685093664651 0.0691649584887 0.174 9.31319774972e-39
0.0691649584887 0.0691649584887 0.174 1.10641944497e-38
0.0694192829806 0.0687674587273 0.173 1.16173682289e-38
0.069666071932 0.0683699589658 0.172 1.17088449926e-38
0.0719493407038 0.0699599580115 0.176 1.09712827563e-38
0.071787326583 0.0691649584887 0.174 8.57347751377e-39
0.0736919344447 0.070357457773 0.177 4.60906542965e-39
0.0739387233961 0.0699599580115 0.176 3.77822576106e-39
0.0750257251134 0.070357457773 0.177 3.41195717106e-39
0.0744096946774 0.0691649584887 0.174 7.10085856281e-39
0.0754966963947 0.0695624582501 0.175 1.0327705608e-38
0.0770264111164 0.070357457773 0.177 1.12503779702e-38
0.0781322516849 0.0707549575344 0.178 1.15262459937e-38
0.0779174887806 0.0699599580115 0.176 1.14329741666e-38
0.0790270971194 0.070357457773 0.177 8.94297329415e-39
0.0796939924537 0.070357457773 0.177 5.16295527235e-39
0.0794528551577 0.0695624582501 0.175 4.24100177631e-39
0.080569999037 0.0699599580115 0.176 3.41160124125e-39
0.0816946784568 0.070357457773 0.177 6.26966576701e-39
0.0818962541652 0.0699599580115 0.176 1.01429612211e-38
0.0825593817293 0.0699599580115 0.176 1.14329769692e-38
0.0836953644598 0.070357457773 0.177 1.15244537329e-38
0.0838856368574 0.0699599580115 0.176 1.16159304967e-38
0.0855095458354 0.0707549575344 0.178 8.94225723063e-39
0.0866643674172 0.0711524572958 0.179 5.25443764129e-39
0.087338798292 0.0711524572958 0.179 3.68710913102e-39
0.0870298411315 0.070357457773 0.177 3.78002362699e-39
0.0876967364658 0.070357457773 0.177 6.17710720084e-39
0.087864402242 0.0699599580115 0.176 1.087980319e-38
0.0880245324776 0.0695624582501 0.175 1.14329741666e-38
-0.0423365504199 0.0397254856363 0.099 9.86493239538e-39
-0.0389964220928 0.0369166129145 0.092 1.02337149148e-38
-0.0378095744639 0.0361140778512 0.09 1.00518333807e-38
-0.0374704751414 0.0361140778512 0.09 9.49865960147e-39
-0.0371313758188 0.0361140778512 0.09 7.83842079912e-39
-0.0367922764963 0.0361140778512 0.09 5.44025822545e-39
-0.0372632477776 0.0369166129145 0.092 3.59563236727e-39
-0.0373178804462 0.0373178804462 0.093 3.41052504402e-39
-0.0365699780515 0.0369166129145 0.092 4.23992838169e-39
-0.0366170751796 0.0373178804462 0.093 7.83483767895e-39
-0.0366566367673 0.0377191479779 0.094 1.04188250407e-38
-0.0363024663637 0.0377191479779 0.094 1.06032163004e-38
-0.0359482959602 0.0377191479779 0.094 1.0786888694e-38
-0.0359727864668 0.0381204155096 0.095 1.06946930641e-38
-0.035614848293 0.0381204155096 0.095 1.04181061746e-38
-0.0348857847495 0.0377191479779 0.094 8.38980231756e-39
-0.0348989719454 0.0381204155096 0.095 5.07004077637e-39
-0.0345410337716 0.0381204155096 0.095 3.13393254924e-39
-0.0345429176567 0.0385216830413 0.096 2.48856594279e-39
-0.033825157424 0.0381204155096 0.095 3.13393535184e-39
-0.0338195057686 0.0385216830413 0.096 6.45297802692e-39
-0.0334577998246 0.0385216830413 0.096 9.86493239538e-39
-0.0337855958364 0.0393242181046 0.098 1.0786888694e-38
-0.0334163543518 0.0393242181046 0.098 1.07876047575e-38
-0.0330471128673 0.0393242181046 0.098 1.08798003874e-38
-0.0330113190499 0.0397254856363 0.099 1.01433143483e-38
-0.0326383097951 0.0397254856363 0.099 8.85078046688e-39
-0.0325912126669 0.040126753168 0.1 4.42467416992e-39
-0.0325365799983 0.0405280206997 0.101 3.2261337843e-39
-0.0327927883753 0.041330555763 0.103 2.48748974557e-39
-0.0327193168555 0.0417318232947 0.104 3.04066352475e-39
-0.0323274687494 0.0417318232947 0.104 5.89980705033e-39
-0.0325497671942 0.0425343583581 0.106 9.40323818254e-39
-0.0315437725373 0.0417318232947 0.104 1.08790843239e-38
-0.0308523866963 0.041330555763 0.103 1.1156387277e-38
-0.0304643063605 0.041330555763 0.103 1.10641916471e-38
-0.0303682282191 0.0417318232947 0.104 1.0786888694e-38
-0.0299763801131 0.0417318232947 0.104 8.57419357729e-39
-0.0301534653149 0.0425343583581 0.106 4.14880334385e-39
-0.0297540816683 0.0425343583581 0.106 2.67367326604e-39
-0.0296316291352 0.0429356258897 0.107 2.58076157266e-39
-0.0289553143752 0.0425343583581 0.106 3.41052224143e-39
-0.0288253263016 0.0429356258897 0.107 5.80832468139e-39
-0.0286878026874 0.0433368934214 0.108 9.49686874203e-39
-0.0280190234679 0.0429356258897 0.107 1.087980319e-38
-0.027357779789 0.0425343583581 0.106 1.08805234574e-38
-0.0274670451262 0.0433368934214 0.108 1.10649147171e-38
-0.0270601259392 0.0433368934214 0.108 1.07876075601e-38
-0.027146784655 0.0441394284848 0.11 9.22028185244e-39
-0.0264893087462 0.0437381609531 0.109 5.25515090221e-39
-0.0260786217889 0.0437381609531 0.109 4.23848784686e-39
-0.0261389061129 0.0445406960165 0.111 3.59383730393e-39
-0.0259524014855 0.0449419635481 0.112 4.79345949197e-39
-0.0255304112175 0.0449419635481 0.112 7.37565319166e-39
-0.0251084209494 0.0449419635481 0.112 1.04188250407e-38
-0.0246864306814 0.0449419635481 0.112 1.07876075601e-38
-0.0244810872027 0.0453432310798 0.113 1.10641916471e-38
-0.0242682081836 0.0457444986115 0.114 1.10641916471e-38
-0.023838682375 0.0457444986115 0.114 1.10641944497e-38
-0.0234091565664 0.0457444986115 0.114 1.03259105447e-38
-0.0227780550495 0.0453432310798 0.113 7.74371404241e-39
-0.0225501049493 0.0457444986115 0.114 6.36077959446e-39
-0.0221205791408 0.0457444986115 0.114 6.45297522432e-39
-0.0216910533322 0.0457444986115 0.114 7.46712715282e-39
-0.0216345367785 0.0465470336748 0.116 9.40395424606e-39
-0.0211974754294 0.0465470336748 0.116 1.05110206705e-38
-0.0205814449934 0.0461457661432 0.115 1.07876047575e-38
-0.0201481514146 0.0461457661432 0.115 1.08798003874e-38
-0.0197148578358 0.0461457661432 0.115 1.09719988198e-38
-0.0191138984809 0.0457444986115 0.114 1.07876075601e-38
-0.0188482706782 0.0461457661432 0.115 1.05103018044e-38
-0.0187352375707 0.0469483012065 0.117 9.40395424606e-39
-0.0184507709168 0.0473495687382 0.118 9.12664849036e-39
-0.0177009846369 0.0465470336748 0.116 9.21884412022e-39
-0.0175615771376 0.0473495687382 0.118 9.68054113565e-39
-0.0171169802481 0.0473495687382 0.118 1.06024974343e-38
-0.0166723833585 0.0473495687382 0.118 1.0786888694e-38
-0.0163653100831 0.0477508362699 0.119 1.0786888694e-38
-0.0160507012672 0.0481521038016 0.12 1.11556712135e-38
-0.0153385926898 0.0473495687382 0.118 1.09712799537e-38
-0.0150202161037 0.0477508362699 0.119 1.08790843239e-38
-0.0144493989107 0.0473495687382 0.118 1.08790843239e-38
-0.0141234867841 0.0477508362699 0.119 1.0786888694e-38
-0.013445288139 0.0469483012065 0.117 1.04181061746e-38
-0.013115608242 0.0473495687382 0.118 1.02337149148e-38
-0.0126710113525 0.0473495687382 0.118 1.05103018044e-38
-0.0122264144629 0.0473495687382 0.118 1.0786888694e-38
-0.011881663485 0.0477508362699 0.119 1.08790843239e-38
-0.0115293769666 0.0481521038016 0.12 1.08790843239e-38
-0.0111695549076 0.0485533713332 0.121 1.0786888694e-38
-0.0107136547073 0.0485533713332 0.121 1.06954119303e-38
-0.0103425293377 0.0489546388649 0.122 1.06954119303e-38
-0.00980185430671 0.0485533713332 0.121 1.06032163004e-38
-0.0093459541064 0.0485533713332 0.121 1.05110206705e-38
-0.00889005390609 0.0485533713332 0.121 1.05110206705e-38
-0.00857356120504 0.0493559063966 0.123 1.06032163004e-38
-0.00804418948485 0.0489546388649 0.122 1.06954119303e-38
-0.00752235330515 0.0485533713332 0.121 1.06954119303e-38
-0.00706645310484 0.0485533713332 0.121 1.07876075601e-38
-0.00666518557316 0.0489546388649 0.122 1.07876075601e-38
-0.00615465270421 0.0485533713332 0.121 1.07876075601e-38
-0.00560455824764 0.0477508362699 0.119 1.07876075601e-38
-0.00506953487207 0.0469483012065 0.117 1.06954119303e-38
-0.0045495825775 0.0461457661432 0.115 1.06954119303e-38
-0.00400890754655 0.0449419635481 0.112 1.06954119303e-38
-0.00352286518423 0.0441394284848 0.11 1.06954119303e-38
-0.00310841045667 0.0441394284848 0.11 1.06032134978e-38
-0.00266946522249 0.0437381609531 0.109 1.06954091277e-38
-0.00227950100156 0.0441394284848 0.11 1.08798003874e-38
-0.00188200124013 0.0445406960165 0.111 1.09719960173e-38
-0.00150334032996 0.0457444986115 0.114 1.09719960173e-38
-0.00110207279828 0.0469483012065 0.117 1.08798003874e-38
-0.000678198645093 0.0481521038016 0.12 1.10641916471e-38
-0.000229833985281 0.0489546388649 0.122 1.09719960173e-38
0.000233601755532 0.0497571739283 0.124 1.08798003874e-38
0.000712108577347 0.0505597089916 0.126 1.07876047575e-38
0.00118684762891 0.0505597089916 0.126 1.06954091277e-38
0.00170114826811 0.0517635115867 0.129 1.09719960173e-38
0.00218719063042 0.0517635115867 0.129 1.12485829068e-38
0.0027146784655 0.05256604665 0.131 1.14329741666e-38
0.00323274687494 0.0529673141817 0.132 1.12485829068e-38
0.00367357599425 0.0521647791184 0.13 1.10641916471e-38
0.00419541217395 0.05256604665 0.131 1.15251697964e-38
0.00468899007676 0.05256604665 0.131 1.12485829068e-38
0.00518256797958 0.05256604665 0.131 1.09719960173e-38
0.00571947524028 0.0529673141817 0.132 1.08798003874e-38
0.00626391804148 0.0533685817134 0.133 1.1156387277e-38
0.00681589638318 0.0537698492451 0.134 1.12485829068e-38
0.00726614492812 0.0533685817134 0.133 1.14329741666e-38
0.00770885793255 0.0529673141817 0.132 1.14329741666e-38
0.00820620360562 0.0529673141817 0.132 1.13407785367e-38
0.00870354927869 0.0529673141817 0.132 1.13407785367e-38
0.00920089495176 0.0529673141817 0.132 1.13407785367e-38
0.00984518366459 0.0537698492451 0.134 1.12485829068e-38
0.010272825588 0.0533685817134 0.133 1.12485829068e-38
0.0108549460917 0.0537698492451 0.134 1.1156387277e-38
0.0113598273053 0.0537698492451 0.134 1.10641916471e-38
0.0120417937206 0.0545723843084 0.136 1.09719960173e-38
0.0126465208459 0.0549736518401 0.137 1.09730722145e-38
0.0132587835116 0.0553749193718 0.138 1.11574634742e-38
0.0137787358061 0.0553749193718 0.138 1.11574634742e-38
