0.129311 -0.075269 1.134021 
0.431500 0.147371 0.586119 
0.314815 0.058004 1.368025 
0.317546 -0.043696 0.853020 
0.453500 0.056688 1.823248 
-0.152189 -0.144010 1.600164 
0.280302 -0.144010 1.757656 
-0.288881 -0.144011 0.105351 
0.189570 0.009930 1.363020 
0.457500 -0.087211 1.725802 
0.457500 0.120078 0.098173 
0.453500 -0.026792 1.362210 
0.344995 0.116112 0.000021 
-0.141306 -0.144010 1.472093 
0.102663 -0.097108 1.583022 
0.402618 -0.144010 1.733709 
-0.436641 0.155382 1.118232 
-0.453500 -0.103869 1.638981 
0.457500 0.094020 0.626742 
-0.211234 0.014782 1.827523 
0.431500 0.152878 0.758679 
-0.457500 -0.058461 1.015427 
0.453500 0.043781 0.263039 
0.324648 -0.144010 1.703800 
-0.457500 0.087737 0.346944 
-0.159039 -0.144010 0.558128 
0.185056 -0.044461 0.853020 
-0.002091 -0.006187 0.873022 
-0.214910 -0.144010 1.820469 
-0.173829 -0.054282 1.134021 
-0.071918 -0.066911 1.363020 
0.078964 0.124852 1.139020 
-0.062544 0.116586 0.873022 
-0.453500 -0.052028 1.697937 
0.453500 0.098918 1.411748 
-0.331082 0.110657 1.588027 
-0.457500 0.018034 0.456546 
-0.409416 -0.143121 1.583022 
-0.457500 -0.150708 1.168175 
0.146391 -0.144010 1.386770 
0.453500 -0.033489 0.106767 
-0.435795 0.155381 0.261811 
0.264205 0.020519 1.134021 
0.267474 -0.144011 0.176853 
0.360183 -0.113373 1.134021 
-0.431500 0.149864 0.749315 
0.353606 0.140983 1.591762 
-0.457500 -0.146538 0.280424 
0.453500 -0.038602 0.487195 
-0.278577 -0.120379 1.368025 
-0.457500 -0.002389 1.363194 
0.401977 -0.143208 0.000021 
0.051591 -0.084995 0.853020 
-0.217233 0.143482 1.137550 
-0.063889 0.143482 0.876996 
-0.453499 -0.133525 0.094127 
-0.457500 0.003854 0.530623 
0.457500 -0.119080 1.220348 
0.076589 -0.013284 0.000021 
0.136984 -0.144011 0.181263 
0.102797 -0.144010 1.047648 
0.221677 0.065542 1.588027 
0.453500 -0.092656 1.473053 
0.457500 0.070101 0.822272 
-0.258235 0.137993 0.000021 
0.457500 0.130479 0.432958 
0.453500 -0.002879 0.206815 
-0.107675 0.104516 0.873022 
0.444971 0.155382 1.691433 
-0.318629 0.009088 0.000021 
-0.199306 -0.144010 1.527216 
-0.457500 -0.076546 0.773292 
0.045716 -0.144010 1.783510 
0.452530 0.143382 1.106142 
0.067684 -0.026473 0.000021 
0.123424 -0.016738 1.827523 
0.352749 -0.144010 0.570339 
-0.453500 0.065010 1.368766 
-0.266000 -0.132835 1.134021 
-0.229352 -0.120107 1.368025 
0.453500 -0.052883 1.678943 
0.056985 0.001762 1.363020 
0.175201 -0.144010 0.469018 
-0.133134 -0.132818 1.583022 
-0.312326 0.123492 1.588026 
-0.080075 0.143382 1.824638 
-0.453499 -0.056022 1.158595 
0.457500 -0.074618 0.484821 
-0.112742 0.083340 1.583022 
-0.355801 -0.061618 1.583022 
0.453500 0.087862 1.626195 
0.025277 0.029617 1.583022 
-0.457500 -0.019206 1.013710 
0.116230 0.122302 1.831021 
-0.087260 -0.025416 1.363020 
-0.457500 -0.039292 1.120538 
0.453500 -0.033212 0.909180 
-0.129006 0.033195 1.363020 
-0.392716 0.143482 1.130215 
0.377601 0.059164 0.853020 
-0.053100 -0.020815 0.853020 
0.422705 0.128571 0.000021 
-0.453500 0.064662 0.884869 
-0.269614 -0.125091 1.583022 
-0.457500 -0.096405 1.566017 
-0.457500 0.027363 0.783926 
-0.190477 -0.050422 0.076217 
-0.453500 0.043879 1.792774 
0.457500 -0.106574 1.488647 
0.137905 -0.144010 1.602179 
0.332788 0.120924 1.583022 
-0.453329 0.143382 1.784388 
-0.435792 -0.144010 1.203149 
0.424351 0.138337 0.000021 
0.457500 0.042893 0.422838 
0.345163 -0.144010 1.688270 
-0.457500 -0.057211 1.003329 
-0.457500 -0.138395 1.367450 
-0.336214 -0.144011 0.250556 
-0.368916 -0.144010 1.798676 
-0.453500 -0.044136 0.529933 
-0.250467 0.100558 0.853020 
0.160984 -0.041637 0.873022 
0.457500 -0.065302 0.299388 
0.172471 -0.092404 0.076217 
-0.177968 -0.144010 0.816922 
0.318668 0.143381 0.007384 
-0.337314 0.143381 0.055750 
-0.331095 -0.121993 0.873022 
0.453500 -0.080558 1.333610 
0.072578 0.143381 0.072442 
0.276064 0.078945 0.853020 
0.383192 -0.136881 0.000021 
-0.265014 0.129670 0.873022 
0.453500 0.116830 1.816351 
-0.453500 0.084886 1.219063 
0.365973 -0.144010 0.541498 
-0.453499 -0.137512 1.017051 
0.457500 -0.047786 1.160552 
-0.263692 0.143382 1.824771 
-0.430961 -0.113093 1.368025 
0.211418 0.034616 1.831020 
-0.339885 -0.144010 1.203522 
-0.204982 -0.144010 1.062154 
0.457500 0.127675 0.045089 
-0.457500 -0.037863 1.148318 
-0.127901 0.055044 1.827523 
-0.169349 -0.144010 1.701388 
0.390422 -0.142241 1.368025 
0.453500 -0.131732 0.104202 
0.301774 0.143482 1.573987 
-0.047721 -0.106993 0.076217 
-0.394101 -0.069425 0.076217 
0.406864 -0.144010 0.973447 
-0.343593 0.077283 0.853020 
0.321250 0.045816 1.134021 
0.457500 0.017731 1.373386 
-0.457500 -0.020583 0.028590 
-0.056275 -0.082253 1.827523 
0.453500 -0.048151 0.408495 
-0.250274 -0.074333 0.000021 
-0.141981 0.127562 1.134021 
-0.453500 0.048950 1.685864 
0.453500 -0.074551 1.346367 
-0.182122 -0.144010 0.946996 
0.129284 -0.029711 1.588027 
0.425027 -0.131086 1.583022 
0.457500 0.099277 1.159075 
0.168481 -0.088871 0.000021 
-0.079757 -0.144010 0.944706 
-0.316323 -0.144010 1.736386 
0.053329 -0.144010 1.307201 
0.457500 0.094545 1.611524 
-0.116121 -0.144010 0.931184 
0.271536 0.112856 1.831020 
0.453500 0.127397 0.419978 
-0.271650 0.033186 0.853020 
0.018803 -0.144011 0.174033 
0.457500 -0.055906 0.192714 
0.039645 0.134368 1.368024 
-0.241110 -0.131798 1.134021 
-0.356114 -0.103077 1.368025 
0.065290 -0.103716 0.853020 
-0.060420 0.048314 0.000021 
0.457500 -0.110740 0.172589 
-0.085024 -0.144010 0.540342 
-0.265138 0.068421 0.076217 
0.457500 0.133293 1.714683 
0.453500 -0.042688 0.961254 
0.453500 0.012534 0.789210 
-0.453500 0.057754 0.788401 
0.453500 0.063598 1.581388 
0.453500 0.012074 1.396419 
0.453500 -0.055455 1.638213 
-0.420915 -0.144011 0.109464 
-0.346520 -0.011327 1.583022 
0.148525 -0.139201 0.873022 
-0.376180 0.086517 1.827523 
0.261109 0.059279 1.588027 
-0.359532 -0.144010 1.803402 
-0.457500 0.104937 1.218343 
0.457500 -0.149174 1.031463 
-0.052887 -0.032242 1.363020 
-0.005785 0.044292 0.853020 
0.384852 0.062664 1.363020 
-0.380785 -0.071674 1.827523 
0.221005 -0.144010 1.819420 
-0.062593 -0.144010 1.607854 
0.457500 -0.147226 0.074823 
-0.453500 0.083017 1.208618 
0.449854 -0.144010 0.952684 
-0.263369 0.155382 1.826062 
0.101667 -0.063112 0.076217 
0.188809 0.143381 0.011629 
0.453500 0.141424 1.770733 
0.054611 -0.015821 0.853020 
0.103207 0.084647 1.583022 
-0.298920 -0.144010 1.402843 
0.237885 -0.144010 1.655876 
0.453500 -0.051925 1.107693 
0.301564 -0.144010 1.073475 
0.286679 -0.144010 0.851638 
0.443591 0.143382 1.725512 
0.028443 -0.144010 0.567772 
-0.427709 -0.140057 0.076217 
-0.351617 -0.144010 0.743728 
0.457500 -0.083794 1.795455 
-0.148970 -0.144010 1.029543 
-0.453500 -0.029802 0.582735 
0.022152 -0.120397 0.000021 
0.457500 -0.040652 1.666609 
-0.409053 -0.091495 1.368025 
-0.441873 -0.144010 0.813801 
0.457500 -0.128617 0.685768 
0.325950 0.091254 0.076217 
-0.457500 -0.020663 0.742177 
0.411429 0.124286 0.853020 
-0.325686 -0.026461 1.583022 
-0.420823 -0.144010 1.522903 
0.453500 -0.116474 0.326243 
-0.334796 -0.144010 1.464819 
0.031313 0.055711 1.363020 
0.223140 -0.092023 0.873022 
-0.431500 0.146619 1.764006 
0.367024 -0.144010 1.816447 
0.367279 -0.125828 1.139020 
-0.219074 -0.050137 0.000021 
0.263128 0.000543 1.139020 
0.453500 -0.071243 1.022898 
-0.457500 0.018355 0.755027 
-0.072581 -0.056483 1.363020 
-0.408274 -0.144010 1.827180 
0.457500 0.117337 0.676839 
0.412440 -0.144010 1.402744 
-0.187754 0.143382 1.820903 
0.029859 -0.144010 1.492682 
0.067494 0.023370 1.583022 
0.322885 -0.048565 1.827523 
-0.307495 0.087435 0.076217 
0.124923 -0.129931 0.853020 
-0.457500 -0.056982 0.451066 
-0.081460 -0.144010 0.586782 
-0.454396 -0.016106 0.000021 
0.096300 -0.144010 1.017884 
-0.008512 0.066258 1.827523 
-0.014463 -0.114356 1.588027 
0.316212 0.120543 1.827523 
-0.302609 -0.132154 1.368025 
0.457500 -0.048655 0.134029 
0.453500 0.069620 1.460684 
-0.453500 0.036532 0.218825 
-0.128798 -0.144010 1.291833 
0.091634 -0.144011 0.141520 
-0.453500 0.078120 0.526589 
-0.347987 -0.060970 1.368025 
-0.202746 -0.144010 1.378091 
0.034518 -0.144010 1.056779 
0.298071 0.015152 1.139020 
0.288085 0.078485 0.076217 
-0.453500 0.039804 1.353802 
0.453500 0.018324 0.999716 
-0.128455 -0.035413 1.827523 
0.405325 0.101160 0.873022 
0.100241 0.030589 1.139020 
-0.301502 -0.110452 1.139020 
-0.457500 0.051933 1.131512 
-0.012398 0.143482 1.125800 
0.217486 -0.108180 0.076217 
-0.453500 0.011191 0.532104 
0.169292 -0.144011 0.244164 
-0.457500 -0.037808 0.063675 
-0.269427 -0.144010 0.622864 
0.457500 -0.092594 1.688476 
0.088213 0.021270 1.134021 
-0.046317 0.044857 1.827523 
0.342368 0.143482 1.568930 
0.451385 0.155382 1.734867 
-0.457500 0.141183 0.269629 
0.392219 -0.087078 1.139020 
0.457500 -0.144312 0.014483 
0.159964 0.142792 1.598024 
0.457500 -0.053876 1.359676 
0.457500 0.109169 0.575036 
-0.247350 0.119375 1.139020 
0.412674 -0.030924 0.873022 
-0.457500 0.030972 1.411596 
-0.400569 -0.073881 1.827523 
-0.264538 -0.144010 1.003442 
0.402036 0.057759 0.853020 
-0.457500 0.141587 1.504538 
-0.336382 0.117122 0.853020 
-0.041484 0.143482 1.591461 
-0.436251 0.143381 0.478156 
-0.340061 -0.027606 0.853020 
-0.457500 -0.064437 0.974284 
0.057923 -0.142363 1.583022 
-0.453499 -0.043264 1.143883 
-0.453500 -0.016055 1.225106 
-0.388728 -0.043769 1.583022 
-0.453499 -0.095170 0.804582 
0.394374 -0.044929 1.831020 
0.304833 -0.054003 1.139020 
-0.453500 0.122944 1.500944 
0.324561 -0.074599 1.368025 
-0.211737 -0.132266 0.873022 
-0.457500 0.037533 1.763547 
0.375126 0.130588 1.139020 
-0.262293 -0.144010 1.227693 
0.270745 -0.144010 1.377463 
-0.348968 -0.124552 1.588027 
-0.341194 -0.144010 0.919730 
0.359083 -0.144010 0.883742 
0.203408 -0.027029 1.134021 
-0.122877 -0.144010 0.798644 
0.429576 -0.067111 0.853020 
0.170688 -0.089208 1.583022 
0.128722 -0.030073 0.853020 
-0.002541 -0.144011 0.420694 
0.111561 -0.024181 0.873022 
0.453500 0.065849 0.878350 
0.213309 0.125612 0.076217 
0.124172 -0.082089 1.588027 
0.148783 0.123748 0.853020 
-0.201878 -0.144010 1.589748 
-0.431500 0.149462 1.615084 
-0.131772 -0.144010 1.711195 
0.295363 -0.102793 1.583022 
-0.329594 0.081520 0.000021 
-0.420661 0.089376 1.583022 
0.117945 0.018461 0.853020 
0.260639 -0.144010 0.493276 
-0.360731 0.094191 1.134021 
-0.223368 -0.142527 1.827523 
0.088624 -0.144011 0.329056 
0.309212 -0.046421 1.368025 
-0.052599 -0.144010 1.355046 
-0.453499 -0.064403 1.553187 
0.178864 -0.144010 1.478387 
-0.410511 -0.144011 0.394911 
0.457500 0.056593 0.365815 
0.457500 0.145046 0.229338 
-0.457500 0.069767 0.614730 
-0.369114 -0.144010 0.993125 
0.457500 0.059390 0.382639 
-0.457500 -0.142791 0.077317 
0.457500 0.142247 1.766057 
-0.216033 0.017538 0.076217 
-0.235848 -0.030109 0.076217 
-0.238056 0.033452 1.139020 
-0.118899 0.029239 1.583022 
-0.454464 0.155382 0.897780 
-0.139233 -0.144011 0.114869 
-0.457500 0.027104 1.675253 
0.431500 0.154612 0.376276 
0.457500 0.101298 0.910436 
0.457500 -0.137677 1.205020 
-0.162645 -0.144010 0.675073 
-0.070354 0.046174 1.139020 
-0.289941 -0.144010 0.797599 
0.249412 0.066223 0.000021 
0.147984 -0.083653 1.831021 
-0.269751 0.004770 1.368025 
-0.380366 -0.059421 1.827523 
-0.384308 0.087044 1.588027 
0.125837 -0.112796 0.076217 
-0.457500 0.026807 0.314593 
-0.457500 0.021465 0.651560 
0.018856 -0.144010 0.673151 
0.450468 -0.144010 1.809839 
-0.029694 -0.144010 1.665609 
0.453500 -0.004938 0.229736 
0.320220 -0.144010 1.251982 
-0.146345 -0.132124 1.588027 
0.200965 -0.144011 0.145954 
0.457500 -0.138728 1.815918 
-0.423933 0.018808 0.000021 
-0.457500 -0.093237 0.930713 
0.184045 -0.144011 0.334331 
0.299418 -0.144011 0.077038 
-0.457500 -0.042394 1.089813 
0.457500 -0.040502 0.839346 
-0.192935 -0.002893 1.363020 
0.186555 -0.111402 1.139020 
-0.033222 -0.136498 0.076217 
-0.431500 0.151400 0.546853 
0.097385 -0.028285 1.827523 
-0.242405 -0.144011 0.370925 
-0.092953 0.030650 0.000021 
-0.453500 0.129678 0.144655 
-0.285995 -0.144011 0.263550 
0.196062 -0.144010 1.063212 
0.064188 -0.144010 1.439163 
0.457500 -0.056749 0.668257 
-0.279929 -0.060707 1.363020 
0.190923 0.023421 0.873022 
-0.374320 -0.138927 0.853020 
0.447082 0.143382 0.955529 
0.213438 0.140983 1.375380 
0.383388 -0.044323 0.076217 
-0.453499 -0.014856 1.621460 
0.453500 0.092616 0.151184 
0.453500 -0.048033 1.462455 
-0.453500 -0.109498 1.561006 
-0.457500 0.102291 0.313714 
-0.124791 0.068395 1.827523 
0.278276 0.085950 0.076217 
0.139530 -0.144010 1.745553 
-0.258233 0.036289 0.076217 
-0.124279 0.140983 1.369076 
-0.119714 -0.144010 1.748176 
0.160680 -0.144010 1.326771 
-0.090387 -0.106546 1.368025 
0.163252 -0.144010 1.737734 
0.435290 -0.144010 1.026466 
0.322662 -0.144010 0.441833 
0.453500 0.099004 0.914490 
0.457500 0.017939 1.489843 
-0.410426 0.099513 1.134021 
0.069600 0.090016 1.368024 
-0.453500 0.091738 1.722720 
0.439346 0.139953 1.827523 
-0.220461 0.106745 1.134021 
-0.117477 -0.144010 0.785472 
0.088752 -0.114359 1.139020 
-0.303616 -0.144010 0.598661 
-0.453500 0.096827 0.533296 
-0.278120 0.143482 0.863384 
-0.060861 0.017870 1.134021 
-0.310387 -0.018226 1.363020 
0.386390 -0.144010 0.809979 
-0.138724 -0.144010 0.545918 
-0.287117 -0.144010 1.202612 
-0.071831 0.143381 0.000451 
-0.457500 -0.044776 0.063681 
0.078970 -0.007621 1.827523 
0.457500 0.022145 1.535142 
0.199481 0.042039 1.588027 
0.457500 -0.009026 0.684945 
0.063068 0.004684 0.853020 
0.402732 0.007811 1.363020 
0.426928 0.102461 1.363020 
-0.229353 0.011645 1.583022 
-0.070763 0.015371 1.827523 
-0.457500 0.005273 0.927558 
0.351714 -0.144011 0.141176 
0.457500 -0.024082 0.019210 
-0.041445 -0.144010 1.616177 
0.180292 -0.027769 0.000021 
0.167183 -0.075305 1.583022 
0.457500 0.083276 0.575288 
0.453500 0.045198 1.644068 
-0.453500 0.126307 0.785495 
0.453500 -0.131991 1.475157 
0.120751 -0.120218 0.000021 
0.225131 0.039465 1.363020 
-0.352285 -0.144010 1.661953 
0.437436 0.155382 1.691823 
0.457500 0.138881 1.014959 
0.457500 -0.043529 1.082482 
-0.225612 -0.144011 0.310559 
-0.400458 -0.109886 0.076217 
-0.457500 0.106539 0.550114 
0.175288 -0.144010 0.537504 
-0.249907 0.025488 1.588027 
0.299297 0.018920 0.076217 
0.457500 0.090682 1.776894 
0.457500 -0.124213 1.495568 
-0.070410 -0.144010 1.115960 
0.457500 0.079364 1.241829 
-0.453500 0.051238 1.249060 
0.407767 0.094242 1.583021 
-0.431685 -0.144010 1.780208 
0.414454 -0.017049 0.873022 
-0.295596 0.090882 1.588026 
-0.309090 0.118565 0.076217 
-0.042587 -0.144010 0.758494 
-0.431500 0.129324 1.134052 
-0.457500 -0.072069 0.021650 
-0.453499 -0.094913 1.542880 
0.149393 -0.144010 0.496094 
-0.050375 -0.144010 1.538684 
-0.364648 -0.048338 1.368025 
-0.269199 -0.141592 0.873022 
0.331400 -0.144011 0.141852 
-0.457500 -0.048955 1.658341 
0.033219 -0.065465 1.588027 
-0.101867 -0.035462 1.363020 
0.150595 -0.088194 1.588027 
-0.457500 -0.008379 1.388240 
0.452547 0.155382 0.921414 
-0.171975 -0.144010 1.209031 
-0.113804 -0.100849 1.588027 
-0.431500 0.152102 0.155276 
-0.431500 0.147185 1.105696 
0.276424 -0.144011 0.093344 
0.226975 -0.144010 1.535671 
0.287322 -0.144010 1.180665 
0.004794 -0.144011 0.085406 
-0.052208 0.047600 1.831021 
-0.036189 -0.144010 1.501723 
0.457500 -0.147413 0.000144 
-0.457500 -0.034449 0.780224 
-0.055165 0.089084 1.139020 
-0.215724 0.104250 1.368024 
-0.232337 -0.144010 1.306508 
-0.421523 0.053847 0.000021 
0.169310 0.143482 0.853798 
0.115135 -0.121978 0.076217 
0.294627 -0.015852 0.000021 
-0.283021 0.143482 0.879002 
0.084765 0.042476 1.831021 
-0.402490 -0.125805 1.139020 
0.354354 -0.068843 1.134021 
0.455515 0.155382 1.082117 
-0.457500 -0.012855 1.632777 
-0.316247 -0.118764 1.368025 
-0.453500 -0.000571 1.054134 
-0.453499 -0.015665 1.366251 
0.329498 0.109198 1.134021 
-0.453500 0.071219 0.919074 
-0.453499 -0.136220 1.221377 
0.453500 -0.090422 1.534767 
-0.453500 0.033997 1.633965 
-0.457500 0.112465 1.272752 
0.332190 0.143482 1.138380 
-0.037228 -0.107767 1.363020 
0.275252 -0.017409 0.076217 
0.103421 -0.144010 1.325612 
-0.431500 0.041805 0.870519 
0.031315 0.147169 1.831020 
-0.457500 0.003731 0.168129 
0.313174 0.087072 0.076217 
-0.300225 -0.144010 0.834692 
0.457500 0.132684 1.578880 
0.457500 0.003500 1.201148 
-0.127811 -0.144011 0.378121 
-0.453499 -0.082933 0.212726 
-0.027308 -0.069210 1.583022 
0.453500 0.089011 1.731249 
-0.340826 -0.021847 0.076217 
0.447658 0.155382 1.760987 
-0.403331 -0.144010 1.783905 
0.377613 -0.059967 1.139020 
0.453500 -0.078487 1.593095 
-0.104981 -0.144011 0.123246 
0.189947 0.056253 0.076217 
0.258687 0.115047 0.853020 
0.445913 0.143382 1.762816 
-0.457500 -0.149446 0.637627 
0.427129 -0.144010 1.210472 
0.453500 0.005663 0.194195 
-0.230711 0.042266 1.588027 
0.074871 -0.127712 0.076217 
0.453500 0.091659 1.007667 
-0.375664 0.088916 1.134021 
-0.402893 -0.144010 1.243190 
0.190784 0.053433 0.000021 
-0.369335 -0.127566 1.139020 
-0.070742 0.012370 0.873022 
0.453500 -0.111013 0.547014 
0.232727 -0.144010 1.057287 
-0.050171 -0.090914 1.827523 
0.070686 0.073040 1.831020 
0.328436 -0.144010 1.573352 
0.168067 0.050409 0.000021 
0.183434 0.043815 1.139020 
-0.383287 -0.144010 0.839752 
0.390544 0.105520 1.368024 
0.145767 0.089789 1.827523 
-0.396751 -0.144010 0.667851 
0.167817 -0.017132 0.853020 
-0.277642 -0.144010 0.608570 
-0.453499 -0.129749 1.816816 
-0.011047 -0.144010 0.729999 
0.457500 0.103125 0.439509 
0.442785 -0.144010 0.885694 
-0.265720 -0.038852 1.827523 
-0.436753 -0.144010 0.839295 
0.213287 0.082333 0.076217 
-0.271637 0.083618 1.588026 
-0.164694 -0.127747 1.827523 
-0.315724 -0.137986 1.368025 
-0.457500 0.075340 1.746663 
0.209649 -0.035379 0.873022 
-0.217389 -0.144010 1.778504 
-0.269288 -0.112819 1.368025 
0.130584 -0.144010 1.362230 
0.136935 0.100782 1.827523 
0.316153 -0.080261 1.363020 
-0.431500 0.101750 0.863418 
0.001244 -0.125510 1.583022 
0.355330 0.009531 1.368025 
0.126971 0.009446 1.583022 
-0.091984 -0.144010 0.899390 
-0.457500 -0.016748 0.513540 
0.270527 0.049132 0.873022 
0.457500 0.092589 0.810542 
0.450816 -0.144010 1.452451 
-0.341891 -0.144010 1.013569 
0.392546 0.017308 1.134021 
0.196081 -0.133688 1.368025 
0.417604 -0.144010 1.446755 
-0.220124 -0.144010 1.082485 
0.280608 -0.079407 1.827523 
0.292605 -0.144010 1.234961 
0.457500 0.151092 1.025033 
-0.357743 0.141673 1.827523 
0.270875 0.130604 1.831020 
-0.392364 0.132070 1.583022 
-0.209765 0.007807 0.076217 
0.453500 0.059087 1.363620 
-0.098910 0.068481 1.368025 
0.332290 -0.125101 1.134021 
-0.457500 -0.144873 0.838580 
-0.424023 -0.125423 1.588027 
-0.457500 -0.055999 0.770768 
-0.173603 -0.007045 1.368025 
0.351769 0.127839 1.831020 
-0.457500 -0.149166 1.305235 
-0.244592 -0.144011 0.226645 
0.169057 0.082196 1.827523 
-0.453499 -0.015242 0.186445 
-0.457500 0.050867 1.807229 
-0.457500 0.009004 1.162967 
-0.134754 -0.144010 1.054586 
0.325830 -0.005771 0.076217 
0.149525 -0.044660 0.000021 
-0.457500 0.111590 0.351651 
0.168823 -0.144010 1.577116 
0.451473 -0.144010 0.487495 
0.424895 -0.144010 1.179127 
0.283017 -0.144010 0.654876 
-0.046651 -0.084754 1.827523 
0.160231 -0.135407 1.363020 
0.065689 0.116147 1.134021 
0.453500 0.117153 0.212789 
0.029646 -0.144010 1.688009 
0.249365 -0.049471 0.076217 
0.426502 0.130058 1.827523 
0.457500 -0.044436 0.635414 
-0.038081 0.096330 1.139020 
-0.413389 -0.144011 0.188566 
0.269189 0.063548 1.831020 
-0.453500 -0.050447 1.304946 
-0.067993 0.000368 0.873022 
0.396655 -0.073350 1.363020 
0.204232 -0.144011 0.193246 
-0.009384 0.082474 0.873022 
0.079350 -0.089662 0.873022 
0.457500 -0.068743 1.393341 
-0.453500 0.010997 0.723612 
-0.097733 0.049644 1.134021 
-0.400123 0.003428 1.583022 
-0.453500 0.006155 0.407506 
-0.422888 0.050178 0.873022 
-0.145885 0.061340 1.831021 
-0.323040 -0.011311 1.588027 
0.389238 -0.144010 1.523009 
0.383765 -0.045392 1.583022 
0.116345 -0.144010 1.635146 
-0.457500 0.040388 0.386049 
-0.376282 -0.063033 0.853020 
-0.457500 0.024626 1.278424 
-0.017210 -0.144010 1.504698 
-0.457500 -0.126236 0.389834 
-0.040770 0.143382 1.812803 
-0.062968 0.143482 1.374765 
0.423923 -0.105406 0.873022 
-0.453500 0.019489 0.871637 
0.036067 -0.144010 0.794780 
0.285155 0.155382 1.820842 
0.425011 -0.144010 0.850724 
0.188651 0.002790 1.588027 
-0.454700 0.056453 0.000021 
0.422046 0.143482 1.365894 
-0.344807 0.133482 1.572649 
0.457500 -0.103551 0.963494 
-0.457500 0.103368 0.435926 
-0.133762 0.088074 1.134021 
0.453500 0.126893 0.228314 
0.453500 -0.078656 0.676139 
-0.103852 0.124133 1.827523 
0.293383 -0.018755 1.368025 
0.364095 -0.042067 1.139020 
-0.128553 -0.108920 0.873022 
-0.453500 -0.023516 1.507772 
0.457500 0.039996 0.079893 
-0.453500 0.009598 1.695646 
0.457500 -0.147108 0.538511 
-0.453499 -0.129080 0.431997 
0.453500 0.004308 0.689584 
0.037212 0.058062 0.076217 
0.108454 -0.060800 1.134021 
-0.058129 -0.130212 1.363020 
-0.453500 -0.017592 0.942338 
-0.201636 -0.037958 1.368025 
0.180441 0.100084 0.853020 
0.439583 0.143382 0.585495 
-0.357732 0.107504 0.076217 
0.084030 0.111226 1.368024 
-0.350706 -0.107905 1.831020 
0.170894 0.098827 1.139020 
0.086422 -0.061353 1.583022 
0.282126 0.069737 1.134021 
0.453500 -0.014444 0.844577 
-0.453499 -0.057713 1.123532 
-0.453500 0.061552 1.046885 
0.453500 -0.129224 1.773266 
0.122852 -0.104141 1.583022 
-0.383393 0.144338 1.831020 
0.043549 -0.001747 0.853020 
-0.383708 -0.144010 1.811000 
-0.385017 -0.054209 1.139020 
0.457500 0.081865 0.136979 
0.146452 -0.144010 0.785938 
0.265360 0.001417 0.873022 
-0.457500 0.047427 1.416946 
0.390891 -0.144011 0.228938 
0.154173 -0.012021 0.853020 
0.074875 -0.111718 1.827523 
0.125886 0.010265 0.076217 
0.282876 -0.144010 0.967467 
-0.453500 0.016535 1.414636 
-0.451867 0.155382 1.704703 
-0.456998 0.155381 0.040218 
0.231311 -0.127162 1.827523 
0.062943 -0.144011 0.117036 
-0.393435 -0.151611 0.000021 
0.162608 -0.144011 0.108309 
0.394018 0.114114 1.368024 
-0.135639 0.023446 1.583022 
0.091807 -0.122114 0.076217 
-0.047130 -0.144010 0.635496 
-0.075790 -0.144010 1.721939 
0.453500 -0.044535 0.856327 
0.453500 0.019731 1.437987 
0.391741 -0.144010 1.199203 
-0.457500 0.053150 0.953594 
-0.457500 -0.085000 1.363459 
-0.145455 0.033511 1.368025 
-0.028914 0.059863 1.363020 
-0.359229 -0.144011 0.478548 
-0.059538 0.130451 0.873022 
0.312802 -0.144010 1.308423 
-0.205092 -0.097902 1.588027 
0.140408 -0.144010 0.925361 
-0.350919 -0.144010 0.750980 
0.367813 -0.144010 1.448739 
-0.061929 -0.080058 0.000021 
0.298203 -0.144010 1.276722 
-0.453500 -0.052947 0.753172 
0.151342 -0.144011 0.347819 
0.452706 -0.144010 0.479985 
-0.368241 -0.027551 0.873022 
-0.075581 0.112583 1.363020 
0.147903 -0.129324 1.134021 
-0.457500 0.041098 1.127871 
0.009186 -0.026781 1.583022 
-0.453500 0.004575 1.624047 
-0.457500 -0.096559 1.505529 
-0.088256 0.030542 1.827523 
-0.453499 -0.022498 1.528868 
-0.022569 0.071586 1.134021 
0.229821 0.143482 1.366390 
-0.340225 -0.144010 0.626152 
0.124693 -0.058294 1.363020 
0.225513 -0.044822 0.076217 
-0.447367 0.155381 0.083921 
-0.235286 -0.069075 1.827523 
0.374327 0.133482 1.361424 
0.246263 0.022306 0.853020 
0.350941 -0.144011 0.112325 
-0.311557 0.028324 1.588027 
-0.105138 -0.144011 0.129638 
-0.138513 -0.144010 1.796154 
-0.453499 -0.135732 1.134766 
-0.200675 0.093211 1.139020 
-0.349723 -0.144011 0.407674 
0.234831 -0.075080 1.588027 
-0.392776 -0.144010 1.630575 
-0.319826 -0.144010 1.189465 
0.453500 0.125367 1.371107 
0.240286 -0.144010 0.498835 
0.453500 -0.130151 0.680103 
-0.257150 -0.068374 0.076217 
-0.276246 -0.058931 1.583022 
-0.453499 -0.044276 1.243073 
-0.188801 -0.144010 1.720861 
0.092642 -0.144010 1.619477 
0.001889 -0.144010 0.753947 
-0.243509 -0.144010 1.778294 
-0.016443 -0.038110 1.827523 
-0.457500 0.010614 0.166386 
0.348287 -0.121247 1.588027 
-0.406795 -0.144010 1.474885 
-0.371892 0.057126 1.139020 
0.420689 0.143482 1.582365 
-0.386424 -0.144011 0.125751 
0.188250 -0.144010 1.614917 
0.046262 -0.064678 0.853020 
0.453500 -0.041756 0.338189 
0.306942 -0.057559 1.363020 
-0.384462 -0.144010 1.346332 
0.054748 -0.039215 0.873022 
0.453500 0.057629 1.056351 
-0.453499 0.007906 0.592873 
0.173085 -0.144010 0.501586 
-0.453500 -0.013572 1.703348 
-0.453500 0.047467 0.762919 
0.167864 -0.144010 1.156421 
-0.311087 -0.144010 0.986901 
-0.457500 0.036626 1.206907 
-0.194037 -0.144010 1.538636 
-0.389205 -0.144010 1.559399 
-0.049520 -0.144010 0.932285 
0.453500 0.005986 0.586228 
0.457500 0.127485 0.098686 
-0.040285 0.023583 1.583022 
0.066981 0.045291 0.076217 
-0.445033 0.143382 1.351806 
0.440504 0.143382 0.848469 
0.453500 -0.108339 1.651889 
0.166950 0.039116 1.588027 
0.457500 0.010800 0.621520 
-0.279075 -0.050082 1.368025 
0.311804 0.143482 1.120479 
-0.156010 -0.150898 0.000021 
-0.362690 -0.116619 1.588027 
-0.457500 -0.068010 0.580355 
0.110846 0.035707 1.588027 
0.270514 0.088047 0.853020 
-0.114122 0.018015 0.000021 
-0.453499 -0.071514 0.336118 
-0.391399 0.012400 1.134021 
-0.123099 -0.103875 1.134021 
-0.131940 0.077331 0.873022 
-0.277679 0.118410 0.853020 
0.044422 -0.023468 1.363020 
-0.161428 -0.131613 0.853020 
0.062397 -0.144010 0.672326 
0.251821 -0.091082 0.873022 
0.457500 -0.124582 1.117607 
-0.457500 -0.091917 0.165002 
0.453500 0.039704 1.669600 
0.330478 0.100283 1.827523 
0.117778 -0.144010 0.937374 
-0.243695 -0.113532 1.134021 
0.193435 -0.144010 0.507841 
-0.453500 0.134986 1.395620 
0.054206 -0.131417 1.827523 
0.431500 0.092372 1.135170 
0.276019 0.023139 0.076217 
-0.453499 -0.079784 1.797969 
0.457500 0.076503 1.691916 
0.000760 0.009885 0.000021 
0.309591 0.054925 0.076217 
0.457500 0.025960 0.579405 
0.324795 0.033417 1.134021 
0.457500 0.068923 1.255271 
-0.453500 -0.059247 0.671873 
0.340123 -0.151573 1.831021 
-0.402908 0.022145 1.139020 
0.372874 0.055519 0.000021 
-0.110310 0.134798 1.831020 
-0.391309 0.139379 0.853020 
0.187020 -0.144010 1.027972 
0.453500 0.128146 0.637599 
0.457500 -0.006473 0.586846 
0.457500 -0.030060 0.299420 
-0.139064 -0.138288 1.363020 
-0.094237 0.143382 1.814227 
0.457500 -0.023947 1.064686 
0.288250 -0.144010 0.507894 
0.453500 0.015182 0.545034 
-0.256449 -0.144010 1.227781 
0.109052 -0.144010 1.050070 
0.081099 -0.144010 1.669375 
0.319669 -0.016662 1.827523 
0.013114 -0.144010 1.000657 
0.200095 0.135556 1.568019 
0.243826 0.039439 0.853020 
-0.457500 -0.041090 1.610695 
0.453500 0.124166 1.820342 
0.203271 0.054467 1.363020 
-0.293869 -0.144010 1.204569 
-0.454527 0.018352 1.831020 
0.457500 -0.146406 0.576599 
0.139560 0.092052 0.000021 
0.163601 -0.144010 1.054439 
-0.453499 -0.069523 1.743095 
0.366688 -0.144010 0.742433 
-0.112355 0.041371 0.853020 
-0.022009 0.010595 1.831020 
0.278848 -0.144010 1.066582 
0.457500 -0.148564 1.536671 
0.134777 -0.024111 0.873022 
-0.332512 0.021921 1.139020 
0.105427 0.154585 1.831021 
0.069110 0.062781 1.363020 
-0.453499 0.035397 1.035670 
0.431500 0.144514 0.334930 
-0.087416 -0.091642 1.831021 
-0.385845 0.041945 1.588026 
0.106545 0.103035 1.363020 
-0.453500 -0.060929 0.105956 
0.253219 -0.011975 0.000021 
-0.448440 0.143382 1.645232 
0.104078 -0.140396 0.000021 
0.453500 -0.121547 1.183680 
-0.277277 0.067179 1.831021 
0.274808 0.001315 0.076217 
0.371916 -0.030123 1.363020 
-0.349840 -0.065415 1.831020 
0.435703 0.143382 1.498291 
-0.387857 0.120210 1.583022 
-0.457500 -0.033559 0.868921 
-0.405387 -0.015388 1.831021 
-0.364888 0.143482 0.865726 
-0.192053 0.083451 1.827523 
-0.171811 0.128521 1.583022 
0.440610 0.143382 0.465165 
-0.024490 -0.029273 1.368024 
0.023952 -0.040628 1.363020 
0.457500 -0.030581 1.507666 
-0.235794 0.014256 1.827523 
0.437225 -0.144011 0.194654 
-0.445843 -0.144010 1.330442 
-0.318278 0.049381 0.873022 
-0.164424 -0.144010 1.028910 
0.453500 -0.071340 0.559894 
-0.141838 -0.144010 1.032571 
-0.257458 0.037742 0.000021 
0.356199 0.143482 1.575345 
-0.171662 -0.073722 1.588027 
0.219532 -0.144010 0.792900 
0.453500 0.024172 0.286708 
-0.126200 0.087910 1.363020 
0.313932 -0.043184 0.076217 
0.144634 -0.144010 0.542456 
-0.457500 -0.005627 1.154253 
0.453500 -0.109430 1.728007 
-0.185147 -0.010906 1.134021 
0.101610 -0.099154 1.139020 
0.449863 -0.144010 0.933615 
-0.389276 -0.126663 1.363020 
0.267566 0.037479 1.827523 
-0.123667 -0.126459 0.853020 
-0.436216 0.155381 0.578685 
0.344095 -0.062162 1.588027 
-0.453500 0.010101 0.172416 
0.419672 0.101908 1.139020 
0.370592 -0.144010 1.184744 
0.457500 0.090393 1.302227 
0.067667 0.143482 1.129186 
0.298995 -0.144010 0.404153 
0.457500 0.056720 1.044075 
-0.195116 -0.144011 0.364709 
-0.342645 -0.135302 1.368025 
-0.431500 0.144016 0.804349 
-0.457500 0.005115 0.812096 
0.359642 -0.058047 1.583022 
0.423636 0.123890 0.076217 
0.045448 -0.023538 0.076217 
0.014866 -0.139069 1.134021 
-0.434281 0.155382 1.579752 
-0.397359 -0.144010 0.583001 
0.457500 0.021025 1.632440 
-0.084293 -0.144011 0.138848 
-0.453499 -0.011402 1.637285 
0.453500 -0.082498 0.442364 
-0.236652 -0.144010 1.139990 
0.453500 -0.031856 1.650773 
0.453500 -0.002442 0.951596 
-0.376093 -0.027968 1.368025 
-0.453500 0.128874 0.751498 
-0.010350 -0.144010 0.884756 
0.453500 0.114023 1.479176 
-0.319600 -0.144010 0.654040 
-0.183798 0.077416 1.831021 
-0.453500 0.116112 0.774103 
0.359819 0.114768 0.076217 
0.372804 -0.000014 1.139020 
0.212567 0.123080 0.853020 
0.342680 0.006393 1.368025 
0.218196 -0.042051 1.831021 
0.457500 -0.109802 1.797641 
0.457500 -0.123211 0.487942 
-0.314853 -0.149695 0.000021 
0.143156 -0.018280 1.583022 
-0.439093 -0.144010 0.571225 
0.201322 -0.144011 0.224604 
0.453500 0.116871 1.128326 
0.431188 0.136715 0.853020 
0.457500 0.135701 0.688229 
-0.349889 -0.144010 0.551308 
0.326842 -0.072878 1.363020 
-0.102158 -0.061670 0.853020 
0.407750 -0.135009 1.827523 
-0.371082 0.105563 0.000021 
-0.285903 0.096819 1.134021 
-0.352322 0.108553 1.363020 
-0.346818 0.063744 0.000021 
-0.236304 -0.051862 0.853020 
-0.453500 0.085979 0.717518 
0.097705 -0.076418 1.368025 
-0.199685 -0.074575 1.363020 
0.322395 0.000703 0.853020 
-0.412733 -0.144010 1.171348 
0.213639 -0.133877 0.853020 
-0.168115 -0.059254 0.873022 
-0.335869 0.102743 1.831020 
-0.457500 0.031747 0.062035 
0.172962 -0.142731 0.000021 
0.453500 -0.100094 0.441376 
0.453500 0.114007 0.244141 
0.191075 -0.075214 1.827523 
-0.453499 -0.014256 1.721972 
-0.149757 -0.131889 1.827523 
-0.457500 -0.030313 1.246776 
-0.411438 0.073207 1.583022 
0.248217 -0.053392 1.827523 
0.453500 -0.045273 0.752526 
-0.253455 -0.041260 1.831021 
0.214893 -0.144010 0.815854 
0.133539 0.054825 0.873022 
-0.144886 0.133482 1.133908 
0.167748 0.121737 1.827523 
-0.295573 -0.024457 1.363020 
0.429779 -0.144010 1.782396 
-0.457500 -0.120113 1.757586 
-0.141477 -0.009648 1.134021 
-0.457500 -0.019703 0.548416 
-0.453500 0.084857 0.967384 
0.453500 -0.124418 0.941696 
0.430551 -0.144011 0.293699 
-0.453500 -0.002047 0.680196 
-0.047092 -0.135917 1.583022 
0.386546 0.105491 1.363020 
0.015139 -0.025107 1.134021 
0.457500 -0.136833 1.038507 
-0.395806 -0.144010 0.888866 
-0.042561 -0.122835 1.139020 
0.453500 -0.103755 1.784765 
-0.015060 -0.071548 0.076217 
0.058224 -0.041248 1.827523 
-0.133987 -0.101678 1.139020 
-0.064518 0.155382 1.805333 
0.253987 0.133286 1.363020 
0.453500 -0.033602 0.120583 
-0.044366 -0.026447 1.134021 
-0.258097 -0.144010 1.716152 
0.411256 -0.144010 1.223833 
-0.457500 -0.093817 0.735826 
-0.357562 0.102241 1.583022 
-0.112718 -0.072811 0.076217 
-0.277434 -0.144010 1.122234 
-0.162506 -0.123686 0.000021 
-0.116561 -0.144010 0.722427 
0.330935 0.053548 0.000021 
0.453500 0.035920 0.883142 
0.165264 -0.085357 0.853020 
0.457500 -0.086934 0.885439 
0.217935 0.084060 1.831021 
-0.457500 0.143989 1.385466 
-0.051377 0.133323 1.134021 
-0.424384 -0.070786 0.873022 
-0.233976 0.122657 1.831020 
0.010419 0.001874 1.827523 
-0.457500 0.103680 0.401572 
-0.453500 0.097715 1.536300 
-0.172643 0.143381 0.009946 
0.086597 -0.097133 0.873022 
0.351980 -0.144010 0.769333 
-0.435548 0.143382 1.452836 
-0.431500 0.150330 0.384163 
-0.369173 0.064436 0.000021 
0.457500 0.126462 0.911066 
0.024857 -0.048035 1.827523 
-0.291012 0.035950 1.368025 
-0.457500 -0.027312 1.030722 
0.248160 0.143482 1.568464 
-0.152146 -0.115993 1.368025 
-0.457500 -0.141524 0.450593 
0.282090 -0.135185 1.134021 
0.407867 -0.020282 0.873022 
-0.323317 -0.121617 1.583022 
-0.174911 -0.122203 0.000021 
-0.115375 0.014946 1.827523 
-0.370223 -0.080859 0.853020 
0.173131 0.060577 1.368024 
-0.457500 -0.112171 1.548716 
0.408499 -0.144010 1.462041 
0.192806 -0.009438 0.873022 
-0.453500 0.069467 1.653697 
-0.225392 -0.144011 0.086134 
-0.370621 -0.144010 0.677827 
-0.448513 -0.144010 1.552494 
0.457500 -0.083573 1.740422 
0.453500 -0.118146 0.553694 
0.033542 0.004669 0.853020 
-0.269697 -0.009816 0.853020 
0.412860 -0.008005 0.853020 
0.453500 -0.053622 0.973369 
-0.114948 -0.144010 1.437365 
-0.431500 0.148859 1.178388 
-0.326704 0.123880 1.134021 
0.457500 0.094261 0.561035 
-0.052997 -0.108968 1.134021 
0.044013 -0.144011 0.240506 
-0.457500 0.135595 1.386884 
0.457500 -0.018259 0.343824 
0.004750 -0.035136 0.076217 
-0.184216 0.056180 1.831021 
-0.313492 0.005305 0.853020 
-0.290973 -0.139568 0.000021 
-0.161988 -0.144010 1.158383 
0.453500 -0.071189 0.341006 
-0.042144 -0.144011 0.311861 
0.198130 -0.144010 0.622775 
-0.441316 -0.144010 1.399162 
-0.321608 -0.144010 1.156083 
-0.361920 0.133057 1.827523 
-0.397996 -0.058012 1.134021 
0.260773 -0.144010 1.198067 
-0.394878 0.152390 1.831021 
0.352295 0.097916 1.831020 
0.453500 0.097108 1.079523 
0.402635 -0.075752 1.831021 
-0.359250 -0.144010 1.816373 
0.453500 0.044346 0.944635 
0.290094 -0.144010 0.447598 
0.277907 -0.142615 0.853020 
-0.155933 0.118620 0.000021 
0.447129 0.134687 1.827523 
0.453500 0.114489 0.194329 
-0.301517 0.071101 1.583022 
0.453500 -0.118642 0.473054 
-0.453500 0.011219 1.725823 
-0.457500 0.048642 0.782260 
-0.425885 0.112725 1.583022 
-0.457500 0.143117 0.508872 
-0.021107 -0.144011 0.206244 
-0.099138 0.082064 1.363020 
0.453500 -0.067838 1.330943 
-0.332834 -0.145284 1.831021 
0.015204 -0.036166 1.588027 
0.172939 -0.144010 0.904698 
-0.453500 0.034478 0.448278 
-0.137257 0.143381 0.055925 
-0.429435 0.143382 1.812351 
-0.282861 -0.144010 1.731246 
-0.419609 0.138072 1.368024 
0.445291 0.143382 0.479761 
-0.453500 0.037951 0.876565 
-0.032912 0.056072 0.873022 
0.457500 -0.014144 0.914715 
-0.183800 -0.144011 0.409777 
-0.100389 -0.144010 1.434444 
-0.334071 -0.000384 0.873022 
0.086060 -0.144010 0.429862 
-0.453500 0.053705 1.287380 
-0.135981 0.143382 1.807755 
-0.453500 -0.054705 0.894218 
-0.284678 0.137714 0.076217 
-0.417648 0.094293 1.831021 
-0.075777 0.028195 0.853020 
-0.298703 -0.071043 1.588027 
-0.349506 -0.056146 1.139020 
0.028561 0.096477 1.831021 
0.174831 -0.144010 1.207460 
0.322558 -0.144010 0.827962 
0.457500 -0.098684 0.676134 
0.453500 -0.070362 0.732124 
-0.165221 -0.142422 0.076217 
0.193886 0.137124 0.853020 
0.346400 0.098311 1.134021 
0.346566 0.076160 0.873022 
-0.167755 0.074056 0.853020 
0.196996 -0.144010 1.278400 
-0.442888 0.155381 0.707589 
-0.051697 -0.144010 1.571284 
0.032624 -0.144010 0.685669 
-0.154850 -0.015484 0.000021 
0.168650 -0.043824 0.873022 
0.453500 -0.074405 1.273922 
0.153054 -0.144010 0.651606 
0.304023 -0.144010 1.007359 
0.157322 -0.137668 1.368025 
0.158924 -0.144010 0.594292 
-0.115918 0.113471 1.139020 
0.221146 -0.008571 0.076217 
0.457500 -0.150904 0.365017 
-0.388179 -0.144010 1.184126 
0.214290 -0.029101 1.368025 
0.041442 0.143381 0.033942 
0.348187 -0.144010 1.215538 
-0.453500 0.088397 0.216615 
0.430719 0.143482 1.579611 
-0.265337 0.056281 0.076217 
0.334812 0.143418 1.568019 
0.452001 0.155382 0.977842 
0.257899 -0.072902 1.134021 
0.049634 -0.144010 0.942770 
0.155388 0.101731 1.368025 
0.453500 0.000602 0.630475 
-0.369601 0.001868 1.831020 
-0.115542 -0.151425 0.000021 
0.453500 0.016540 0.233245 
-0.240012 -0.144010 1.301521 
-0.453500 0.137205 1.129518 
-0.453500 0.008382 1.792165 
0.457500 -0.151593 1.172066 
0.276888 0.143482 1.120166 
-0.431500 -0.136123 0.860302 
-0.137327 -0.006106 0.873022 
-0.306909 -0.014880 1.368025 
-0.429251 -0.144010 1.796299 
-0.191887 0.100129 0.853020 
-0.453500 -0.023278 0.616091 
0.067824 0.017378 0.000021 
0.002167 -0.144010 0.501652 
-0.034560 0.009457 0.000021 
-0.027027 -0.025001 1.588027 
0.444695 -0.144010 0.748161 
0.248337 -0.144010 0.979748 
0.267514 0.136044 1.139020 
-0.297594 -0.144011 0.381442 
0.287186 -0.132060 1.827523 
-0.295279 -0.144011 0.492342 
0.453500 -0.021630 1.180765 
-0.277936 -0.144011 0.403150 
-0.275458 -0.144010 1.344841 
-0.457500 0.057006 0.175066 
-0.455417 0.155382 0.753843 
0.016320 -0.144010 1.660370 
-0.457500 0.051634 1.430791 
0.036993 -0.071805 0.853020 
0.457500 -0.050427 1.685235 
0.457500 -0.054821 1.277949 
-0.448334 0.143381 0.493924 
0.023324 0.141279 1.149024 
0.457500 0.077042 0.072173 
-0.235273 -0.144010 1.287815 
0.168213 -0.144010 1.111392 
-0.431528 0.155381 0.542584 
0.062196 -0.144010 1.063950 
-0.089949 -0.144010 0.839527 
0.145019 -0.144010 1.619884 
0.051233 0.143381 0.021992 
-0.457500 0.118013 1.342731 
-0.143522 0.026718 0.000021 
-0.418755 -0.136430 0.873022 
-0.457500 0.146921 0.457045 
0.138926 -0.048901 1.588027 
0.457500 -0.134894 0.579952 
0.242263 -0.144010 1.542692 
0.222710 0.143381 0.013280 
-0.266848 0.141617 1.149024 
-0.313624 -0.114138 0.000021 
-0.091952 -0.023142 0.873022 
0.194668 -0.116674 1.583022 
0.051193 0.115929 1.139020 
-0.453500 0.125239 0.591116 
-0.453499 -0.085766 1.549264 
0.457500 -0.100787 1.127323 
-0.391507 0.111889 0.076217 
-0.457500 -0.071340 0.784143 
0.086875 -0.144010 0.936166 
-0.457500 0.099950 1.349373 
0.011743 0.138514 1.831020 
-0.128451 -0.144010 1.401491 
0.423036 0.078714 1.831021 
-0.401478 0.080983 1.588026 
-0.111207 -0.144010 0.478234 
-0.453500 0.054012 0.182714 
-0.122424 -0.104487 1.831021 
-0.443378 0.155382 1.608248 
-0.403464 0.052919 0.853020 
-0.457500 0.050871 1.153901 
-0.453500 0.066235 1.167198 
-0.149771 -0.144010 0.599772 
-0.240780 -0.144010 1.817011 
0.206657 0.004099 1.368025 
0.135228 0.143381 0.040060 
0.287943 -0.144010 0.883003 
-0.345573 -0.144011 0.269311 
0.386625 0.018673 1.831021 
-0.205394 -0.139119 1.831021 
-0.238362 -0.119728 1.588027 
0.072411 -0.066384 1.134021 
-0.144067 -0.087418 0.000021 
-0.453500 0.039509 0.107630 
0.457500 0.120900 0.464011 
0.305106 -0.067473 0.076217 
0.253173 0.110307 0.853020 
-0.352049 0.116022 1.827523 
0.354224 0.143381 0.027190 
0.457500 -0.132349 1.378103 
0.453500 -0.064119 1.236361 
-0.101561 0.052481 0.853020 
0.123384 -0.144010 1.412183 
-0.138607 0.072822 1.583022 
-0.366469 -0.144010 1.262561 
0.174796 -0.144010 1.116045 
0.229417 0.038136 1.827523 
0.217640 -0.144010 1.566550 
0.077777 -0.077619 1.368025 
-0.013014 -0.144010 0.527171 
-0.443055 0.143382 0.917907 
-0.217486 -0.060682 0.873022 
-0.453500 0.081523 0.759722 
-0.269036 -0.134616 0.076217 
-0.457500 0.000431 1.123073 
-0.385994 -0.144010 0.719418 
-0.189252 0.136008 0.873022 
-0.051054 -0.144011 0.109292 
-0.269735 0.096178 1.363020 
0.213812 0.142075 0.000021 
-0.457500 -0.072668 0.470760 
-0.453500 -0.088113 0.649008 
-0.453500 0.070712 1.125311 
-0.457500 0.035860 0.314092 
-0.027421 0.143482 0.871546 
-0.225836 0.015410 0.076217 
0.197520 -0.144010 1.210095 
0.009219 -0.144010 0.548913 
0.429596 0.096539 1.583022 
-0.394779 -0.144010 1.681292 
0.397094 -0.062094 1.363020 
0.453500 0.061992 0.457335 
0.223890 -0.144010 0.696703 
0.036009 -0.096090 1.368025 
-0.457500 -0.140340 1.586034 
0.058573 0.140983 1.376386 
0.457500 0.148315 0.464991 
0.261183 -0.144010 0.987297 
-0.453499 -0.120525 1.258026 
-0.453499 -0.115974 0.571205 
-0.445055 -0.043671 1.827523 
-0.442382 0.155382 1.379177 
-0.017769 0.141986 1.827523 
-0.453500 0.011668 0.162223 
0.428560 -0.144011 0.239854 
0.457500 -0.002110 0.004295 
-0.252396 -0.102063 0.076217 
-0.360095 -0.144010 1.289107 
0.298672 0.125813 0.000021 
-0.411380 -0.127198 0.000021 
0.077732 -0.144011 0.141109 
-0.430985 -0.101485 1.363020 
0.225232 0.020226 1.134021 
-0.457500 -0.053819 0.799704 
0.025168 0.119384 1.583022 
0.436379 0.155382 0.678499 
0.125396 0.009920 1.134021 
-0.387110 -0.144011 0.281469 
-0.254294 0.046099 1.827523 
0.086079 -0.022879 0.873022 
0.457500 -0.115453 1.212612 
0.069326 -0.104227 1.827523 
0.386217 -0.121317 1.363020 
0.384187 -0.144010 0.404774 
0.453500 0.112302 1.736703 
0.171305 -0.112726 0.873022 
-0.194010 -0.087170 1.139020 
0.287503 0.022347 1.139020 
-0.443511 0.155382 0.768713 
0.275426 0.077187 1.831021 
-0.438351 0.155381 0.629734 
-0.071809 0.031271 1.827523 
0.375712 -0.144010 1.754327 
0.457500 -0.067553 1.356974 
0.176004 0.133482 1.581245 
0.054088 0.001139 0.873022 
-0.453499 -0.069986 0.285900 
0.078392 -0.144010 1.174585 
0.009314 0.007103 0.873022 
-0.011332 -0.140898 0.873022 
-0.457500 -0.097860 1.536601 
-0.339033 -0.057884 0.873022 
0.348594 0.143382 1.806068 
0.275028 -0.144010 0.984203 
-0.457500 0.016430 1.519525 
0.453500 0.088337 1.520831 
-0.331343 0.030104 1.583022 
-0.422295 -0.028391 0.873022 
0.148509 -0.115681 1.831020 
0.015151 -0.074878 0.853020 
-0.078071 0.140983 1.145863 
-0.448731 0.143382 1.725693 
0.431500 0.131522 1.585708 
0.345200 -0.144010 0.608672 
-0.453500 0.030670 1.025726 
-0.457500 -0.137580 1.423593 
0.026756 -0.144010 0.961981 
0.456605 0.155382 1.055792 
-0.016732 -0.056279 0.000021 
-0.457500 -0.008591 0.026622 
-0.174355 -0.144010 0.554025 
-0.254530 0.072613 0.076217 
-0.331428 0.124326 1.368024 
0.070001 -0.118150 1.363020 
-0.375265 -0.090115 0.853020 
-0.183336 0.062132 1.583022 
0.311621 0.033178 0.000021 
-0.424861 0.119647 0.853020 
-0.440231 0.143382 0.525258 
0.045810 -0.038132 0.853020 
0.421003 0.060803 0.853020 
0.062717 0.137697 1.139020 
0.409562 0.155382 1.812745 
0.149347 0.071799 0.853020 
0.374651 0.126622 1.831020 
-0.196919 0.078873 1.827523 
-0.208506 -0.144010 1.632599 
-0.075548 -0.144010 1.563274 
0.006234 -0.144010 0.942475 
-0.453021 -0.097042 0.000021 
0.195543 -0.135505 0.853020 
-0.457500 -0.123997 1.141769 
-0.142037 0.017583 1.368025 
-0.106512 -0.109461 1.368025 
0.047745 -0.024823 1.827523 
0.390815 -0.129051 1.588027 
-0.457500 -0.124686 0.132497 
-0.293881 0.117830 0.853020 
0.164977 0.097459 0.000021 
-0.336139 0.055834 0.853020 
-0.271605 0.003355 1.583022 
0.098167 -0.144010 1.700932 
-0.134179 0.143381 0.022784 
-0.431500 0.121663 0.856730 
0.119827 -0.063872 0.853020 
0.457500 0.148964 0.787390 
0.457500 -0.141154 1.306979 
0.007156 -0.144011 0.159698 
0.159518 -0.047414 1.583022 
-0.132436 -0.144010 1.678050 
0.030217 0.076688 1.831020 
-0.231122 0.089387 1.827523 
0.137429 -0.144010 0.542936 
0.130702 -0.129615 1.583022 
-0.431500 0.152003 1.690419 
0.339954 -0.101190 1.134021 
-0.309329 -0.144010 1.325864 
0.097693 -0.144010 0.583135 
0.258960 0.123532 0.853020 
0.311182 -0.025914 0.873022 
-0.453499 -0.104597 1.422099 
-0.457500 -0.131293 0.766999 
0.074246 -0.039066 0.853020 
0.257660 -0.038452 1.139020 
-0.287118 0.007471 0.076217 
-0.453499 -0.047377 0.846233 
-0.209495 0.155382 1.811117 
0.194822 0.082667 1.583022 
-0.457500 -0.103527 1.307001 
0.457500 -0.057212 1.158526 
-0.453500 0.041480 0.652444 
-0.457500 -0.129674 0.016419 
-0.431500 0.154938 0.198478 
-0.147245 -0.110745 0.076217 
0.103274 -0.144010 0.445215 
0.431500 -0.007931 1.584277 
-0.371271 0.143482 1.575508 
0.268686 -0.069129 1.134021 
-0.272814 0.016677 1.827523 
-0.453500 0.098356 0.906346 
0.414976 -0.125288 1.588027 
-0.089811 -0.025535 0.076217 
0.092941 0.028786 0.853020 
-0.051886 -0.144010 1.181387 
-0.047521 -0.130808 1.368025 
-0.354585 -0.106548 0.076217 
-0.457500 0.137711 1.440359 
-0.313935 -0.144010 0.717921 
0.453500 -0.086290 1.550002 
-0.453500 0.037620 1.397195 
0.007572 -0.011169 1.588027 
-0.261494 0.038311 1.588027 
-0.040210 -0.144010 1.785640 
-0.251373 -0.090171 0.076217 
-0.457500 0.014154 0.409688 
0.194950 -0.144010 0.707740 
0.457500 0.126204 1.102717 
0.457500 0.146748 1.108629 
0.396499 -0.144010 1.784501 
0.343240 -0.058365 1.827523 
-0.242330 -0.039646 0.873022 
0.118274 -0.073849 1.139020 
0.396987 0.080599 0.000021 
0.216406 0.010716 1.831021 
0.453500 0.013431 0.447172 
-0.453500 0.048474 1.525953 
0.206693 0.133482 1.123614 
0.133753 0.054696 1.827523 
0.453500 -0.123900 1.588063 
-0.431500 0.022752 0.872975 
0.171194 -0.138480 0.076217 
0.457500 -0.125001 0.860755 
-0.126217 -0.074679 0.076217 
-0.431500 0.151003 1.769349 
-0.079614 0.068706 1.827523 
-0.457500 0.102163 1.645792 
-0.300159 -0.144010 1.041497 
0.184013 -0.099113 0.000021 
0.000683 -0.014153 1.363020 
0.441026 -0.144010 1.069892 
-0.006953 -0.046451 0.076217 
0.453500 0.035740 0.563915 
-0.010350 -0.144010 1.247405 
-0.222640 0.021267 0.076217 
0.453500 0.111408 0.418479 
-0.375731 -0.144011 0.380733 
-0.040923 -0.060059 0.076217 
-0.437138 0.155382 0.942626 
-0.453500 -0.050856 1.684328 
-0.331123 -0.144011 0.103962 
0.457500 0.021601 1.238290 
-0.219323 -0.144010 0.621834 
0.306556 -0.144010 1.349606 
0.453500 0.065598 0.430150 
0.442032 0.143381 0.220189 
-0.308154 -0.144010 1.709158 
0.224215 0.047537 1.139020 
-0.277256 0.143381 0.010782 
-0.011250 -0.144011 0.353517 
-0.105209 -0.072263 0.853020 
-0.221267 -0.144010 0.917053 
0.163308 -0.144010 0.768996 
0.139028 -0.053927 1.583022 
0.330588 0.045511 1.363020 
0.166190 -0.104213 1.139020 
-0.453500 0.087413 1.651906 
0.453500 -0.027011 1.498761 
-0.182307 -0.144010 0.683209 
-0.279818 -0.144011 0.168498 
0.264624 -0.144011 0.293669 
-0.105205 -0.144010 1.158117 
-0.419099 -0.144011 0.276620 
-0.211454 0.075201 1.368024 
-0.453500 0.101110 0.217517 
0.436225 -0.144010 1.535930 
0.453500 0.132424 1.812517 
-0.248816 -0.144011 0.465217 
0.457500 -0.001180 1.625683 
0.323077 -0.144011 0.295699 
-0.453500 -0.113696 1.808668 
0.327148 0.025950 1.368025 
-0.457500 0.025666 0.207589 
0.212777 -0.144011 0.183478 
0.453500 -0.114117 1.358768 
-0.271117 -0.144010 0.727608 
0.453500 -0.053097 1.030259 
-0.241350 0.094226 0.000021 
0.277432 -0.144010 0.382832 
0.024124 0.096370 1.588027 
-0.306971 -0.141627 1.588027 
0.457500 -0.146444 1.050159 
0.453500 0.045686 0.587580 
0.453500 -0.094339 0.679075 
0.395053 0.128761 1.831020 
0.300717 -0.006536 1.588027 
-0.406071 -0.144011 0.518995 
-0.453500 0.105404 1.364701 
-0.065434 -0.144011 0.348142 
-0.167577 -0.144011 0.363500 
-0.381581 -0.144010 1.169971 
-0.453500 -0.033591 1.025573 
0.453500 -0.110213 1.089145 
-0.115144 -0.036592 1.363020 
-0.238586 -0.105146 1.139020 
0.051954 -0.144010 1.099296 
-0.419250 0.113952 1.827523 
0.299704 -0.015419 0.873022 
-0.217754 0.143382 1.815705 
-0.457500 -0.055445 1.716760 
0.033608 -0.091961 0.000021 
-0.104727 0.050100 0.000021 
-0.294392 0.076034 1.139020 
-0.119207 0.102406 0.853020 
0.453500 -0.034273 0.673457 
-0.429497 -0.113150 0.873022 
0.398820 -0.036882 1.588027 
-0.453499 -0.110523 1.020030 
-0.161057 0.013866 1.588027 
0.118983 -0.127374 0.000021 
-0.039702 0.039676 1.588027 
-0.453500 -0.028274 0.797261 
0.308650 -0.143839 1.588027 
-0.256418 -0.051099 1.134021 
0.457500 0.071212 0.049300 
0.053648 -0.095942 1.583022 
0.453500 0.032377 1.289593 
-0.453500 0.006419 0.307217 
0.457500 0.142965 1.311687 
-0.457500 -0.039043 0.234384 
0.132660 -0.082070 0.000021 
0.275092 -0.136766 1.827523 
0.453500 0.079661 1.292106 
0.290272 -0.144010 1.657900 
-0.457500 -0.139908 1.501066 
-0.231535 0.105682 0.853020 
-0.453500 -0.027619 1.674253 
-0.384824 -0.144011 0.394282 
0.453500 0.123259 1.123033 
0.302685 -0.006743 0.000021 
-0.282641 -0.144010 1.029111 
0.049917 0.143382 1.805415 
0.457500 -0.032733 0.477045 
0.205111 -0.144010 1.317587 
0.326956 -0.091458 1.134021 
-0.253286 0.116375 0.076217 
0.026367 -0.085524 1.139020 
-0.126516 0.087531 1.583022 
0.457500 0.105634 0.828374 
0.453500 -0.068032 0.419537 
-0.453500 -0.002498 0.986351 
-0.049191 0.083935 0.076217 
-0.453500 -0.050547 0.829248 
-0.169958 -0.144010 0.903809 
0.246770 0.143482 1.357100 
0.271841 0.050448 1.363020 
-0.457500 -0.060950 1.056502 
0.233117 0.001028 1.831020 
-0.447015 0.150438 0.000021 
-0.117652 0.007578 1.831021 
-0.042358 -0.005449 1.363020 
-0.095097 -0.144010 1.523712 
0.096910 -0.006368 1.134021 
