0.174131 -0.021721 0.873022 
-0.453499 -0.002134 1.597284 
0.138381 -0.068840 0.076217 
0.272903 0.029994 1.134021 
-0.380755 -0.106972 1.827523 
-0.016112 -0.101661 0.000021 
-0.391244 -0.144011 0.261766 
-0.368079 0.143381 0.001004 
0.110782 -0.087864 0.000021 
-0.398763 -0.084761 1.827523 
0.141699 -0.032829 1.139020 
0.044918 -0.064516 1.583022 
0.258874 -0.109322 0.000021 
-0.084098 -0.045270 0.000021 
-0.457500 0.117339 1.557548 
0.440536 -0.144011 0.128568 
-0.453500 0.002654 0.599111 
0.144020 -0.144010 1.715590 
-0.457500 -0.064406 0.609637 
0.023340 -0.144010 1.447302 
-0.432760 0.155382 1.783574 
0.453500 -0.042595 0.642615 
-0.132735 -0.144010 1.289817 
-0.457500 0.097773 0.480774 
-0.012184 -0.144010 1.794562 
0.197301 -0.123615 0.853020 
0.447753 -0.144010 0.637473 
0.457500 0.109139 1.510985 
-0.173335 0.121756 0.853020 
-0.453500 0.089970 0.283234 
-0.199859 0.109614 1.583022 
0.457500 0.124201 0.001145 
0.267933 0.063419 0.000021 
-0.098163 -0.126315 1.827523 
-0.453500 0.043980 0.466748 
0.262716 0.080214 1.831021 
0.119416 -0.144010 0.807255 
-0.373566 0.123392 1.134021 
0.097319 0.026709 0.076217 
-0.266079 -0.144010 0.595869 
-0.132375 -0.144010 1.608279 
0.431500 0.155220 0.743043 
-0.130546 -0.144010 0.611113 
0.340818 -0.144011 0.143283 
-0.282157 -0.004979 1.368025 
0.008093 -0.077417 1.831021 
0.457500 0.078911 0.771729 
-0.397112 -0.047670 0.873022 
-0.453499 -0.118608 1.358709 
-0.356147 -0.025655 1.368025 
0.235196 -0.144010 1.236396 
0.453500 0.001864 1.809071 
-0.453500 0.079928 1.788226 
-0.457500 -0.147604 0.202402 
0.453500 0.134559 0.775830 
0.335629 -0.109612 0.076217 
0.231914 0.143381 0.007239 
-0.365408 -0.144010 1.564745 
0.457500 0.048853 1.036099 
0.249634 -0.144010 1.319445 
-0.312260 -0.144011 0.367464 
0.090365 -0.144010 1.060634 
-0.453500 0.021417 1.017850 
-0.405543 -0.144010 1.271641 
-0.455884 0.155382 1.424532 
0.368480 -0.078900 1.139020 
0.419595 0.128471 1.134021 
0.350263 0.044079 0.853020 
-0.446030 0.143382 1.791399 
-0.147646 -0.096334 1.134021 
-0.029824 0.140983 1.593580 
-0.116212 -0.144011 0.274391 
0.028025 -0.149648 1.831021 
-0.067088 -0.120515 0.873022 
0.047410 0.143482 1.121330 
-0.448877 0.155381 0.566929 
0.394479 -0.144011 0.213353 
-0.037774 -0.144010 0.528970 
0.262469 0.140832 1.568019 
0.457500 -0.001502 1.629181 
0.090512 -0.144010 0.457896 
0.226874 -0.144010 1.379638 
-0.211571 -0.126880 1.139020 
-0.000144 -0.144011 0.321492 
-0.010141 0.047097 1.363020 
-0.343402 -0.083137 1.831021 
-0.453500 0.121791 0.281733 
0.457500 0.154778 1.734092 
0.207765 0.088254 1.363020 
0.343739 -0.144010 0.718564 
0.165189 -0.138223 1.363020 
-0.010486 -0.144010 0.560339 
0.009751 0.095121 0.873022 
0.031997 -0.144010 1.639275 
-0.195778 -0.144010 0.539682 
0.453500 -0.019095 0.195809 
-0.074868 -0.008414 0.000021 
-0.028409 0.143482 1.575084 
0.457500 0.033901 1.245567 
0.457500 0.082117 0.866793 
-0.457500 0.123017 1.078664 
0.452897 0.155382 1.801261 
0.453500 -0.076085 0.485580 
-0.208871 -0.029869 0.853020 
-0.009293 -0.144010 1.232886 
-0.411417 -0.067645 1.583022 
-0.367104 0.018046 0.076217 
0.109130 -0.110854 1.831021 
-0.430114 -0.151323 0.000021 
0.249388 -0.088608 1.831020 
-0.366146 -0.144010 1.613805 
0.356783 -0.028269 1.368025 
-0.360672 0.143381 0.073707 
-0.220190 -0.144010 0.885560 
-0.300910 0.098074 1.363020 
0.457500 0.130407 0.867113 
-0.457500 -0.045316 1.308320 
-0.062906 0.036227 1.363020 
0.408019 -0.020127 0.873022 
0.457500 -0.149766 0.968186 
-0.287060 -0.144010 1.066883 
-0.457500 0.039540 1.286403 
0.239239 -0.012454 1.588027 
0.441973 0.143382 1.748110 
-0.374229 -0.144011 0.085454 
0.457500 -0.005255 0.569010 
0.457500 0.079222 1.327183 
0.457500 -0.052183 1.041255 
-0.101417 -0.144010 0.728878 
-0.126963 -0.144010 0.800659 
0.296632 -0.048259 1.827523 
-0.457500 -0.050434 0.785483 
-0.398912 0.101235 1.583022 
0.254510 -0.117678 0.853020 
0.117654 -0.144011 0.386182 
-0.357001 0.143381 0.022369 
-0.304507 -0.144011 0.229815 
0.120722 -0.150294 1.831021 
0.453500 0.068030 0.734921 
0.158175 -0.003177 0.000021 
-0.457500 0.119802 1.414330 
0.453500 0.082799 1.815496 
0.453500 0.036099 1.768755 
0.081339 -0.144010 1.659472 
-0.453500 0.140476 1.363439 
0.453500 -0.086422 0.640043 
-0.152571 -0.010461 1.139020 
0.453500 -0.070877 0.201861 
0.342456 -0.144010 0.620242 
-0.373121 0.000022 0.076217 
0.370646 -0.039359 0.000021 
-0.319453 0.143381 0.035050 
-0.448465 0.143382 1.402273 
0.128083 -0.135713 0.076217 
0.453500 0.016151 1.095640 
-0.453499 -0.103554 0.442288 
0.183189 0.124723 1.588026 
0.053912 0.115736 0.000021 
0.457500 0.070732 0.066228 
-0.076653 0.047603 0.873022 
-0.169552 0.123845 1.588026 
-0.111727 -0.144010 1.335929 
-0.410071 0.035307 1.831020 
0.426616 0.133482 1.569340 
-0.453499 -0.068576 1.406177 
-0.041368 -0.124979 0.873022 
-0.127016 -0.104065 1.583022 
-0.457305 0.116774 1.831020 
-0.457500 -0.127879 0.669933 
-0.316333 -0.059109 1.831021 
0.172584 -0.144010 1.547165 
0.064168 -0.091974 1.588027 
-0.457500 0.095739 0.556585 
-0.107968 -0.144010 1.276039 
0.307159 -0.144010 0.686438 
-0.437170 0.155382 1.485559 
0.104779 -0.144011 0.248306 
-0.342655 -0.144010 1.009792 
0.457500 0.015362 0.057798 
0.059554 -0.144011 0.393986 
0.457500 0.071741 0.126758 
-0.453499 -0.101527 1.329652 
0.453500 -0.107213 1.640737 
-0.367198 0.022365 0.853020 
0.323342 -0.144010 0.749133 
-0.149514 -0.144010 1.031550 
-0.059187 -0.144010 1.659729 
-0.391933 -0.133326 1.831021 
-0.453499 -0.033812 0.090520 
0.018536 -0.144010 0.835508 
0.304267 0.120531 0.076217 
0.138925 -0.073716 0.853020 
0.130647 -0.144010 0.708072 
-0.457500 0.107520 0.532813 
-0.079925 -0.144010 0.737651 
-0.456733 0.149613 1.831020 
-0.453500 0.009081 1.444305 
-0.076049 -0.113000 0.076217 
0.099872 -0.144011 0.378924 
0.140697 -0.075735 1.831020 
0.457500 0.059334 1.529489 
0.457500 -0.067245 0.438208 
-0.253752 -0.144010 0.650541 
-0.431500 0.153641 0.626206 
-0.453500 0.027819 0.188367 
-0.314052 -0.144010 0.951396 
-0.259814 -0.144010 1.735589 
-0.076601 -0.086398 1.368025 
0.273368 -0.128021 1.588027 
-0.453499 -0.115343 1.184050 
-0.355220 -0.132843 0.873022 
-0.277011 0.028920 1.831020 
-0.067781 -0.038180 0.873022 
-0.172859 0.119570 1.368025 
-0.452027 -0.144011 0.325546 
-0.457500 -0.111196 1.537135 
-0.332168 -0.144010 1.157263 
-0.069288 -0.144010 1.268605 
0.361495 -0.144010 1.102327 
-0.457500 0.087973 1.355969 
0.342696 -0.114706 1.134021 
-0.213429 0.019634 0.873022 
0.457500 0.022938 0.380480 
-0.365159 -0.012798 1.831021 
-0.453500 0.038132 0.122445 
-0.315050 0.069398 1.139020 
-0.065246 -0.124915 1.139020 
-0.114716 0.155382 1.830831 
-0.163404 -0.007122 1.368025 
-0.453500 -0.030843 1.396490 
-0.180083 0.090000 1.583022 
-0.330856 -0.144011 0.230438 
-0.292825 0.031376 1.583022 
-0.315819 -0.144010 1.538788 
0.101448 -0.135008 0.076217 
0.392031 -0.089176 1.368025 
-0.153627 -0.144010 0.561363 
-0.427868 -0.034470 1.827523 
0.340398 0.068013 0.873022 
-0.053560 -0.076941 1.363020 
0.332861 -0.066967 0.853020 
-0.457500 0.128963 0.532357 
0.239430 -0.076538 0.076217 
0.457500 0.112154 0.770036 
0.378799 -0.144011 0.222755 
-0.457500 -0.132839 0.357869 
0.098154 0.021296 1.583022 
-0.457500 -0.151122 1.082913 
-0.285108 -0.101630 0.076217 
0.168196 -0.119173 1.831021 
0.453500 -0.118901 1.169718 
0.453500 -0.108123 0.851519 
-0.005482 0.143482 1.128906 
0.312301 -0.135391 0.873022 
0.457500 0.058483 0.022166 
0.321795 -0.144010 1.238540 
0.457500 0.062208 0.527674 
-0.340033 -0.130169 0.000021 
-0.045455 -0.144010 1.190480 
0.006603 -0.144010 1.190090 
-0.290668 -0.053035 0.873022 
-0.375154 0.078983 1.583022 
0.457500 0.151780 1.189476 
0.352425 -0.144010 0.750506 
-0.385531 -0.051144 0.076217 
-0.188011 -0.144011 0.272228 
-0.064952 -0.144011 0.224474 
-0.418870 -0.144010 0.816109 
-0.457500 0.139907 0.015105 
0.300010 -0.144010 1.719031 
-0.311359 0.036209 1.827523 
0.453500 0.063819 1.276657 
-0.457500 0.154739 1.536260 
0.041535 0.018062 0.076217 
0.009225 -0.144010 0.733146 
0.370169 -0.144010 0.606426 
0.114533 0.144136 1.805019 
0.126007 -0.144010 0.897142 
-0.457500 -0.038286 1.807095 
0.084680 -0.144011 0.117886 
0.453500 0.130698 1.120249 
0.124442 -0.144010 1.316500 
0.185951 -0.088998 0.873022 
0.114909 0.121302 1.363020 
-0.238960 -0.025798 1.363020 
-0.457500 -0.018733 0.783189 
-0.412026 -0.144010 0.645245 
0.450389 -0.144010 0.379907 
-0.319873 -0.009441 1.139020 
-0.091139 -0.144010 1.045246 
-0.457500 -0.057966 0.994455 
-0.457500 0.086387 0.057399 
-0.158537 -0.087358 1.583022 
-0.076046 -0.144011 0.439395 
0.066461 -0.032215 1.368025 
0.457026 -0.020877 1.831021 
-0.304122 -0.101113 0.853020 
-0.104291 -0.063176 1.363020 
0.441178 0.155382 1.650076 
-0.028641 -0.144010 0.949951 
-0.299849 -0.144011 0.323095 
0.224562 -0.073694 1.831021 
-0.424141 -0.086710 0.873022 
-0.248372 0.075679 0.076217 
0.299495 -0.046279 0.076217 
-0.457500 -0.060083 1.434005 
0.334917 -0.144010 0.799446 
-0.190966 0.121579 1.827523 
0.323545 0.143482 0.859733 
-0.322445 -0.144010 1.802534 
-0.373471 0.116562 1.363020 
0.101572 0.038982 1.588027 
0.457500 -0.024243 1.206963 
0.163174 0.094609 1.588026 
-0.095236 -0.144010 1.065219 
0.000985 -0.144011 0.100506 
-0.425428 -0.144010 1.285377 
0.105441 -0.115137 0.853020 
-0.128397 0.109544 1.368025 
0.210077 -0.023034 1.827523 
-0.181891 -0.111796 0.076217 
-0.083349 0.052046 0.853020 
-0.457500 0.034223 0.569640 
0.070901 -0.144010 1.349465 
0.229450 -0.106860 1.588027 
0.456735 0.155382 1.501492 
0.180787 -0.076271 0.000021 
0.329413 0.118125 0.076217 
0.233970 -0.144010 1.709360 
0.050194 -0.142176 0.000021 
0.453500 -0.097964 1.709556 
0.141509 -0.131520 1.827523 
0.416914 -0.144010 0.338446 
-0.431500 0.127517 0.872340 
-0.053272 0.019111 1.363020 
0.453500 -0.107457 1.614929 
0.311063 -0.144010 0.798800 
-0.141035 0.140975 0.000021 
-0.134608 -0.082501 0.000021 
0.262228 -0.144011 0.252740 
0.457500 -0.147627 0.348555 
0.413080 -0.104467 0.873022 
0.100051 -0.144011 0.294951 
0.457500 0.028504 0.617548 
0.273778 -0.144010 1.635079 
0.457500 0.091651 0.063936 
0.400446 0.106434 1.588026 
0.453500 0.126793 0.205168 
0.137035 0.143381 0.065918 
-0.075207 -0.144010 1.441999 
0.170019 -0.144011 0.096885 
0.347900 0.110443 1.831020 
0.176866 0.143482 1.374944 
-0.453500 -0.076949 0.625111 
0.453500 -0.072742 0.461185 
-0.137791 -0.128960 0.873022 
0.026591 0.007690 1.139020 
-0.164285 -0.019363 1.827523 
0.338415 -0.144010 0.550366 
-0.391282 0.045149 0.000021 
-0.054618 -0.144011 0.145551 
0.457500 0.065570 1.203946 
0.457500 -0.107413 1.530103 
-0.453500 0.041162 1.202812 
-0.289914 -0.144010 1.338835 
0.327737 -0.144010 1.688704 
0.452512 0.155382 1.372007 
-0.171732 -0.018238 1.588027 
0.109641 -0.082324 1.827523 
0.453500 -0.011901 1.753910 
0.034164 -0.137254 0.076217 
0.273844 -0.144010 0.802474 
-0.457500 0.127363 0.347897 
-0.369565 -0.001889 0.873022 
-0.350289 0.048722 0.076217 
0.067823 -0.042127 1.583022 
0.171995 0.071686 0.853020 
-0.441449 -0.144010 0.638990 
0.050028 -0.144010 1.263861 
-0.344312 -0.144010 0.697480 
-0.352773 0.027408 1.363020 
0.060755 -0.144010 0.530989 
-0.457500 -0.065902 1.804343 
-0.445749 -0.144010 1.702258 
-0.405134 -0.144010 1.242504 
-0.201218 -0.019735 1.368025 
-0.105685 -0.144010 0.987981 
0.271868 -0.089342 1.139020 
-0.410843 -0.144010 1.354734 
-0.157134 -0.144011 0.225060 
-0.457500 0.085984 0.729235 
-0.457500 0.072722 1.175643 
-0.431694 0.155382 0.785920 
-0.453500 -0.100004 0.597229 
0.213907 -0.033030 0.000021 
0.335873 -0.103301 1.368025 
-0.457500 -0.062058 0.317619 
0.326162 -0.144010 1.492653 
0.431500 -0.113315 1.363281 
-0.421415 0.024083 1.363020 
-0.292653 -0.144011 0.434222 
0.013629 -0.073047 0.076217 
0.288817 -0.142793 0.873022 
-0.348437 -0.144010 0.547837 
0.115625 -0.020792 1.827523 
0.035234 -0.144010 1.666569 
-0.287134 -0.144010 0.739530 
-0.248093 -0.144011 0.125863 
0.453500 0.091380 0.638880 
-0.283389 -0.144010 1.474533 
0.002512 0.032775 0.873022 
0.102964 -0.144010 0.473197 
0.125759 -0.144010 0.610469 
-0.457500 -0.042347 1.524569 
-0.227297 0.059649 1.368025 
0.276163 0.094685 1.363020 
0.330056 -0.144010 1.642647 
-0.063987 -0.144010 1.729840 
0.118163 0.047725 1.583022 
0.256819 -0.144010 1.658169 
-0.413228 0.139497 1.568019 
0.243093 -0.144011 0.088638 
0.187656 -0.032332 0.000021 
0.280250 -0.144010 0.691179 
-0.247885 0.051125 1.134021 
-0.349840 0.095470 0.000021 
-0.453500 0.024844 1.747287 
-0.453500 0.036122 0.533715 
-0.453499 -0.075268 1.362200 
-0.404223 -0.144010 1.691369 
0.293905 0.153613 1.805019 
-0.457500 0.133655 1.158668 
-0.408067 0.080198 1.363020 
-0.043530 -0.111785 0.076217 
-0.123117 0.098002 1.588026 
-0.054023 -0.136679 0.000021 
0.055245 0.081551 1.827523 
0.125927 -0.144010 1.083531 
-0.228467 -0.054244 1.363020 
0.457500 -0.049900 0.906351 
0.340985 0.148165 1.831020 
0.314829 -0.144011 0.105170 
0.457500 -0.099631 1.391483 
0.347932 -0.144010 1.252075 
0.346368 -0.144010 1.533034 
-0.408260 -0.144010 1.661004 
-0.004285 -0.120297 1.831021 
-0.309994 0.041789 1.139020 
-0.245846 0.027435 0.853020 
0.453500 0.045843 1.664215 
0.249095 -0.084863 0.873022 
0.457500 -0.098230 1.215371 
-0.159445 -0.144010 1.671487 
-0.344440 0.114034 0.853020 
-0.400423 -0.144011 0.171134 
0.368310 -0.121584 0.853020 
0.168866 -0.144010 1.345471 
-0.457500 0.011308 0.279224 
-0.116209 -0.144010 0.555974 
0.028895 -0.126461 1.831021 
-0.453500 0.119041 0.557774 
-0.218644 -0.144010 0.659343 
0.225308 -0.144011 0.219312 
-0.457500 -0.079647 0.478950 
0.205250 0.081569 0.853020 
-0.006988 -0.106966 1.363020 
0.004001 0.093519 0.076217 
0.457500 -0.013589 1.611895 
0.189495 0.132448 1.363020 
-0.111372 0.102875 1.363019 
0.403424 0.016145 0.000021 
-0.353797 0.034297 1.139020 
0.453500 0.034277 0.970168 
0.378719 -0.046215 0.076217 
-0.453500 -0.000128 0.265301 
-0.436006 -0.054084 0.000021 
0.250105 -0.037749 0.076217 
-0.328464 -0.144010 1.426287 
0.180269 0.052114 1.139020 
-0.430941 -0.144011 0.227649 
-0.324823 -0.144011 0.095905 
0.288646 -0.144011 0.155358 
-0.384986 -0.144011 0.422026 
-0.203628 0.111959 0.853020 
0.457500 0.003903 1.033986 
0.457500 -0.104290 0.816464 
0.068144 0.143381 0.068708 
0.453500 0.079679 1.570662 
-0.345416 -0.048021 1.583022 
0.438572 -0.094837 0.000021 
-0.102975 -0.144010 1.647475 
-0.453500 0.113530 0.799374 
0.457500 -0.113881 1.346241 
0.032236 0.135755 0.000021 
-0.457500 0.103879 1.601228 
0.457500 -0.092137 0.461596 
0.457500 -0.034377 1.790180 
0.059564 -0.144010 1.429114 
-0.457500 -0.111446 0.461952 
-0.113835 -0.144010 1.503837 
0.257660 -0.118482 1.139020 
0.153802 -0.050248 1.831021 
0.216253 -0.027990 0.076217 
-0.381560 -0.144010 0.743549 
0.453500 -0.010395 1.646470 
0.453500 -0.113712 0.921815 
0.147061 -0.144011 0.263094 
-0.228881 0.004459 0.853020 
-0.175550 -0.144010 0.551194 
0.457500 -0.151307 1.503562 
0.359434 0.078751 0.000021 
-0.457500 0.076062 0.159313 
-0.453500 0.074075 1.699464 
-0.453499 -0.068777 0.971069 
-0.425460 -0.065562 0.873022 
-0.112787 -0.016033 1.831020 
-0.358391 -0.070545 1.827523 
0.279417 0.143381 0.021172 
0.029259 -0.144010 1.605681 
0.457500 0.091301 1.770353 
-0.457500 -0.061253 1.771736 
-0.071561 -0.066469 1.368025 
-0.197254 -0.144011 0.291366 
0.453500 -0.037430 1.551968 
0.293041 0.025491 0.853020 
0.432243 0.155382 0.979012 
-0.426426 -0.120155 0.000021 
-0.453500 0.067101 1.144872 
0.332333 -0.096764 1.134021 
-0.457500 -0.139280 1.495912 
-0.204350 -0.144011 0.315904 
0.263889 -0.036520 1.363020 
-0.314564 -0.144010 0.623672 
-0.269818 0.049442 0.873022 
-0.287744 -0.000230 0.873022 
0.047960 -0.144010 1.498858 
-0.119916 -0.144010 1.680167 
-0.053661 -0.098961 1.368025 
-0.033079 -0.144010 1.023711 
-0.124468 -0.065917 1.368025 
0.003543 -0.144010 0.504595 
-0.130854 -0.144010 0.535797 
0.187484 0.099959 0.873022 
0.235653 0.143482 1.120129 
0.211986 -0.144010 0.802271 
0.093684 -0.069271 1.827523 
0.375910 0.143382 1.811155 
-0.017984 -0.121734 1.134021 
-0.099322 -0.094674 1.583022 
0.010275 -0.144010 1.563916 
-0.424573 0.069517 0.853020 
-0.155057 -0.005239 0.873022 
0.100036 -0.144010 0.590388 
-0.398249 -0.144010 0.818372 
0.457500 -0.102488 1.551539 
0.307377 0.096287 1.583022 
0.360274 -0.106119 1.363020 
-0.437386 -0.144010 0.890924 
-0.170550 -0.144010 0.756773 
0.214462 -0.144010 1.518081 
0.151542 -0.144010 1.212852 
0.453500 -0.091539 0.774824 
0.457500 0.013663 0.904394 
0.453500 -0.078132 0.864541 
-0.457500 0.050096 0.002576 
0.453500 -0.106900 0.448441 
-0.457500 -0.051338 0.880333 
-0.203856 0.140983 0.881809 
-0.457500 0.122034 0.882708 
0.308795 -0.078566 0.853020 
-0.011019 -0.144011 0.300944 
0.217742 0.015052 0.076217 
-0.453500 0.022716 0.625735 
-0.453500 0.003084 1.567154 
0.431500 0.155290 0.950585 
0.036377 -0.144011 0.311029 
-0.143727 -0.097548 1.831021 
-0.457500 0.064913 0.599774 
0.379883 0.130400 1.831020 
0.274497 0.009188 1.368025 
-0.325849 -0.144010 0.746332 
-0.049168 -0.144010 1.211623 
0.457500 0.070998 0.699512 
-0.219926 0.073978 1.134021 
0.103653 0.069044 0.076217 
-0.457500 0.041112 0.492288 
0.418258 0.116868 0.873022 
0.141921 0.088020 1.363020 
0.245335 -0.144010 1.812227 
-0.343949 -0.108984 0.000021 
-0.083792 0.085374 0.000021 
-0.083634 0.124955 0.853020 
-0.116346 0.124852 1.363020 
-0.265086 0.127111 1.588026 
-0.330575 0.023692 1.134021 
0.418707 0.093869 0.873022 
-0.453500 0.009851 0.169782 
-0.263006 0.009320 1.583022 
-0.312411 0.056037 0.873022 
-0.002253 -0.144011 0.341516 
0.030773 -0.144010 0.508316 
0.457500 0.076433 0.336877 
-0.351228 -0.144011 0.313037 
0.453500 0.104296 0.801373 
-0.404064 0.018467 0.000021 
-0.439637 0.155381 0.307799 
-0.188049 -0.137117 1.363020 
0.429996 0.114823 1.363020 
0.006417 0.143381 0.032138 
0.435057 0.155381 0.107383 
0.008309 -0.107673 0.076217 
0.399816 -0.144010 0.991121 
0.082608 0.075773 0.076217 
0.457500 -0.133261 0.460815 
0.457500 0.036375 1.376257 
-0.034816 0.150909 1.805019 
-0.220195 -0.144010 1.352605 
-0.200260 -0.144010 0.595289 
-0.431500 -0.059564 0.856202 
-0.117159 -0.141223 1.368025 
-0.453499 -0.004300 0.444160 
-0.248982 -0.144010 0.486782 
0.248223 -0.144010 1.194197 
-0.446853 0.155382 1.243191 
0.030521 0.040874 0.873022 
0.191129 -0.019689 1.827523 
-0.428305 0.071765 0.000021 
-0.172514 -0.144010 1.460512 
0.453500 0.031398 0.445877 
0.321978 -0.065059 1.831021 
0.457500 0.002345 1.132379 
-0.071831 -0.144010 0.500689 
0.233565 0.131707 0.873022 
-0.017497 0.025666 1.134021 
0.457500 -0.030756 0.172796 
0.438901 0.155381 0.232786 
-0.453500 0.067464 0.481373 
-0.398497 0.040875 0.873022 
0.453500 -0.092638 0.209914 
-0.005748 -0.005495 0.076217 
-0.453499 -0.109997 1.665768 
-0.196009 -0.144010 1.249595 
0.213913 -0.144010 0.913236 
0.453500 -0.099725 1.046957 
-0.457500 0.086561 1.616843 
-0.127758 0.115679 0.076217 
-0.435328 -0.144010 1.190560 
-0.276395 -0.051938 1.827523 
0.457500 -0.140525 1.204705 
-0.091492 -0.055142 0.873022 
-0.434420 -0.144010 1.672537 
-0.409336 0.052556 0.000021 
0.092326 0.097348 1.368025 
0.014414 -0.144010 0.440470 
0.165233 -0.112495 0.000021 
-0.158093 -0.144011 0.251074 
-0.404315 -0.144010 1.022953 
-0.064781 -0.144010 1.040812 
-0.394746 -0.144010 0.764068 
-0.281074 -0.144010 0.675310 
0.252318 -0.144010 1.076209 
-0.158994 -0.144010 0.538352 
-0.139206 -0.144010 1.566867 
0.373624 0.140983 0.876379 
-0.285906 -0.118283 0.853020 
0.180984 -0.144010 1.464664 
0.053563 -0.135030 0.076217 
-0.457500 -0.069741 1.385669 
0.457500 -0.143604 1.154102 
-0.453499 -0.093672 1.476153 
-0.237237 0.034337 1.134021 
0.437147 -0.144010 1.291321 
0.339164 -0.144010 0.995329 
-0.299043 -0.105823 1.588027 
0.177716 0.143381 0.005780 
0.062915 -0.144010 1.513557 
-0.217004 0.051489 0.000021 
0.453500 -0.070647 0.278684 
-0.453500 0.123012 0.840008 
-0.435829 0.155382 1.528764 
0.136800 0.084436 0.076217 
0.385545 -0.144010 0.565966 
-0.355725 -0.144010 1.496048 
-0.013031 -0.031909 0.000021 
0.341880 -0.144010 1.616702 
-0.045515 -0.055657 1.583022 
-0.183905 0.100859 0.853020 
-0.130924 0.143482 1.571657 
-0.057601 0.098208 0.000021 
0.269925 -0.144011 0.218228 
0.420988 -0.122335 1.827523 
-0.457052 0.155382 1.210028 
0.030281 -0.005190 1.827523 
0.096850 -0.144010 1.616928 
-0.359434 -0.090740 0.873022 
-0.457500 -0.063960 1.452532 
0.457500 0.082849 0.845468 
-0.069841 0.133482 1.120094 
0.260465 0.022619 1.363020 
-0.457500 -0.044272 0.968896 
-0.457500 0.017060 0.971538 
0.457500 -0.024631 1.567102 
-0.105486 -0.144010 1.244150 
0.453500 0.136341 0.085149 
0.049383 0.132881 1.827523 
-0.457500 0.064853 1.212550 
-0.318598 0.088459 1.134021 
-0.359218 -0.017880 1.139020 
0.171614 -0.144010 0.838272 
0.400163 -0.144010 1.218036 
-0.226634 0.143482 0.862299 
0.127136 -0.144010 0.966684 
0.097307 0.099110 0.000021 
-0.072360 -0.144010 1.333646 
-0.206280 0.115608 0.076217 
-0.453500 0.109832 0.989388 
0.249961 -0.144010 0.840215 
0.040589 -0.144010 1.438156 
0.142456 -0.144010 1.737891 
0.381697 -0.125061 0.873022 
0.065523 0.011946 0.000021 
0.224728 -0.031351 1.139020 
-0.169667 -0.144010 0.967289 
-0.321818 -0.144010 1.700063 
-0.416154 0.119569 1.363020 
0.244320 -0.144010 0.814145 
0.076402 0.155382 1.830019 
0.355745 0.098335 0.076217 
0.447268 0.143382 0.818805 
-0.201128 0.096505 0.076217 
0.366976 -0.144010 1.418791 
-0.457500 0.058891 1.503167 
-0.453499 -0.100383 1.149421 
0.294146 -0.108474 0.873022 
0.292662 -0.139913 1.139020 
-0.453500 -0.020093 0.704332 
-0.377799 -0.144010 0.894308 
0.155079 0.137400 1.568019 
0.431500 0.145963 1.049046 
-0.453500 0.097506 0.303006 
-0.384989 -0.079000 0.853020 
0.187427 -0.024653 1.139020 
0.125384 -0.144010 0.589989 
-0.133061 -0.144010 1.071919 
0.022081 -0.098411 1.134021 
0.403980 -0.144010 0.584065 
-0.195247 -0.127022 1.588027 
0.457500 0.149923 1.569112 
0.145172 -0.144010 0.640770 
0.088075 -0.132268 1.827523 
0.394763 0.085309 0.853020 
-0.247107 -0.144010 1.614352 
0.051804 -0.042515 0.076217 
0.001156 -0.144011 0.166955 
-0.400979 -0.088262 0.000021 
-0.447705 0.143381 0.280465 
0.135477 -0.144011 0.098121 
-0.403646 0.143381 0.015746 
-0.457500 0.120745 1.806585 
0.235991 -0.144010 1.179119 
0.453500 -0.036992 1.462600 
-0.055552 -0.144011 0.304190 
0.457500 0.112246 0.266486 
-0.359130 -0.131018 0.000021 
-0.074748 -0.039592 1.134021 
-0.425274 0.102956 1.139020 
-0.235121 -0.144010 1.160794 
0.185503 -0.144011 0.366739 
-0.036156 -0.144010 0.659078 
0.183619 0.067649 0.873022 
-0.059222 -0.076793 1.134021 
0.219663 0.053850 1.368025 
0.093232 0.138582 1.827523 
-0.374451 -0.059541 0.873022 
0.362566 0.143381 0.011686 
-0.453500 0.102096 0.101165 
-0.120425 -0.144011 0.186176 
0.144805 -0.144011 0.124526 
0.095454 0.135595 1.348023 
0.453500 -0.019547 1.029241 
-0.452225 0.155381 0.097458 
-0.457500 -0.048854 0.744881 
0.252246 -0.109388 1.583022 
0.427102 -0.109465 0.000021 
-0.267025 -0.144010 0.757404 
-0.457500 -0.151083 0.459485 
0.457500 0.060558 1.727181 
-0.118015 -0.144011 0.107436 
0.457500 0.055879 0.974319 
0.256257 -0.071319 1.588027 
-0.457500 -0.006624 1.050041 
-0.433582 0.155382 1.664706 
0.453500 0.029982 0.921191 
-0.286207 -0.083106 0.873022 
0.439526 0.127476 0.076217 
-0.331119 0.059545 1.831020 
0.453500 0.018022 1.009891 
-0.099081 0.113574 0.000021 
-0.277686 -0.144010 1.823722 
-0.457500 0.045180 0.421457 
-0.369523 -0.144011 0.282059 
-0.051863 0.143482 1.594915 
-0.155345 -0.069919 0.000021 
0.026549 -0.122925 1.139020 
-0.114068 -0.040124 1.139020 
-0.116881 -0.144010 0.478830 
0.080557 -0.094853 0.873022 
-0.457500 0.120680 0.373206 
0.453500 -0.011729 0.358342 
0.453500 0.084256 0.301879 
-0.157312 0.134030 0.853020 
-0.431500 0.010190 1.136093 
0.077111 0.117744 1.827523 
-0.457500 0.029849 1.598812 
0.423994 -0.144010 0.452252 
0.312541 -0.144010 0.401323 
-0.350786 -0.144010 1.204685 
-0.111704 -0.014020 1.134021 
-0.457500 -0.018944 1.173055 
0.228718 -0.048641 1.827523 
-0.457500 0.053136 0.569626 
-0.345756 0.143482 0.866312 
0.180932 -0.072571 1.831020 
0.457500 0.155165 1.158884 
-0.295663 -0.018395 1.368025 
-0.293465 0.091280 1.134021 
-0.361118 -0.000061 1.134021 
-0.104174 0.128940 0.873022 
-0.108696 -0.144010 0.660021 
0.275972 -0.070762 0.000021 
-0.453499 -0.118963 0.582451 
-0.279064 0.114677 1.363020 
0.457500 0.045520 0.607061 
0.353103 -0.144011 0.186457 
-0.457500 -0.131435 1.676661 
0.245633 -0.144010 1.793657 
-0.130363 -0.007504 1.363020 
-0.263778 -0.144010 1.063585 
-0.161588 -0.141685 1.831020 
-0.457500 -0.108885 0.207839 
-0.443446 0.143382 0.885327 
0.367879 -0.144010 1.353480 
0.441920 0.018113 1.827523 
0.290902 -0.135090 0.076217 
0.431500 -0.034622 1.365335 
0.150767 -0.144010 1.075771 
-0.431500 0.152048 0.516451 
-0.034468 -0.144010 0.559292 
-0.364360 -0.144010 1.383351 
0.424823 -0.076297 1.827523 
-0.436664 0.143382 1.253093 
-0.457500 -0.148511 1.015890 
0.149187 -0.144010 0.783636 
0.140113 0.140983 1.377422 
-0.193320 -0.120586 0.873022 
0.002530 -0.073946 1.588027 
0.358279 -0.096802 0.873022 
-0.457500 -0.014901 1.795021 
0.390279 -0.144010 1.696031 
0.383142 -0.131647 1.588027 
-0.000578 0.080443 1.583022 
-0.442021 -0.144010 1.029243 
-0.097545 0.143482 1.149013 
0.345474 -0.144011 0.122213 
-0.174561 0.143482 1.148219 
0.457500 -0.145808 0.489674 
0.249382 -0.144010 1.582733 
0.285662 0.114887 1.139020 
-0.281887 0.140651 1.568019 
-0.457500 -0.092307 0.525689 
-0.453500 -0.065841 0.693635 
-0.167640 -0.099595 0.076217 
0.412467 0.105728 0.853020 
-0.233837 0.095371 0.853020 
0.431500 -0.078969 1.583152 
0.430939 0.019216 1.363020 
0.263503 -0.144010 1.469166 
0.075487 -0.144011 0.276679 
0.457500 -0.046257 0.886507 
-0.257385 0.143482 0.882271 
0.063959 -0.144010 1.232494 
-0.233690 0.052875 0.853020 
0.015858 -0.032804 1.134021 
0.457500 -0.014595 1.664043 
-0.442002 0.136413 0.076217 
-0.370997 -0.144010 1.542082 
-0.227164 0.106053 0.873022 
-0.325375 -0.144010 0.936433 
-0.119839 -0.144010 1.522765 
-0.034288 -0.144011 0.287504 
-0.457500 0.051157 0.299517 
0.432246 0.155382 0.783925 
-0.100393 -0.140402 0.873022 
0.019191 -0.144010 1.491822 
0.453500 -0.095666 0.876692 
-0.437146 0.155381 0.470748 
0.274968 0.062823 0.873022 
0.237082 -0.144010 1.660819 
-0.084116 -0.122446 1.139020 
0.109761 -0.108430 0.076217 
-0.457500 0.002799 0.354207 
0.311317 -0.018567 0.853020 
-0.231523 -0.126591 0.873022 
-0.143034 -0.144010 0.842734 
-0.457500 -0.074261 0.292203 
0.094575 -0.025477 1.139020 
-0.221580 -0.144011 0.300433 
-0.431214 -0.144011 0.451957 
0.047981 0.002293 1.134021 
0.066716 0.019377 0.076217 
-0.213105 -0.144010 1.085428 
0.360922 0.026588 1.827523 
0.059024 -0.144010 0.511037 
0.453500 -0.087606 1.645351 
-0.336498 -0.144010 1.531500 
-0.359716 0.143482 1.145788 
0.239252 0.014734 1.588027 
-0.315023 -0.078435 1.583022 
0.286197 -0.037907 1.139020 
0.457500 0.115020 1.358176 
0.130288 -0.071846 1.134021 
-0.118144 -0.144010 1.762247 
0.146322 0.036767 0.076217 
0.205966 -0.144010 0.674560 
-0.440697 -0.144010 1.531678 
-0.457500 0.043805 1.055061 
-0.449786 0.143382 1.135602 
-0.083315 -0.144010 1.168472 
-0.345998 -0.144010 0.528917 
-0.248326 0.143482 1.370771 
-0.332333 -0.135815 0.076217 
0.346068 0.041216 1.588027 
0.439118 -0.144010 1.640801 
-0.199721 -0.037281 1.134021 
-0.457500 -0.051948 1.791236 
-0.402449 0.107455 0.000021 
-0.457500 -0.148132 0.542240 
0.453500 0.051066 1.361518 
-0.441878 -0.002650 0.076217 
-0.435215 -0.144010 1.166012 
-0.135517 -0.144010 0.679439 
-0.457500 -0.054139 0.082556 
-0.350760 -0.077068 0.076217 
-0.320771 -0.003457 0.000021 
-0.457500 0.065507 1.802202 
-0.245897 -0.144011 0.395865 
0.008106 0.134746 0.000021 
0.218821 0.143482 0.859453 
0.161633 0.148546 1.805019 
0.298772 0.133482 1.573898 
0.141491 -0.020040 1.363020 
0.139112 -0.144011 0.381587 
0.390655 0.080688 1.363020 
0.433079 -0.144011 0.278307 
0.457500 -0.104559 0.532881 
-0.457500 0.154703 0.779625 
-0.453499 -0.070657 0.384735 
-0.022760 -0.123843 1.368025 
0.416817 0.019108 1.134021 
-0.347508 -0.144010 1.095342 
-0.262719 0.143382 1.809305 
-0.453500 0.090140 0.147797 
-0.409696 0.143482 1.351779 
-0.297858 -0.115288 1.134021 
-0.289880 -0.144010 1.289762 
0.184565 0.091924 1.134021 
-0.234268 0.069508 0.873022 
0.058961 -0.144010 1.453532 
-0.259647 -0.031360 1.134021 
0.421941 0.011591 1.827523 
-0.457500 0.001598 0.052431 
-0.179847 0.009249 0.873022 
-0.182037 0.004935 0.853020 
0.319704 -0.100023 1.588027 
0.037677 -0.144010 1.410276 
-0.368922 -0.036227 0.873022 
0.353337 0.002402 1.827523 
0.075556 -0.144010 1.604245 
-0.080441 -0.144010 1.654229 
0.244465 0.002820 1.363020 
-0.444571 0.155382 1.679707 
0.152173 -0.000479 0.853020 
0.181438 0.054178 0.853020 
0.457500 -0.069929 1.263470 
-0.044669 0.038917 0.000021 
-0.269169 0.143482 1.121105 
0.022973 -0.144010 1.514285 
0.453500 -0.072943 0.773458 
-0.301878 0.023071 1.134021 
0.431500 -0.042822 0.857198 
0.431500 0.148187 0.723875 
0.108751 -0.144010 0.617859 
0.457500 -0.057111 0.605273 
-0.331384 -0.144011 0.323045 
-0.457500 0.152776 1.759731 
0.179076 -0.080544 1.363020 
-0.285353 -0.144010 1.390325 
0.457500 0.101840 1.206026 
0.311429 -0.144010 1.614071 
-0.070127 -0.144010 0.821484 
-0.218340 0.048835 0.873022 
0.142201 -0.144010 1.379098 
0.113968 0.046302 1.368025 
-0.012621 -0.144010 0.939523 
-0.166247 0.025119 1.134021 
-0.052759 -0.144010 0.467625 
0.015606 0.034254 1.588027 
0.114561 -0.006159 0.076217 
0.270749 -0.122302 0.076217 
-0.031246 -0.144010 1.307941 
-0.173810 -0.144010 0.524927 
0.240924 -0.144010 0.787543 
0.457500 0.102797 1.577653 
-0.120832 -0.144010 1.181104 
0.293191 -0.144010 0.501164 
-0.453499 -0.020954 1.693401 
-0.245859 0.007128 1.139020 
-0.202235 -0.144010 0.643610 
0.377390 0.007382 1.363020 
0.033746 0.099558 1.139020 
-0.431057 0.086926 1.583022 
-0.408521 -0.144011 0.269026 
-0.103390 -0.050099 1.583022 
0.457500 0.150476 0.097273 
-0.457500 -0.072159 1.750931 
-0.200780 -0.042122 1.363020 
0.199916 -0.144010 1.060977 
-0.453499 -0.117888 1.245144 
-0.075281 -0.061317 1.827523 
-0.270422 -0.144010 0.523791 
0.112158 0.048154 0.853020 
-0.233160 -0.144010 1.548167 
0.457500 -0.099015 0.626104 
-0.453499 -0.013333 1.775664 
-0.304937 -0.038775 1.368025 
-0.453500 -0.052850 0.342973 
0.405118 -0.144010 0.370445 
-0.457500 0.040904 0.727645 
0.153888 0.045311 1.588027 
0.000877 -0.144010 1.714384 
0.143716 0.140983 1.592920 
-0.457500 -0.151509 0.673601 
-0.453499 -0.129337 0.339877 
0.356605 0.086063 0.873022 
0.381604 0.088607 1.583022 
0.101892 0.033826 0.000021 
0.342280 -0.144010 1.086624 
0.457500 0.120097 1.385643 
-0.054425 -0.144010 1.306286 
-0.083363 -0.116048 1.831021 
0.336176 0.089418 1.368025 
-0.453500 -0.072131 0.715025 
0.361551 -0.106593 1.139020 
0.453500 0.121609 0.296304 
-0.453500 0.045953 1.702521 
-0.126271 -0.144010 1.729870 
0.162889 -0.041941 1.139020 
-0.457500 -0.084195 0.754631 
-0.457500 -0.058911 1.599419 
0.170569 -0.144010 1.206398 
0.037216 -0.144011 0.247815 
-0.011346 0.143381 0.018303 
0.402635 0.045697 1.827523 
-0.385420 -0.107408 1.583022 
0.453500 0.010790 0.683641 
0.155185 0.005787 1.139020 
0.166734 -0.144010 1.721427 
0.204872 -0.144010 0.779697 
0.387814 -0.144011 0.140618 
-0.457454 0.155382 1.585511 
0.260879 -0.139893 0.076217 
0.093943 0.078080 1.588027 
-0.333385 -0.089351 0.853020 
-0.302155 -0.144010 0.564430 
0.327351 -0.046649 1.368025 
0.024723 -0.095072 0.076217 
0.105572 -0.018588 1.588027 
0.043001 -0.144010 0.522510 
-0.351153 -0.144010 0.916950 
-0.453500 -0.008857 1.275621 
-0.083495 -0.051749 0.076217 
-0.366782 0.090138 1.827523 
0.365367 0.117633 1.363020 
-0.138915 -0.069251 0.853020 
0.409644 -0.021162 1.139020 
0.151228 -0.017815 1.831021 
0.076015 -0.144010 1.122383 
0.457500 0.019583 0.765000 
-0.457500 -0.083409 0.773075 
0.243712 -0.096396 0.000021 
-0.457500 -0.001396 0.832867 
0.217017 -0.144011 0.305101 
-0.415592 0.143381 0.069653 
-0.457500 -0.005429 0.377494 
0.130715 -0.094593 0.873022 
-0.115766 -0.144010 1.452835 
0.065980 0.052774 0.076217 
0.448949 0.155382 0.655989 
-0.342496 -0.053250 0.076217 
-0.036131 0.140983 0.877116 
-0.352498 0.119462 0.000021 
-0.457500 0.112049 0.968494 
0.342825 -0.067313 0.000021 
0.362366 0.143381 0.040867 
-0.281843 -0.080383 0.076217 
0.334019 0.088116 1.139020 
-0.213948 -0.061636 0.873022 
0.328816 0.063821 1.831020 
-0.268876 -0.111199 1.363020 
-0.150795 -0.004200 1.583022 
0.457500 -0.048051 1.684151 
0.281818 0.014210 1.139020 
-0.418161 0.073358 0.873022 
-0.248784 0.083594 0.853020 
0.326730 -0.084183 1.363020 
-0.457500 0.060296 0.128585 
-0.028144 0.081247 1.368025 
0.220008 -0.144010 1.757245 
-0.185136 -0.144011 0.167960 
0.351528 -0.144010 1.823435 
-0.457500 -0.048150 1.148817 
-0.236502 -0.144010 1.517922 
-0.014416 0.003322 1.368025 
0.453500 -0.024488 0.406683 
-0.256385 -0.144011 0.466141 
-0.176878 -0.057862 0.076217 
0.213450 0.068867 1.583022 
-0.282428 -0.118652 0.000021 
0.281833 -0.012349 0.000021 
-0.457500 0.020801 0.061110 
0.431500 -0.060241 1.586353 
-0.106760 -0.144010 0.694692 
-0.203280 0.013616 1.831021 
-0.453500 0.101763 1.342260 
0.228955 -0.144010 1.732249 
-0.065468 -0.144010 0.724997 
0.309756 0.142520 1.831021 
0.312895 -0.144010 1.275097 
0.317455 -0.144010 1.511725 
0.287428 -0.017693 1.139020 
0.457500 0.131408 1.497778 
0.202996 0.140983 1.371820 
-0.457500 0.044404 0.047122 
0.457500 -0.015835 0.809857 
0.438839 0.155381 0.066293 
-0.394605 -0.144011 0.467311 
-0.194194 0.130057 1.368024 
0.360687 0.135189 1.348023 
0.058521 -0.036214 1.134021 
-0.310601 -0.144010 1.719410 
-0.146077 -0.095403 0.076217 
-0.273238 -0.043750 1.588027 
0.041676 -0.022111 0.076217 
-0.453500 0.064927 0.286522 
0.453500 -0.074337 0.844391 
0.372921 0.130089 1.134021 
-0.225820 0.143381 0.060907 
-0.189326 -0.144010 1.582446 
-0.453499 -0.043513 1.561008 
-0.261554 -0.144010 1.695889 
0.298052 0.119936 1.588026 
0.453500 0.001935 1.546111 
0.377859 -0.016031 1.363020 
-0.457500 0.067939 1.667912 
0.236482 -0.022085 0.076217 
0.270318 -0.144010 0.985833 
-0.058169 -0.047166 1.134021 
-0.453500 0.013671 1.270997 
-0.002289 -0.010150 1.583022 
-0.457500 -0.031991 1.676146 
0.118229 0.049565 0.000021 
0.230762 -0.144010 1.294863 
-0.425754 -0.144010 1.103064 
-0.237839 -0.035910 0.000021 
0.048304 0.143482 1.591456 
-0.389367 0.006678 0.000021 
0.379063 -0.144011 0.120995 
-0.387955 -0.085847 1.588027 
-0.168609 -0.084815 1.363020 
-0.192963 -0.002985 1.583022 
-0.229975 0.143482 1.145523 
-0.222773 0.103042 1.583021 
-0.201204 0.061104 1.588027 
-0.453500 -0.043665 0.623675 
0.178063 0.005914 0.873022 
-0.341526 -0.144010 1.794663 
0.360169 0.054504 1.588026 
0.237669 -0.144010 1.065381 
-0.056328 0.018190 0.853020 
0.344883 -0.104115 0.000021 
-0.104061 0.096585 0.853020 
0.349849 -0.144011 0.165512 
-0.170704 -0.144011 0.292732 
-0.324532 0.097908 1.831021 
-0.372422 0.019564 0.873022 
-0.387722 -0.086545 0.076217 
0.453500 -0.129053 0.355216 
0.304874 0.082380 1.134021 
0.236326 -0.144010 0.942849 
-0.453500 0.085580 1.232280 
-0.323696 -0.144010 1.097794 
-0.214739 -0.144010 1.653714 
0.353106 -0.044265 0.000021 
0.194126 -0.144011 0.299751 
0.457500 0.008608 1.663318 
0.332528 -0.144011 0.196290 
-0.453500 0.111591 0.618037 
0.453500 -0.082258 1.563876 
0.380537 -0.106955 1.363020 
-0.021267 -0.144010 0.749255 
0.400320 -0.144010 0.923921 
-0.401172 0.083233 1.831020 
0.457500 0.077034 0.502274 
0.308629 -0.072887 0.000021 
0.024779 0.143381 0.053801 
-0.246044 -0.046115 1.139020 
0.332089 -0.144010 0.769228 
0.293295 0.054761 1.368025 
-0.431920 0.155381 0.358998 
0.063289 0.126262 1.368024 
-0.221443 -0.144011 0.241648 
0.457500 -0.011733 0.871767 
0.444052 -0.144010 0.797570 
-0.371393 0.044596 1.827523 
-0.036601 0.045031 1.134021 
0.244374 -0.035082 0.853020 
0.185393 -0.144011 0.255840 
-0.054753 -0.063163 1.831020 
-0.376553 0.143482 0.874928 
-0.280257 -0.144010 1.185983 
-0.157407 -0.132844 1.139020 
-0.269228 0.017334 0.853020 
-0.453500 -0.009580 1.118642 
-0.178466 -0.144010 1.227432 
0.313975 -0.144010 1.210783 
-0.453499 -0.126717 0.320058 
0.227592 -0.144010 1.412730 
-0.440476 -0.144010 1.725595 
0.080617 0.111957 0.873022 
-0.457500 0.151818 1.566076 
0.442603 -0.035478 0.076217 
0.004949 -0.014977 1.139020 
-0.022473 0.112255 1.583022 
-0.457500 0.057158 0.760977 
-0.453500 0.068429 0.447065 
0.453500 -0.015898 0.729298 
0.457500 0.035938 0.006796 
-0.018807 0.084504 1.588027 
-0.453499 -0.129113 0.606571 
0.253215 0.064139 0.853020 
-0.336530 0.069251 0.076217 
-0.007622 -0.032818 1.583022 
0.434420 -0.144010 1.756607 
-0.287256 -0.099039 1.139020 
-0.418941 -0.144010 1.582945 
-0.457500 0.069293 1.076695 
-0.453500 -0.020706 0.521326 
-0.122733 -0.110180 0.076217 
0.453500 0.118605 1.526115 
0.437255 -0.144011 0.300193 
-0.337735 -0.144010 0.658412 
0.139335 0.126919 1.139020 
0.435555 0.143382 1.306095 
0.453500 0.011532 0.610432 
-0.405851 -0.144010 0.594517 
0.086608 0.141808 0.000021 
-0.194756 0.048208 0.873022 
-0.387709 0.095655 1.831021 
0.202582 -0.075545 0.000021 
-0.248734 0.079200 1.134021 
-0.457500 0.084226 0.100245 
0.192666 -0.060522 1.368025 
-0.053333 -0.017473 1.134021 
0.035768 -0.103678 1.368025 
0.277663 -0.001379 1.827523 
0.453500 -0.040104 0.751741 
-0.457500 -0.027849 1.104157 
0.225247 -0.062771 0.000021 
-0.201954 -0.144010 0.563676 
0.191702 0.143482 0.875345 
-0.133600 0.050983 1.831020 
-0.384542 0.143482 1.139570 
-0.183468 -0.109884 1.363020 
0.029249 0.154383 1.805019 
-0.064129 -0.144010 0.599604 
0.150857 0.085746 1.827523 
-0.230097 -0.058426 1.139020 
-0.187408 -0.144010 1.703908 
0.306327 -0.144010 1.327965 
0.453500 0.029696 1.264771 
-0.145699 -0.030705 1.831021 
-0.066950 -0.139916 1.363020 
-0.138160 0.009549 1.368025 
0.127495 -0.038351 0.853020 
0.395501 0.143382 1.813930 
-0.006406 -0.150839 0.000021 
-0.177502 -0.015421 0.000021 
0.453500 0.086986 1.723157 
0.226453 0.038454 1.139020 
0.296735 -0.144010 0.723592 
0.453500 0.070304 1.429196 
0.269575 -0.135726 0.873022 
-0.332377 0.155382 1.813984 
0.356454 0.149307 1.805019 
-0.100868 0.103056 1.827523 
0.391745 0.140983 1.593718 
0.453500 0.081453 1.519013 
0.424409 -0.111192 0.853020 
0.095867 -0.144010 1.483480 
-0.235656 -0.144010 0.981494 
-0.024200 0.056050 0.853020 
0.117945 -0.144010 0.747433 
-0.235646 -0.144010 1.029820 
-0.239730 -0.144010 1.353657 
-0.225869 0.055097 1.139020 
-0.030660 -0.078747 1.588027 
-0.148798 0.110818 1.363020 
-0.457500 0.039511 1.100155 
-0.437773 0.155382 1.733835 
0.126236 -0.144010 1.347353 
0.457500 -0.048242 0.368875 
0.160792 -0.144010 1.652401 
0.194849 -0.144010 1.779188 
0.166044 -0.144010 0.978270 
0.129473 -0.144010 1.704085 
-0.457500 -0.074110 0.022178 
-0.439957 0.155381 0.074126 
-0.406730 -0.144010 0.908203 
-0.278600 0.139280 0.076217 
0.431500 0.150965 0.211651 
-0.453500 0.033117 1.451285 
-0.063751 0.116673 1.831021 
-0.143967 -0.144010 1.193238 
-0.457500 -0.130088 0.852829 
-0.235200 -0.144010 1.748963 
0.194450 -0.144010 1.201547 
0.362433 0.043101 1.368024 
-0.413297 0.048771 1.139020 
-0.265327 -0.144011 0.191728 
0.423810 -0.144011 0.174415 
0.408218 -0.135648 1.827523 
0.007933 0.077888 1.368025 
0.149130 -0.086344 1.134021 
0.457500 -0.135924 0.956066 
0.285468 0.028776 1.363020 
-0.453500 0.073097 0.746509 
-0.164706 0.010352 1.363020 
-0.457500 0.031455 1.079724 
-0.275296 -0.021873 0.873022 
-0.428777 0.081000 1.368024 
-0.453500 0.089334 0.828514 
-0.457500 0.134520 0.124173 
-0.457500 0.150651 1.039673 
-0.219895 0.129708 0.873022 
0.099758 -0.006912 0.000021 
-0.416518 -0.144010 1.433907 
0.457500 -0.124593 1.095248 
-0.036773 -0.093710 0.076217 
0.400360 -0.088578 0.076217 
0.453500 -0.029105 0.367563 
0.329524 0.103984 1.827523 
-0.361890 -0.103835 1.827523 
0.270279 -0.144010 1.278888 
0.143871 -0.144010 1.684598 
0.416163 0.134644 1.827523 
0.453500 -0.033750 0.670599 
0.453500 -0.057245 0.344159 
0.453500 0.042040 0.190480 
-0.457500 -0.117625 0.621106 
0.120171 0.066934 0.873022 
-0.178532 -0.144010 0.846814 
-0.319587 -0.001074 1.368025 
-0.211273 0.030298 0.000021 
-0.453499 -0.143458 1.167946 
-0.132512 -0.144010 1.090133 
-0.279419 -0.144011 0.241128 
-0.274181 -0.144010 0.965708 
-0.164092 0.071856 1.588027 
0.250215 -0.144010 0.713003 
-0.384743 -0.144011 0.114341 
0.388714 -0.144010 0.770806 
0.397450 -0.020198 1.363020 
0.457500 0.027039 0.836649 
0.404147 -0.144010 0.416513 
0.246261 -0.117867 0.076217 
-0.203636 -0.144010 0.838686 
-0.339330 -0.144010 1.232446 
-0.104840 -0.144011 0.082381 
0.345041 -0.144010 0.645548 
-0.321495 -0.115412 0.853020 
-0.132795 0.097752 0.076217 
0.457500 -0.070065 0.697320 
-0.099001 -0.144010 0.572476 
0.234095 -0.099004 1.134021 
-0.207564 0.141513 0.076217 
0.062387 -0.144010 1.180515 
0.350117 -0.144010 1.736589 
-0.316989 -0.144010 0.596577 
0.209369 -0.003879 1.831021 
-0.436850 -0.144010 1.756973 
0.225551 -0.059519 1.139020 
0.431500 -0.088429 0.871347 
-0.230245 -0.081344 1.134021 
-0.393027 -0.144010 1.371539 
0.224288 -0.144010 1.491620 
0.453500 0.087967 1.372029 
-0.451076 0.155382 1.181186 
-0.387823 -0.144010 1.083108 
0.009855 0.046164 1.368025 
0.283023 -0.102570 1.588027 
-0.146331 -0.144010 1.218782 
-0.261622 0.027971 1.139020 
-0.409792 -0.144010 1.561623 
-0.457500 -0.100265 0.575857 
-0.457500 0.149598 0.080769 
0.387640 -0.144010 1.357517 
0.230976 -0.144010 1.607732 
-0.431500 0.075316 1.137378 
0.241998 -0.048354 0.873022 
-0.316668 -0.144010 1.766730 
-0.202601 -0.144010 1.119009 
0.089929 0.014245 1.831021 
-0.024104 -0.144010 1.623741 
-0.453499 -0.009476 1.534524 
0.453500 0.002337 0.385609 
0.313888 0.004148 1.583022 
-0.431500 0.153585 0.429815 
0.453500 0.126518 1.447802 
-0.457500 -0.149630 0.565512 
-0.008324 -0.138612 1.368025 
-0.453500 0.110310 0.944025 
-0.137606 0.067567 1.368024 
0.457500 -0.126457 0.248031 
0.154591 0.143464 1.348023 
-0.024411 0.015746 1.827523 
-0.189623 0.034727 1.134021 
0.442971 0.077009 0.076217 
-0.140512 -0.001878 1.831020 
0.148015 0.143482 1.129956 
-0.052832 0.098915 1.588026 
-0.242387 0.128629 0.873022 
-0.088470 -0.033857 1.368025 
0.457500 -0.002943 1.306215 
-0.453500 0.130237 1.603787 
0.307198 -0.144010 0.971726 
0.253599 -0.049287 1.139020 
0.217283 -0.144010 0.892865 
0.377488 -0.144010 1.666831 
-0.457500 0.144162 1.081584 
-0.098495 -0.144010 1.523203 
-0.447035 -0.144010 1.789415 
-0.431500 0.148981 0.453547 
-0.244995 -0.144010 1.257030 
-0.457500 0.076401 1.053474 
0.195913 0.138627 0.000021 
-0.457500 -0.049520 1.652725 
0.457500 0.034008 1.544634 
-0.353884 -0.144010 1.067358 
0.065568 -0.136534 1.831021 
0.171844 -0.058849 0.000021 
-0.431500 0.131709 0.854554 
-0.251860 -0.065433 0.000021 
-0.391475 -0.119344 0.873022 
0.207876 -0.144011 0.120321 
-0.237318 -0.044382 0.076217 
-0.457500 0.054446 0.107429 
-0.076714 0.020567 1.583022 
0.100582 -0.079441 1.363020 
-0.420289 0.003177 0.000021 
-0.433299 -0.144010 1.234062 
0.457500 0.117170 1.548306 
0.293647 -0.021757 0.076217 
-0.453499 -0.085980 0.188022 
0.373540 -0.144010 0.636425 
-0.404301 -0.002817 0.076217 
-0.249420 -0.144011 0.149336 
-0.011125 0.142846 0.883019 
-0.241822 -0.144010 1.575718 
-0.457500 0.150185 0.052935 
-0.428407 -0.088685 0.076217 
-0.238911 -0.144010 1.407845 
0.124269 0.099221 0.076217 
-0.407088 -0.048314 1.134021 
0.457500 0.121186 0.840786 
0.453500 -0.030984 1.009327 
-0.111882 -0.150469 0.000021 
0.196148 -0.058060 1.831020 
0.059247 0.135016 0.853020 
0.415451 -0.144010 0.904190 
-0.169992 0.079223 1.363020 
-0.007077 -0.031867 1.827523 
-0.354879 -0.094671 0.853020 
0.383954 0.124122 0.873022 
0.407157 -0.144010 1.544272 
0.157288 -0.144010 0.520820 
0.116384 -0.144010 1.725763 
-0.039852 0.067863 0.853020 
-0.453499 -0.071314 0.949894 
-0.029052 -0.093124 0.873022 
0.204686 -0.025354 1.588026 
-0.004335 -0.065987 1.134021 
0.396935 -0.144010 0.842500 
0.143717 0.104004 0.076217 
0.314613 -0.110919 0.076217 
-0.008718 -0.144010 1.002213 
-0.246725 -0.144010 1.805007 
0.457500 0.146131 0.853326 
-0.363933 -0.144010 1.475315 
0.453500 -0.038685 0.196236 
-0.453499 0.047539 0.842264 
0.309104 -0.051221 1.588027 
-0.188673 -0.122016 0.000021 
-0.450413 0.155382 0.739138 
0.041042 -0.144010 0.587026 
-0.457500 0.127163 1.511342 
0.257536 0.056282 1.134021 
-0.036584 -0.144010 0.759095 
0.030626 -0.024468 1.827523 
-0.100085 -0.067338 1.831020 
-0.277423 0.018111 1.134021 
0.100452 0.155382 1.829120 
-0.270377 -0.144010 0.885786 
-0.241937 -0.144010 0.944092 
-0.386568 -0.144010 1.269702 
0.066784 -0.037258 0.853020 
0.430213 -0.144010 1.527713 
0.254570 -0.144010 1.158713 
0.392748 0.095746 0.873022 
-0.082072 0.143482 1.377512 
-0.453499 -0.031318 1.186999 
-0.306970 -0.144010 1.813275 
-0.457500 0.082627 1.720341 
0.270904 -0.144010 0.379144 
0.429606 -0.144011 0.316807 
0.239874 0.143382 1.816379 
0.102212 -0.144010 0.779425 
-0.345205 -0.144010 1.031177 
0.348214 -0.144011 0.273511 
-0.385289 -0.023854 0.853020 
0.457500 0.011402 0.236816 
0.030806 0.143381 0.024842 
-0.020927 -0.140014 1.831021 
0.084595 -0.144010 1.102203 
-0.453499 -0.063490 1.526246 
-0.079737 0.066475 0.000021 
0.207530 -0.144011 0.326459 
-0.183338 -0.144010 1.755450 
-0.033879 -0.009537 1.368025 
0.134380 0.143381 0.015039 
0.075888 0.107515 1.363020 
-0.457500 -0.094453 1.443545 
-0.276363 -0.018827 0.076217 
0.457500 0.082148 0.958297 
0.376186 -0.144010 1.379727 
-0.179639 -0.144010 1.073138 
-0.238266 0.100777 0.000021 
-0.424170 -0.144010 1.076760 
-0.388208 -0.144011 0.491924 
-0.004170 -0.144010 1.450239 
0.147477 -0.144010 0.500278 
0.453500 -0.119596 1.076391 
0.176619 -0.037919 1.368025 
-0.322991 0.143381 0.066529 
0.051603 -0.069675 1.134021 
0.108349 -0.138328 1.363020 
0.390743 -0.144010 1.191646 
0.192440 -0.021475 1.368025 
-0.222351 -0.107606 0.000021 
0.457500 -0.096352 1.366003 
-0.366320 -0.144011 0.353281 
-0.041737 0.020002 1.583022 
0.414972 -0.144010 1.072765 
-0.152948 0.074102 0.076217 
-0.246985 -0.144010 1.210641 
-0.098423 0.107837 0.873022 
0.278789 -0.144011 0.303697 
-0.118542 0.143482 1.372542 
-0.371090 -0.144010 1.217557 
-0.322066 -0.144010 1.127101 
-0.457500 0.066348 0.981141 
0.298029 0.014980 1.363020 
-0.432229 -0.058697 0.076217 
0.317717 -0.144010 1.184687 
0.176103 -0.144010 1.614837 
0.123133 0.140983 1.370505 
0.198983 0.052845 1.139020 
-0.423624 -0.110788 0.853020 
0.082862 -0.073928 0.076217 
0.398291 0.140983 0.876264 
-0.164526 -0.144010 0.924546 
-0.457500 -0.119083 0.491513 
0.453500 -0.060796 0.532982 
-0.076333 0.014893 1.139020 
0.059502 0.073652 0.853020 
-0.396731 0.058191 1.827523 
0.046058 -0.144010 1.620479 
0.321665 -0.144011 0.128390 
-0.251558 -0.144010 0.969195 
-0.370081 0.073619 1.368025 
0.049180 0.038273 0.076217 
0.092094 0.098800 0.076217 
-0.457500 -0.043247 0.666790 
0.247708 0.083479 1.588026 
0.453500 0.004922 1.053680 
0.248430 -0.144010 0.679656 
0.034517 -0.117890 0.853020 
0.203119 -0.144010 0.508485 
-0.045832 -0.075064 0.853020 
-0.358602 -0.024934 0.000021 
0.084364 0.143381 0.019143 
0.087077 -0.047100 1.139020 
0.453500 0.089090 0.457393 
0.431500 0.008165 0.871652 
-0.316109 -0.144010 0.537089 
0.347507 -0.144010 1.637300 
0.060397 -0.144010 0.921003 
-0.453500 0.126211 0.107051 
0.398664 -0.144010 0.391889 
0.454592 -0.132087 1.831021 
0.211025 0.112579 1.368024 
-0.457500 0.140361 1.319342 
0.457500 0.094095 1.531659 
-0.094637 0.140983 1.592069 
0.001154 -0.128756 0.000021 
-0.033932 -0.144010 1.273384 
-0.128208 0.124517 0.853020 
-0.329527 -0.144011 0.168851 
0.453500 -0.011231 0.687562 
-0.457500 0.135360 0.321436 
0.054393 -0.144010 1.160777 
0.453500 -0.045918 0.839354 
-0.453499 -0.016684 1.381866 
0.041047 -0.015638 1.139020 
-0.256424 0.143381 0.008014 
-0.431500 0.150784 0.734330 
-0.409762 -0.144011 0.288103 
-0.387765 -0.098675 0.873022 
0.214434 0.049005 0.076217 
-0.025940 0.040939 0.873022 
0.177862 -0.144010 0.779738 
-0.102405 0.143381 0.057881 
0.453500 -0.006834 1.085493 
0.128899 0.092882 0.853020 
-0.233390 -0.090738 0.000021 
0.404631 -0.040819 1.134021 
0.457500 0.150023 1.218644 
0.364631 -0.144010 1.154835 
