# .PCD v0.7 - Point Cloud Data file format
VERSION .7
FIELDS x y z normal_x normal_y normal_z rgb segment
TYPE F F F F F F F F
POINTS 675
HEIGHT 1
VIEWPOINT 0 0 0 1 0 0 0
WIDTH 675
DATA ascii
0.0241844 -0.0390671 0.395 0.625585 -0.646857 -0.436141 6.25058e+06 0 
0.0258469 -0.0387704 0.392 0.843045 -0.116192 -0.525143 6.57981e+06 0 
0.0254324 -0.0356054 0.36 0.664051 0.521498 -0.535794 9.08144e+06 0 
0.0269019 -0.0353087 0.357 0.534713 0.609452 -0.585364 9.47569e+06 0 
0.0290636 -0.0359021 0.363 0.537456 0.626907 -0.564029 9.60702e+06 0 
0.0318753 -0.0371879 0.376 0.513385 0.811631 -0.278732 9.47569e+06 0 
0.0339146 -0.0374846 0.379 0.451836 0.822358 -0.345792 9.54148e+06 0 
0.0357938 -0.0375835 0.38 0.39952 0.844471 -0.356725 9.21206e+06 0 
0.0378802 -0.0378802 0.383 0.259492 0.836157 -0.483225 8.75252e+06 0 
0.0386479 -0.0368912 0.373 0.548817 0.821395 -0.155273 8.48934e+06 0 
0.0393214 -0.0359021 0.363 0.474796 0.0677331 -0.877485 8.35701e+06 0 
0.03756 -0.0315504 0.319 -0.925306 -0.319356 -0.204501 8.95013e+06 2 
0.0384501 -0.0310558 0.314 -0.765281 -0.379536 -0.519902 9.5423e+06 2 
0.0400561 -0.0311548 0.315 -0.739789 -0.371707 -0.560844 9.60835e+06 2 
0.0412759 -0.0309569 0.313 -0.610369 -0.433213 -0.663156 9.80548e+06 2 
0.0422037 -0.0305613 0.309 -0.670481 -0.427726 -0.606223 9.73814e+06 2 
0.0433765 -0.0303635 0.307 -0.671557 -0.444042 -0.59316 9.86973e+06 2 
0.0448223 -0.0303635 0.307 -0.658501 -0.434695 -0.614342 9.86916e+06 2 
0.0456654 -0.0299679 0.303 -0.712226 -0.456971 -0.532833 9.60656e+06 2 
0.0472478 -0.0300668 0.304 -0.703612 -0.459572 -0.541963 9.86945e+06 2 
0.0478789 -0.0295723 0.299 -0.661322 -0.513013 -0.547239 1.01334e+07 2 
0.0487926 -0.0292756 0.296 -0.606199 -0.495552 -0.622054 1.01334e+07 2 
0.051204 -0.029869 0.302 -0.67841 -0.43398 -0.592809 1.01334e+07 2 
0.0526263 -0.029869 0.302 -0.676683 -0.438683 -0.591318 1.01334e+07 2 
0.0526169 -0.0290778 0.294 -0.545105 -0.489208 -0.680835 1.0001e+07 2 
0.0543689 -0.0292756 0.296 -0.542602 -0.495479 -0.678295 1.00671e+07 2 
0.0559514 -0.0293745 0.297 -0.55056 -0.47218 -0.688425 1.0001e+07 2 
0.056964 -0.0291767 0.295 -0.553234 -0.448447 -0.702017 9.93522e+06 2 
0.0571665 -0.0285832 0.289 -0.531282 -0.45267 -0.716121 9.93522e+06 2 
0.0591352 -0.02888 0.292 -0.556762 -0.460794 -0.691148 1.01318e+07 2 
0.0603032 -0.0287811 0.291 -0.566539 -0.453681 -0.687901 9.86916e+06 2 
0.0610379 -0.0284843 0.288 -0.568781 -0.469431 -0.675369 9.86916e+06 2 
0.0626109 -0.0285832 0.289 -0.591661 -0.424295 -0.6855 9.73814e+06 2 
0.0630866 -0.0281876 0.285 -0.545178 -0.357726 -0.758164 1.00658e+07 2 
0.0635246 -0.027792 0.281 -0.514849 -0.313232 -0.798008 9.93447e+06 2 
0.0653096 -0.0279898 0.283 -0.55002 -0.294554 -0.781483 9.93447e+06 2 
0.0668779 -0.0280887 0.284 -0.578523 -0.212487 -0.787503 1.05259e+07 2 
0.0686959 -0.0282865 0.286 -0.476715 -0.180478 -0.860331 1.05259e+07 2 
0.0700428 -0.0282865 0.286 -0.452409 -0.161838 -0.877003 1.14397e+07 2 
0.0688937 -0.0272975 0.276 -0.334022 -0.0714813 -0.939851 1.50383e+07 2 
0.0709565 -0.0275942 0.279 -0.385947 -0.0592712 -0.920615 1.52349e+07 2 
0.0722705 -0.0275942 0.279 -0.267188 -0.0445552 -0.962614 1.53005e+07 2 
0.0730571 -0.0273964 0.277 -0.431798 -0.0138919 -0.901864 1.56944e+07 2 
0.0754355 -0.027792 0.281 -0.127717 -0.0465589 -0.990717 1.57595e+07 2 
0.0767589 -0.027792 0.281 0.984494 0.0823556 -0.154883 1.57602e+07 2 
-0.0147037 -0.0420106 0.446 -0.914881 -0.214231 -0.342194 8.34847e+06 0 
-0.0123771 -0.0412571 0.438 -0.920249 -0.217476 -0.325341 7.76073e+06 0 
-0.0103143 -0.0412571 0.438 -0.933566 -0.190744 -0.303432 8.08867e+06 0 
-0.00796883 -0.0398442 0.423 -0.90895 -0.12372 -0.398124 8.8134e+06 0 
-0.00592011 -0.0394674 0.419 -0.647156 0.127999 -0.751536 8.8134e+06 0 
-0.00389964 -0.0389964 0.414 -0.37557 0.171841 -0.910724 9.40625e+06 0 
-0.00197337 -0.0394674 0.419 -0.145053 0.329141 -0.933073 9.60367e+06 0 
0 -0.03975 0.422 0.116169 0.319982 -0.940275 8.75091e+06 0 
0.00195924 -0.0391848 0.416 -0.300962 0.593949 -0.746087 8.81618e+06 0 
0.00391848 -0.0391848 0.416 -0.465608 0.553324 -0.690682 9.2097e+06 0 
0.00586359 -0.0390906 0.415 -0.53508 0.566688 -0.626542 9.2097e+06 0 
0.00755438 -0.0377719 0.401 0.205685 0.973192 -0.102914 9.40885e+06 0 
0.00963136 -0.0385255 0.409 -0.919211 0.125884 -0.373101 9.21174e+06 0 
0.0115859 -0.0386196 0.41 -0.881344 0.40723 -0.239574 9.08065e+06 0 
0.0134839 -0.0385255 0.409 -0.992771 0.00482916 -0.119928 8.42273e+06 0 
0.014732 -0.03683 0.391 -0.425586 -0.600201 -0.677227 6.25108e+06 0 
0.0165311 -0.0367358 0.39 -0.31453 -0.651426 -0.690445 6.44873e+06 0 
0.0182266 -0.0364532 0.387 -0.510898 -0.714265 -0.478339 6.58006e+06 0 
0.0203083 -0.0369241 0.392 0.122884 -0.714161 -0.689111 6.97533e+06 0 
0.0219849 -0.0366416 0.389 0.29954 -0.581253 -0.756585 7.04113e+06 0 
0.0240007 -0.0369241 0.392 0.440342 -0.454393 -0.774355 7.30404e+06 0 
0.0258469 -0.0369241 0.392 0.663 -0.403832 -0.630357 7.30404e+06 0 
0.0256444 -0.0341925 0.363 0.723525 0.531287 -0.440733 9.01518e+06 0 
0.0272787 -0.0340983 0.362 0.702223 0.560523 -0.438973 9.47547e+06 0 
0.0296241 -0.0348519 0.37 0.583048 0.780627 -0.225114 9.47547e+06 0 
0.0321297 -0.0356996 0.379 0.422894 0.839565 -0.341017 9.47547e+06 0 
0.0340936 -0.035888 0.381 0.424275 0.816204 -0.392175 9.21177e+06 0 
0.0356996 -0.0356996 0.379 0.483417 0.81402 -0.321993 8.55433e+06 0 
0.0377813 -0.0359822 0.382 0.42089 0.816006 -0.396214 8.55486e+06 0 
0.037819 -0.0343809 0.365 0.494279 0.724293 -0.480717 8.35772e+06 0 
0.0369712 -0.029577 0.314 -0.83402 -0.361009 -0.417233 9.41066e+06 2 
0.0382052 -0.0293886 0.312 -0.752406 -0.408543 -0.516699 9.41066e+06 2 
0.0396746 -0.0293886 0.312 -0.671284 -0.446562 -0.591575 9.54334e+06 2 
0.0404847 -0.0289176 0.307 -0.623324 -0.514058 -0.589246 9.80415e+06 2 
0.0415208 -0.0286351 0.304 -0.664728 -0.499174 -0.555844 9.93524e+06 2 
0.0430939 -0.0287292 0.305 -0.644557 -0.510858 -0.568832 9.93524e+06 2 
0.0451143 -0.029106 0.309 -0.642618 -0.486003 -0.592319 9.935e+06 2 
0.0456654 -0.0285409 0.303 -0.708246 -0.503256 -0.495097 9.86916e+06 2 
0.0470924 -0.0285409 0.303 -0.706204 -0.498323 -0.502941 9.93524e+06 2 
0.0478789 -0.0281641 0.299 -0.660017 -0.504725 -0.556445 9.9355e+06 2 
0.0491223 -0.0280699 0.298 -0.631864 -0.51363 -0.580458 1.00018e+07 2 
0.0508649 -0.0282583 0.3 -0.649216 -0.514403 -0.560276 9.93597e+06 2 
0.0521036 -0.0281641 0.299 -0.557501 -0.535379 -0.634478 9.93546e+06 2 
0.052259 -0.0275047 0.292 -0.552101 -0.457325 -0.697165 9.9355e+06 2 
0.0538179 -0.0275989 0.293 -0.547367 -0.498003 -0.672594 1.00674e+07 2 
0.0555746 -0.0277873 0.295 -0.510641 -0.49073 -0.705995 1.00016e+07 2 
0.0563847 -0.0275047 0.292 -0.5089 -0.478601 -0.715515 1.01331e+07 2 
0.0565731 -0.0269396 0.286 -0.589316 -0.434411 -0.681171 1.01331e+07 2 
0.0589326 -0.0274105 0.291 -0.551991 -0.456943 -0.697502 1.01331e+07 2 
0.0598887 -0.0272221 0.289 -0.581898 -0.459941 -0.670708 1.02647e+07 2 
0.0608259 -0.0270338 0.287 -0.553297 -0.416403 -0.721437 1.03305e+07 2 
0.061961 -0.0269396 0.286 -0.528512 -0.356939 -0.77024 1.03305e+07 2 
0.0628652 -0.0267512 0.284 -0.508551 -0.312815 -0.802198 1.06592e+07 2 
0.0635246 -0.0264686 0.281 -0.51722 -0.247209 -0.819372 1.09219e+07 1 
0.0653096 -0.026657 0.283 -0.495453 -0.208013 -0.843361 1.09869e+07 2 
0.0661715 -0.0264686 0.281 -0.493835 -0.15337 -0.855923 1.15055e+07 1 
0.0682155 -0.0267512 0.284 -0.484013 -0.0860991 -0.870815 1.22341e+07 2 
0.0690632 -0.0265628 0.282 -0.403275 -0.0399406 -0.914207 9.99231e+06 2 
0.0693929 -0.026186 0.278 -0.336711 -0.0660972 -0.939285 1.41198e+07 1 
0.0709565 -0.0262802 0.279 -0.286295 0.0434406 -0.957156 1.44485e+07 1 
0.0717525 -0.0260918 0.277 -0.28877 0.0237624 -0.957104 1.56937e+07 1 
0.0727933 -0.0259976 0.276 -0.205784 0.14923 -0.967152 1.58257e+07 1 
0.0746301 -0.026186 0.278 -0.258597 0.136662 -0.956269 1.56939e+07 1 
0.0767589 -0.0264686 0.281 0.979402 0.106126 -0.17178 1.56954e+07 2 
-0.0146378 -0.0397311 0.444 -0.865066 -0.197269 -0.461244 8.01695e+06 0 
-0.0122641 -0.0388363 0.434 -0.888663 -0.31721 -0.331143 7.49858e+06 0 
-0.0101259 -0.0384784 0.43 -0.8648 -0.157682 -0.476715 7.89151e+06 0 
-0.00789348 -0.037494 0.419 -0.849159 -0.0184519 -0.527815 8.87791e+06 0 
-0.00590598 -0.0374045 0.418 -0.423922 0.370709 -0.826356 9.2729e+06 0 
-0.00389022 -0.0369571 0.413 -0.12309 0.450435 -0.884284 9.40549e+06 0 
-0.00196866 -0.0374045 0.418 -0.145425 0.702497 -0.69667 9.40678e+06 0 
0 -0.0375835 0.42 -0.0453384 0.748308 -0.6618 8.88198e+06 0 
0.00197337 -0.037494 0.419 -0.0898142 0.811507 -0.577399 8.75096e+06 0 
0.0039279 -0.0373151 0.417 -0.285411 0.853956 -0.435086 8.68619e+06 0 
0.00590598 -0.0374045 0.418 -0.430199 0.794432 -0.428728 8.68619e+06 0 
0.00770509 -0.0365992 0.409 -0.606641 0.711583 -0.354452 8.09561e+06 0 
0.00967846 -0.0367781 0.411 -0.268033 0.754052 -0.599636 6.25135e+06 0 
0.0117272 -0.0371361 0.415 -0.445648 0.771946 -0.453319 6.5163e+06 0 
0.0138136 -0.037494 0.419 -0.367504 0.907069 -0.205343 7.10845e+06 0 
0.014845 -0.0352569 0.394 -0.543936 -0.479417 -0.688689 6.51452e+06 0 
0.0163192 -0.0344516 0.385 -0.765923 -0.446512 -0.46259 7.04087e+06 0 
0.0179911 -0.0341831 0.382 -0.682658 -0.35038 -0.641258 7.36981e+06 0 
0.0198938 -0.0343621 0.384 -0.505216 -0.600409 -0.619891 7.30402e+06 0 
0.0215328 -0.0340936 0.381 -0.473815 -0.355089 -0.805861 7.76404e+06 0 
0.0239395 -0.0349885 0.391 0.54134 -0.597148 -0.591917 7.63278e+06 0 
0.0261106 -0.0354359 0.396 0.787158 -0.432876 -0.439318 7.76404e+06 0 
0.0264921 -0.0335567 0.375 -0.497874 -0.864641 -0.0672117 8.15986e+06 0 
0.0278815 -0.0331093 0.37 0.673826 0.722013 -0.15702 9.80415e+06 0 
0.0304247 -0.0340041 0.38 0.408547 0.839456 -0.358334 8.42355e+06 0 
0.0324688 -0.0342726 0.383 0.428076 0.798525 -0.423211 9.60702e+06 0 
0.0346305 -0.0346305 0.387 0.433406 0.79286 -0.428407 9.34358e+06 0 
0.0360764 -0.0342726 0.383 0.495541 0.773279 -0.395574 8.6854e+06 0 
0.0377813 -0.0341831 0.382 0.448013 0.806023 -0.386795 8.48832e+06 0 
0.0376118 -0.0324829 0.363 0.1004 -0.706567 -0.700488 8.15936e+06 0 
0.0368535 -0.0280087 0.313 -0.852423 -0.36277 -0.376527 9.08198e+06 2 
0.0382052 -0.0279192 0.312 -0.757339 -0.428356 -0.492898 9.5423e+06 2 
0.0394203 -0.0277402 0.31 -0.699756 -0.472043 -0.536206 9.73885e+06 2 
0.0404847 -0.0274718 0.307 -0.619068 -0.518088 -0.590203 1.00016e+07 2 
0.0415208 -0.0272033 0.304 -0.654118 -0.516075 -0.552988 1.00016e+07 2 
0.0432352 -0.0273823 0.306 -0.637742 -0.519641 -0.568558 9.936e+06 2 
0.0448223 -0.0274718 0.307 -0.627563 -0.526572 -0.573486 9.93626e+06 2 
0.045364 -0.0269348 0.301 -0.699523 -0.510036 -0.50053 9.93626e+06 2 
0.0467816 -0.0269348 0.301 -0.696599 -0.516001 -0.498491 9.87099e+06 2 
0.0469182 -0.026219 0.293 -0.618639 -0.388264 -0.683034 9.93626e+06 2 
0.0486278 -0.0263979 0.295 -0.615378 -0.470799 -0.632185 1.00018e+07 2 
0.0510345 -0.0269348 0.301 -0.632478 -0.561362 -0.533707 1.00018e+07 2 
0.0522778 -0.0268454 0.3 -0.601488 -0.541446 -0.587408 1.0001e+07 2 
0.052259 -0.0261295 0.292 -0.557937 -0.436541 -0.705789 9.9355e+06 2 
0.0536342 -0.0261295 0.292 -0.545887 -0.448309 -0.707832 9.86916e+06 2 
0.0555746 -0.0263979 0.295 -0.513874 -0.490936 -0.703502 9.73814e+06 2 
0.0561916 -0.02604 0.291 -0.525166 -0.432759 -0.732748 1.02645e+07 2 
0.0563753 -0.0255031 0.285 -0.594019 -0.330725 -0.733323 1.01342e+07 1 
0.0589326 -0.02604 0.291 -0.550368 -0.454622 -0.700296 1.05274e+07 2 
0.0598887 -0.025861 0.289 -0.573394 -0.401622 -0.714086 1.00684e+07 2 
0.0604021 -0.0255031 0.285 -0.554578 -0.323773 -0.76656 1.03316e+07 1 
0.061961 -0.0255926 0.286 -0.522126 -0.294855 -0.800278 1.06598e+07 1 
0.063308 -0.0255926 0.286 -0.460776 -0.268679 -0.845871 1.06598e+07 1 
0.0637507 -0.0252346 0.282 -0.47045 -0.18132 -0.863597 1.09214e+07 1 
0.064848 -0.0251452 0.281 -0.467233 -0.143907 -0.872344 1.11848e+07 1 
0.0661715 -0.0251452 0.281 -0.46464 -0.0748399 -0.882331 1.20376e+07 1 
0.0684557 -0.0255031 0.285 -0.425303 0.00786351 -0.905017 1.20376e+07 1 
0.0702877 -0.0256821 0.287 -0.352646 0.0910951 -0.931312 1.1835e+07 1 
0.0703914 -0.0252346 0.282 -0.248477 0.115703 -0.961703 1.26117e+07 1 
0.0722282 -0.0254136 0.284 -0.18204 0.183842 -0.965952 1.39234e+07 1 
0.0714934 -0.0246977 0.276 -0.184745 0.107006 -0.976944 1.56289e+07 1 
0.0730571 -0.0247872 0.277 -0.149559 0.203006 -0.967688 1.57599e+07 1 
0.075167 -0.0250557 0.28 -0.159605 0.299147 -0.940764 1.56944e+07 1 
0.0781247 -0.0255926 0.286 0.989462 0.122691 -0.0768906 1.56291e+07 2 
-0.0145389 -0.0373857 0.441 -0.893151 -0.28938 -0.344297 8.80522e+06 0 
-0.0121793 -0.036538 0.431 -0.86131 -0.214581 -0.460544 8.08919e+06 0 
-0.0100317 -0.0361141 0.426 -0.849627 0.174155 -0.497799 8.94218e+06 0 
-0.00787464 -0.0354359 0.418 -0.871199 -0.218228 -0.43976 9.33741e+06 0 
-0.00590598 -0.0354359 0.418 -0.391639 0.531833 -0.750848 9.40397e+06 0 
-0.00394674 -0.0355207 0.419 0.0375637 0.836314 -0.546962 9.47155e+06 0 
-0.0019875 -0.035775 0.422 0.00184547 0.8188 -0.574075 9.2097e+06 0 
0 -0.0360293 0.425 -0.0876779 0.819081 -0.566939 9.2097e+06 0 
0.00200163 -0.0360293 0.425 -0.14142 0.830133 -0.539332 8.55433e+06 0 
0.00399384 -0.0359445 0.424 -0.19912 0.856469 -0.476248 8.35744e+06 0 
0.0059625 -0.035775 0.422 -0.213174 0.870433 -0.443737 7.36981e+06 0 
0.00781812 -0.0351816 0.415 -0.349807 0.842008 -0.41068 6.25238e+06 0 
0.0100081 -0.0360293 0.425 -0.0347424 0.94267 -0.331913 6.25238e+06 0 
0.0120098 -0.0360293 0.425 0.00931267 0.970065 -0.242667 6.51529e+06 0 
0.0145059 -0.0326383 0.385 -0.849374 -0.234348 -0.47291 6.7777e+06 0 
0.0163192 -0.0326383 0.385 -0.758479 -0.38177 -0.528168 6.7777e+06 0 
0.017944 -0.0322992 0.381 -0.675189 -0.270857 -0.686117 7.23774e+06 0 
0.0196866 -0.0322144 0.38 -0.661006 -0.137638 -0.737649 7.63375e+06 0 
0.0214763 -0.0322144 0.38 -0.521872 -0.265061 -0.810797 7.76483e+06 0 
0.0231435 -0.0320449 0.378 -0.515089 -0.546992 -0.659911 8.09407e+06 0 
0.0250557 -0.0322144 0.38 0.350961 0.935913 -0.0298853 8.09407e+06 0 
0.0258563 -0.0310276 0.366 0.739273 0.60733 -0.290905 8.68694e+06 0 
0.0276554 -0.0311124 0.367 0.693839 0.675654 -0.249158 9.01564e+06 0 
0.0303447 -0.0321297 0.379 0.41272 0.873835 -0.257049 8.88434e+06 0 
0.0326383 -0.0326383 0.385 0.406348 0.813321 -0.416401 9.01564e+06 0 
0.03472 -0.0328926 0.388 0.377464 0.817425 -0.435129 8.75252e+06 0 
0.0364532 -0.0328079 0.387 0.382426 0.813102 -0.438879 8.48906e+06 0 
0.0377813 -0.032384 0.382 0.555156 0.723616 -0.410099 8.35725e+06 0 
0.036618 -0.026365 0.311 -0.805001 -0.3885 -0.448376 9.4107e+06 2 
0.0379603 -0.0262802 0.31 -0.730317 -0.433174 -0.528202 9.60781e+06 2 
0.039166 -0.0261106 0.308 -0.69472 -0.464836 -0.548901 9.9355e+06 2 
0.0402209 -0.0258563 0.305 -0.659113 -0.515483 -0.547583 9.93522e+06 2 
0.0415208 -0.0257715 0.304 -0.667709 -0.51946 -0.533222 9.93522e+06 2 
0.043659 -0.0261954 0.309 -0.619376 -0.53369 -0.575803 9.93597e+06 2 
0.0446763 -0.0259411 0.306 -0.626411 -0.531128 -0.570536 9.86995e+06 2 
0.0449118 -0.0252629 0.298 -0.684753 -0.46465 -0.561439 9.7394e+06 2 
0.0464707 -0.0253477 0.299 -0.686975 -0.464092 -0.559181 9.7394e+06 2 
0.0470783 -0.0249238 0.294 -0.63691 -0.397301 -0.660679 9.93626e+06 1 
0.0486278 -0.0250086 0.295 -0.625618 -0.431829 -0.649712 9.93626e+06 2 
0.0501867 -0.0250934 0.296 -0.609301 -0.448173 -0.654135 1.0001e+07 2 
0.051755 -0.0251781 0.297 -0.579679 -0.480945 -0.657772 1.01321e+07 2 
0.051901 -0.0245847 0.29 -0.557676 -0.337546 -0.758327 1.0461e+07 1 
0.0530832 -0.0244999 0.289 -0.532356 -0.352433 -0.769667 1.04613e+07 1 
0.0550095 -0.0247543 0.292 -0.537172 -0.407917 -0.738275 1.04616e+07 1 
0.0556123 -0.0244152 0.288 -0.566976 -0.332659 -0.753575 1.04616e+07 1 
0.0561775 -0.0240761 0.284 -0.606948 -0.253924 -0.753085 1.0855e+07 1 
0.0587301 -0.0245847 0.29 -0.584498 -0.369447 -0.722407 1.0855e+07 2 
0.0596815 -0.0244152 0.288 -0.566548 -0.271692 -0.77795 1.09869e+07 1 
0.060614 -0.0242456 0.286 -0.532633 -0.253433 -0.807511 1.10529e+07 1 
0.0626109 -0.0244999 0.289 -0.53432 -0.302288 -0.789382 1.10529e+07 1 
0.0637507 -0.0244152 0.288 -0.448373 -0.206786 -0.869598 1.11185e+07 1 
0.0639767 -0.0239913 0.283 -0.398669 -0.0931415 -0.912353 1.09869e+07 1 
0.064848 -0.0238217 0.281 -0.415661 -0.0360336 -0.908806 1.09874e+07 1 
0.066407 -0.0239065 0.282 -0.418032 0.0217818 -0.908171 1.21622e+07 1 
0.0682155 -0.0240761 0.284 -0.385597 0.105788 -0.916583 1.15135e+07 1 
0.069553 -0.0240761 0.284 -0.294456 0.15963 -0.942239 1.11686e+07 1 
0.070641 -0.0239913 0.283 -0.193722 0.203148 -0.959793 1.35947e+07 1 
0.0719738 -0.0239913 0.283 -0.0671249 0.284742 -0.956251 1.45788e+07 1 
0.0720115 -0.0235674 0.278 -0.0257258 0.316702 -0.948176 1.51686e+07 1 
0.0735846 -0.0236522 0.279 0.0155796 0.3661 -0.930445 1.56939e+07 1 
0.0759724 -0.0239913 0.283 0.105829 0.424513 -0.899216 1.58905e+07 1 
-0.014407 -0.0349885 0.437 -0.964173 -0.171273 -0.202572 9.46494e+06 0 
-0.0121511 -0.034428 0.43 -0.919332 -0.0301489 -0.392325 8.87587e+06 0 
-0.0100788 -0.0342679 0.428 -0.767502 0.189522 -0.61239 8.87506e+06 0 
-0.00783696 -0.0333071 0.416 0.40439 0.821603 -0.401793 9.33894e+06 0 
-0.00590598 -0.0334672 0.418 0.47784 0.855014 -0.201545 9.01179e+06 0 
-0.00398442 -0.0338675 0.423 0.163041 0.796831 -0.581788 9.01179e+06 0 
-0.00201576 -0.0342679 0.428 -0.0417814 0.830911 -0.554835 9.34129e+06 0 
0 -0.0341878 0.427 0.0821365 0.859984 -0.503667 9.27571e+06 0 
0.00201105 -0.0341878 0.427 -0.0042893 0.85948 -0.511151 7.5014e+06 0 
0.00398442 -0.0338675 0.423 -0.188732 0.866158 -0.462764 5.98817e+06 0 
0.00600488 -0.0340277 0.425 -0.199295 0.885299 -0.420151 5.92162e+06 0 
0.00791232 -0.0336273 0.42 -0.281834 0.87988 -0.382597 6.84349e+06 0 
0.0101023 -0.0343479 0.429 -0.233764 0.891856 -0.387231 6.25136e+06 0 
0.0118967 -0.0337074 0.421 -0.137205 0.914676 -0.380189 6.77846e+06 0 
0.0145436 -0.0309051 0.386 -0.86143 -0.239785 -0.447708 5.52738e+06 0 
0.0163192 -0.0308251 0.385 -0.717378 -0.279901 -0.637984 5.79055e+06 0 
0.0180382 -0.0306649 0.383 -0.69124 -0.28158 -0.665508 7.30406e+06 0 
0.0198938 -0.030745 0.384 -0.758794 -0.243638 -0.604046 8.02723e+06 0 
0.0214763 -0.0304247 0.38 -0.5243 -0.290366 -0.800498 7.63478e+06 0 
0.023266 -0.0304247 0.38 -0.530231 -0.232822 -0.81526 8.09431e+06 0 
0.0251875 -0.0305849 0.382 -0.32171 -0.90699 -0.271795 8.09431e+06 0 
0.0263508 -0.0298643 0.373 -0.653876 -0.754526 -0.0560051 8.48906e+06 0 
0.0285597 -0.0303447 0.379 0.446348 0.841002 -0.30576 8.81804e+06 0 
0.0306649 -0.0306649 0.383 0.421926 0.811592 -0.404101 8.94963e+06 0 
0.0325535 -0.030745 0.384 0.403201 0.815211 -0.415763 8.94985e+06 0 
0.0348095 -0.0311453 0.389 0.33748 0.854999 -0.393806 8.42326e+06 0 
0.0366416 -0.0311453 0.389 0.346373 0.844461 -0.408548 8.55514e+06 0 
0.0362836 -0.0257009 0.321 -0.960269 -0.260808 -0.0993063 8.88412e+06 2 
0.0365003 -0.0248202 0.31 -0.819616 -0.387761 -0.421747 9.41044e+06 2 
0.0380827 -0.0249003 0.311 -0.808336 -0.390192 -0.440843 9.60702e+06 2 
0.0392931 -0.0247401 0.309 -0.729288 -0.449706 -0.515659 9.936e+06 2 
0.0403528 -0.0244999 0.306 -0.681602 -0.493314 -0.540425 1.0001e+07 2 
0.0415208 -0.0243398 0.304 -0.679187 -0.492259 -0.544415 1.01318e+07 2 
0.0432352 -0.0244999 0.306 -0.654138 -0.521714 -0.547648 1.00671e+07 2 
0.0439463 -0.0240996 0.301 -0.684801 -0.488704 -0.54057 9.93626e+06 2 
0.0447611 -0.0237793 0.297 -0.688643 -0.399291 -0.605258 9.93679e+06 1 
0.0463153 -0.0238594 0.298 -0.687791 -0.421538 -0.590972 9.93678e+06 1 
0.0470783 -0.0235391 0.294 -0.653835 -0.320864 -0.685235 1.00678e+07 1 
0.0481333 -0.023379 0.292 -0.61364 -0.309651 -0.726335 1.00018e+07 1 
0.0498476 -0.0235391 0.294 -0.608338 -0.340284 -0.71703 1.02637e+07 1 
0.051058 -0.0234591 0.293 -0.582178 -0.335194 -0.740753 1.03953e+07 1 
0.05208 -0.0232989 0.291 -0.571124 -0.310075 -0.760046 1.05269e+07 1 
0.0530832 -0.0231388 0.289 -0.542016 -0.253585 -0.801195 1.03963e+07 1 
0.0548211 -0.0232989 0.291 -0.525362 -0.310972 -0.792017 1.06597e+07 1 
0.0552261 -0.0228986 0.286 -0.556533 -0.245873 -0.79361 1.09214e+07 1 
0.0561775 -0.0227385 0.284 -0.603524 -0.157877 -0.781558 1.10529e+07 1 
0.0585276 -0.0231388 0.289 -0.555222 -0.233362 -0.798292 1.09214e+07 1 
0.0598887 -0.0231388 0.289 -0.549929 -0.21416 -0.807288 1.10529e+07 1 
0.0604021 -0.0228186 0.285 -0.53773 -0.166476 -0.826518 1.11843e+07 1 
0.0628276 -0.0232189 0.29 -0.45218 -0.205539 -0.867921 1.11843e+07 1 
0.0635293 -0.0229787 0.287 -0.403633 -0.125756 -0.906237 1.10529e+07 1 
0.0639767 -0.0226584 0.283 -0.324434 0.00239571 -0.945905 1.11177e+07 1 
0.0643865 -0.0223382 0.279 -0.352449 0.0443382 -0.93478 1.13156e+07 1 
0.0666424 -0.0226584 0.283 -0.362723 0.0954537 -0.926996 1.18414e+07 1 
0.0684557 -0.0228186 0.285 -0.290375 0.190323 -0.937795 1.18414e+07 1 
0.0693081 -0.0226584 0.283 -0.193261 0.244131 -0.95029 1.18257e+07 1 
0.0711402 -0.0228186 0.285 -0.126886 0.325048 -0.937147 1.14307e+07 1 
0.0724825 -0.0228186 0.285 -0.0598792 0.36607 -0.928659 1.35945e+07 1 
0.0725296 -0.0224182 0.28 0.0972435 0.373998 -0.922317 1.51683e+07 1 
0.0738483 -0.0224182 0.28 0.140516 0.415556 -0.898648 1.56936e+07 1 
0.0748986 -0.0223382 0.279 0.143692 0.49776 -0.855329 1.57595e+07 1 
-0.014374 -0.032855 0.436 0.991136 -0.113933 -0.0683268 9.267e+06 0 
-0.0120945 -0.0322521 0.428 -0.83934 -0.076203 -0.538239 8.48364e+06 0 
-0.0100317 -0.0321014 0.426 -0.87757 -0.105625 -0.467668 9.27243e+06 0 
-0.00795 -0.0318 0.422 0.467452 0.795286 -0.386017 9.40756e+06 0 
-0.00604727 -0.0322521 0.428 0.146689 0.798524 -0.583816 9.40756e+06 0 
-0.00403151 -0.0322521 0.428 0.0299321 0.838618 -0.543897 8.09278e+06 0 
-0.00202047 -0.0323275 0.429 0.068459 0.875441 -0.478453 6.77768e+06 0 
0 -0.0323275 0.429 0.0254739 0.846736 -0.531403 5.98792e+06 0 
0.00202518 -0.0324028 0.43 0.0290787 0.821893 -0.5689 6.05372e+06 0 
0.00401268 -0.0321014 0.426 -0.194994 0.851607 -0.486562 6.18479e+06 0 
0.00601901 -0.0321014 0.426 -0.237409 0.844969 -0.479233 6.25058e+06 0 
0.00810071 -0.0324028 0.43 -0.0229884 0.860395 -0.509108 6.51375e+06 0 
0.0101965 -0.0326289 0.433 0.198634 0.79718 -0.57013 6.44796e+06 0 
0.0118685 -0.0316493 0.42 -0.763235 0.337574 -0.550923 6.58006e+06 0 
0.0146189 -0.0292379 0.388 -0.884901 -0.159595 -0.437583 5.19995e+06 0 
0.0164039 -0.0291625 0.387 -0.847125 -0.147429 -0.510534 8.0288e+06 0 
0.0181324 -0.0290118 0.385 -0.803473 -0.133075 -0.580278 8.81854e+06 0 
0.019842 -0.0288611 0.383 -0.699974 -0.177652 -0.69172 7.2395e+06 0 
0.0212502 -0.0283336 0.376 -0.615433 -0.255531 -0.745618 6.25366e+06 0 
0.0231435 -0.0284843 0.378 -0.487497 -0.287994 -0.824261 5.99023e+06 0 
0.0248579 -0.028409 0.377 -0.679618 -0.686255 -0.25918 8.68747e+06 0 
0.0271279 -0.0289365 0.384 0.467948 0.811945 -0.348955 8.68747e+06 0 
0.0292379 -0.0292379 0.388 0.333883 0.859954 -0.386006 8.5564e+06 0 
0.0312254 -0.0293886 0.39 0.0835979 0.87993 -0.46769 8.68747e+06 0 
0.0332317 -0.0295393 0.392 0.290987 0.824267 -0.485706 8.94992e+06 0 
0.0350779 -0.0295393 0.392 0.163162 0.825982 -0.539566 8.29195e+06 0 
0.0371125 -0.02969 0.394 0.0684463 0.837898 -0.541518 8.29195e+06 0 
0.0363967 -0.0242644 0.322 -0.970275 -0.237834 -0.0447269 8.94963e+06 2 
0.0363825 -0.0232848 0.309 -0.822438 -0.375219 -0.427559 9.34462e+06 2 
0.0379603 -0.0233602 0.31 -0.81996 -0.401134 -0.408359 9.93496e+06 2 
0.0387845 -0.0229834 0.305 -0.695235 -0.49089 -0.525047 1.0001e+07 1 
0.0403528 -0.0230588 0.306 -0.699035 -0.477699 -0.532122 1.00671e+07 2 
0.0416574 -0.0229834 0.305 -0.670164 -0.484017 -0.562679 1.01329e+07 2 
0.0428113 -0.0228327 0.303 -0.675283 -0.480476 -0.559585 1.02632e+07 1 
0.0438003 -0.0226066 0.3 -0.679265 -0.427315 -0.596658 1.02632e+07 1 
0.0447611 -0.0223806 0.297 -0.670379 -0.364917 -0.646087 1.03316e+07 1 
0.0461599 -0.0223806 0.297 -0.689287 -0.348705 -0.63505 1.02644e+07 1 
0.0470783 -0.0221545 0.294 -0.658232 -0.260877 -0.706169 1.00678e+07 1 
0.0482981 -0.0220791 0.293 -0.644459 -0.273891 -0.713902 1.00018e+07 1 
0.0498476 -0.0221545 0.294 -0.624988 -0.267613 -0.73333 1.0001e+07 1 
0.0507095 -0.0219284 0.291 -0.591338 -0.170745 -0.788141 1.04615e+07 1 
0.05208 -0.0219284 0.291 -0.583113 -0.18976 -0.789918 1.04626e+07 1 
0.0528995 -0.0217024 0.288 -0.573798 -0.151697 -0.804826 1.09892e+07 1 
0.0550095 -0.0220038 0.292 -0.544899 -0.235357 -0.804793 1.09894e+07 1 
0.0554192 -0.021627 0.287 -0.556478 -0.147704 -0.817628 1.09219e+07 1 
0.0567709 -0.021627 0.287 -0.553097 -0.141674 -0.820982 1.09219e+07 1 
0.0581226 -0.021627 0.287 -0.560764 -0.124126 -0.818619 1.11843e+07 1 
0.059267 -0.0215516 0.286 -0.561452 -0.0804981 -0.823585 1.11185e+07 1 
0.0597663 -0.0212502 0.282 -0.527278 -0.0411697 -0.848695 1.13156e+07 1 
0.0621776 -0.021627 0.287 -0.444613 -0.0536081 -0.894117 1.13156e+07 1 
0.0628652 -0.0214009 0.284 -0.323583 0.0011525 -0.946199 1.11843e+07 1 
0.0639767 -0.0213256 0.283 -0.285558 0.0334783 -0.957777 1.10529e+07 1 
0.0646173 -0.0210995 0.28 -0.277591 0.138812 -0.950618 1.13809e+07 1 
0.0666424 -0.0213256 0.283 -0.246116 0.183351 -0.95174 1.1513e+07 1 
0.0691763 -0.0217024 0.288 -0.0712715 0.229799 -0.970625 1.15125e+07 1 
0.0688183 -0.0211749 0.281 -0.0927027 0.298442 -0.949915 1.28725e+07 1 
0.0703914 -0.0212502 0.282 -0.00947252 0.376347 -0.92643 1.37911e+07 1 
0.0722282 -0.0214009 0.284 0.098354 0.41406 -0.904921 1.37911e+07 1 
0.0727886 -0.0211749 0.281 0.200522 0.438183 -0.876234 1.47738e+07 1 
0.0738483 -0.0210995 0.28 0.300532 0.490161 -0.818182 1.53647e+07 1 
0.0765093 -0.0214763 0.285 0.180489 0.494406 -0.850286 1.52997e+07 1 
-0.0142751 -0.0305896 0.433 -0.984603 -0.0362549 -0.171006 9.85789e+06 0 
-0.012038 -0.0300951 0.426 -0.749635 -0.00857108 -0.661796 9.47183e+06 0 
-0.0100788 -0.0302364 0.428 -0.818959 -0.458751 -0.344752 8.68255e+06 0 
-0.00804419 -0.0301657 0.427 0.24409 0.816863 -0.522642 7.3027e+06 0 
-0.00617443 -0.0308722 0.437 -0.0885241 0.800876 -0.592251 6.71188e+06 0 
-0.00409745 -0.0307309 0.435 0.117617 0.815272 -0.567008 6.25134e+06 0 
-0.00204402 -0.0306602 0.434 -0.0999317 0.782036 -0.615169 5.98792e+06 0 
0 -0.0304483 0.431 -0.0253192 0.798263 -0.601777 6.44668e+06 0 
0.00202989 -0.0304483 0.431 0.0074647 0.756137 -0.65437 6.25033e+06 0 
0.00405035 -0.0303776 0.43 -0.154482 0.780782 -0.605404 6.25058e+06 0 
0.00610379 -0.0305189 0.432 -0.0575606 0.757894 -0.649834 6.25058e+06 0 
0.00815722 -0.0305896 0.433 0.168344 0.716718 -0.676739 6.31689e+06 0 
0.0102436 -0.0307309 0.435 0.103849 0.605378 -0.789134 6.44796e+06 0 
0.0130883 -0.0280463 0.397 -0.890239 -0.227596 -0.394557 5.00231e+06 0 
0.0146943 -0.0275518 0.39 -0.86977 -0.12562 -0.4772 4.47597e+06 0 
0.0165311 -0.0275518 0.39 -0.65825 0.0506573 -0.751093 4.87072e+06 0 
0.0178969 -0.0268454 0.38 -0.644318 -0.250727 -0.722489 4.01567e+06 0 
0.019842 -0.0270573 0.383 -0.814576 -0.115092 -0.568524 4.01516e+06 0 
0.0213067 -0.0266334 0.377 -0.644868 -0.33534 -0.686799 5.46568e+06 0 
0.0231435 -0.0267041 0.378 -0.535366 -0.301846 -0.788842 6.18786e+06 0 
0.025715 -0.0275518 0.39 0.551779 0.568258 -0.610428 6.18786e+06 0 
0.0278344 -0.0278344 0.394 0.266672 0.662682 -0.699813 8.5564e+06 0 
0.02969 -0.0278344 0.394 0.273559 0.759679 -0.589961 8.88412e+06 0 
0.0317859 -0.0280463 0.397 0.168822 0.822382 -0.543311 8.88331e+06 0 
0.0334861 -0.027905 0.395 0.313868 0.844821 -0.433317 8.75148e+06 0 
0.0351674 -0.0277638 0.393 0.28899 0.788888 -0.542347 8.55436e+06 0 
0.0350968 -0.0228892 0.324 -0.928937 -0.360676 -0.0835972 8.4233e+06 2 
0.0358315 -0.0223947 0.317 -0.939426 -0.303365 -0.159524 9.01543e+06 2 
0.0360293 -0.0216176 0.306 -0.761824 -0.465889 -0.45008 9.41042e+06 1 
0.0378378 -0.0218295 0.309 -0.807023 -0.41209 -0.42296 9.41042e+06 2 
0.0385302 -0.0214056 0.303 -0.698578 -0.46369 -0.544959 1.0001e+07 1 
0.0400891 -0.0214763 0.304 -0.703858 -0.453076 -0.547089 1.0001e+07 1 
0.0413842 -0.0214056 0.303 -0.669457 -0.4434 -0.596007 1.0001e+07 1 
0.0425287 -0.0212644 0.301 -0.686935 -0.41748 -0.594837 1.02632e+07 1 
0.0438003 -0.0211937 0.3 -0.66616 -0.387331 -0.637343 1.02644e+07 1 
0.0447611 -0.0209818 0.297 -0.667419 -0.322542 -0.671207 1.02644e+07 1 
0.0460045 -0.0209111 0.296 -0.649881 -0.263749 -0.712805 1.02644e+07 1 
0.0469182 -0.0206992 0.293 -0.627729 -0.12016 -0.769102 1.01331e+07 1 
0.0484629 -0.0207698 0.294 -0.639047 -0.200443 -0.742591 1.01331e+07 1 
0.0496781 -0.0206992 0.293 -0.611298 -0.16038 -0.77498 1.02645e+07 1 
0.0508837 -0.0206285 0.292 -0.571414 -0.135551 -0.80939 1.0396e+07 1 
0.05208 -0.0205579 0.291 -0.574848 -0.0818193 -0.814159 1.05284e+07 1 
0.0532669 -0.0204873 0.29 -0.546738 -0.0612251 -0.835062 1.08568e+07 1 
0.0542559 -0.020346 0.288 -0.54321 -0.0432167 -0.838484 1.09219e+07 1 
0.0561916 -0.0205579 0.291 -0.538887 -0.103302 -0.83602 1.08564e+07 1 
0.0567709 -0.0202753 0.287 -0.541058 -0.0253253 -0.840604 1.13156e+07 1 
0.0581226 -0.0202753 0.287 -0.550782 -0.0313091 -0.834062 1.13156e+07 1 
0.0588526 -0.0200634 0.284 -0.573055 0.00552517 -0.819498 1.13156e+07 1 
0.0597663 -0.0199221 0.282 -0.51592 0.0238993 -0.856303 1.13156e+07 1 
0.0621776 -0.0202753 0.287 -0.414074 0.021087 -0.909999 1.13156e+07 1 
0.0626439 -0.0199927 0.283 -0.326408 0.0634098 -0.9431 1.10529e+07 1 
0.0637507 -0.0199221 0.282 -0.263178 0.117728 -0.957537 1.1184e+07 1 
0.0643865 -0.0197101 0.279 -0.227303 0.162296 -0.960205 1.15135e+07 1 
0.0666424 -0.0199927 0.283 -0.177436 0.188703 -0.965871 1.15137e+07 1 
0.0684557 -0.020134 0.285 -0.0318807 0.248597 -0.968082 1.15137e+07 1 
0.0690632 -0.0199221 0.282 -0.000587878 0.350512 -0.936558 1.21537e+07 1 
0.0716394 -0.0202753 0.287 0.052928 0.339963 -0.938948 1.21537e+07 1 
0.0722282 -0.0200634 0.284 0.165634 0.433448 -0.885827 1.4119e+07 1 
0.0735657 -0.0200634 0.284 0.252286 0.468683 -0.846574 1.43153e+07 1 
0.0754308 -0.0202047 0.286 0.246488 0.406605 -0.879725 1.4642e+07 1 
0.0770462 -0.0202753 0.287 0.503095 0.439547 -0.744106 1.53659e+07 1 
-0.0142422 -0.0284843 0.432 -0.989402 -0.0702516 -0.127078 1.03812e+07 0 
-0.0120663 -0.0281547 0.427 -0.765405 0.0537475 -0.641301 9.85889e+06 0 
-0.0100788 -0.0282206 0.428 0.458649 0.639537 -0.616955 7.23332e+06 0 
-0.00813838 -0.0284843 0.432 0.336069 0.709726 -0.619149 7.23332e+06 0 
-0.00620269 -0.0289459 0.439 -0.151391 0.558212 -0.81577 6.578e+06 0 
-0.00410687 -0.0287481 0.436 0.0966982 0.770372 -0.63022 5.79158e+06 0 
-0.00205814 -0.028814 0.437 -0.186835 0.672103 -0.716499 6.4472e+06 0 
0 -0.0284843 0.432 -0.121562 0.766708 -0.630382 6.51248e+06 0 
0.00204402 -0.0286162 0.434 -0.184298 0.695292 -0.694697 6.25033e+06 0 
0.00408803 -0.0286162 0.434 -0.0638484 0.653486 -0.754241 6.25033e+06 0 
0.00817606 -0.0286162 0.434 0.189777 0.623194 -0.758692 6.44796e+06 0 
0.0102436 -0.0286822 0.435 0.0319629 0.46024 -0.887219 6.44796e+06 0 
0.0129894 -0.0259788 0.394 -0.945085 -0.223697 -0.238273 5.72706e+06 0 
0.0145059 -0.0253854 0.385 -0.854977 -0.100378 -0.508861 6.97662e+06 0 
0.0163192 -0.0253854 0.385 -0.83781 -0.0958558 -0.537481 6.45027e+06 0 
0.0180853 -0.0253194 0.384 -0.796136 -0.109168 -0.595189 6.45027e+06 0 
0.019842 -0.0252535 0.383 -0.877275 -0.217812 -0.427721 5.202e+06 0 
0.0214198 -0.0249897 0.379 -0.67034 -0.167286 -0.722952 5.202e+06 0 
0.0233272 -0.0251216 0.381 0.683441 0.567695 -0.458945 4.93857e+06 0 
0.025781 -0.025781 0.391 0.627938 0.581754 -0.516968 4.93857e+06 0 
0.0280463 -0.0261766 0.397 0.580297 0.619558 -0.528585 8.5564e+06 0 
0.0300668 -0.0263085 0.399 0.566104 0.678586 -0.468025 8.88408e+06 0 
0.0323463 -0.0266381 0.404 0.453913 0.735612 -0.50283 8.68673e+06 0 
0.0337404 -0.0262425 0.398 0.36003 0.741801 -0.565783 8.35772e+06 0 
0.0353464 -0.0260447 0.395 0.351242 0.837721 -0.418154 8.35772e+06 0 
0.0345552 -0.0210336 0.319 -0.947709 -0.304647 -0.0950649 9.21227e+06 2 
0.0354924 -0.0207039 0.314 -0.926419 -0.324032 -0.191708 9.21227e+06 2 
0.0360293 -0.0201764 0.306 -0.759688 -0.450366 -0.469088 9.73885e+06 1 
0.0375929 -0.0202423 0.307 -0.763999 -0.44847 -0.463875 9.86995e+06 1 
0.0382758 -0.0198467 0.301 -0.64375 -0.456001 -0.614531 9.93597e+06 1 
0.0396935 -0.0198467 0.301 -0.625056 -0.44478 -0.641464 1.00676e+07 1 
0.0412477 -0.0199127 0.302 -0.640221 -0.433462 -0.634214 1.00676e+07 1 
0.0428113 -0.0199786 0.303 -0.646085 -0.419459 -0.637674 1.01329e+07 1 
0.0438003 -0.0197808 0.3 -0.666961 -0.292833 -0.685137 1.02642e+07 1 
0.0447611 -0.019583 0.297 -0.642442 -0.189541 -0.742524 1.04615e+07 1 
0.0460045 -0.019517 0.296 -0.632639 -0.138215 -0.762014 1.05274e+07 1 
0.0469182 -0.0193192 0.293 -0.62637 -0.0493994 -0.777959 1.0461e+07 1 
0.0484629 -0.0193852 0.294 -0.635226 -0.0489786 -0.770772 1.0461e+07 1 
0.0498476 -0.0193852 0.294 -0.611482 -0.0638038 -0.788682 1.04613e+07 1 
0.0505352 -0.0191214 0.29 -0.587525 0.0066396 -0.809179 1.06598e+07 1 
0.05208 -0.0191874 0.291 -0.568126 -0.00901435 -0.822893 1.06598e+07 1 
0.0534505 -0.0191874 0.291 -0.536478 -0.0119346 -0.84383 1.09221e+07 1 
0.0540675 -0.0189236 0.287 -0.551943 0.0578488 -0.831873 1.09874e+07 1 
0.0559985 -0.0191214 0.29 -0.523507 0.0163182 -0.851865 1.08561e+07 1 
0.0569687 -0.0189896 0.288 -0.546897 0.0258987 -0.836799 1.11843e+07 1 
0.0577175 -0.0187918 0.285 -0.562662 0.0463757 -0.825385 1.13806e+07 1 
0.0588526 -0.0187258 0.284 -0.559158 0.0647794 -0.826526 1.14464e+07 1 
0.0597663 -0.0185939 0.282 -0.530178 0.0652579 -0.845371 1.14464e+07 1 
0.0621776 -0.0189236 0.287 -0.399315 0.080095 -0.913308 1.14464e+07 1 
0.0628652 -0.0187258 0.284 -0.310796 0.106172 -0.944528 1.09861e+07 1 
0.0639767 -0.0186599 0.283 -0.231549 0.120183 -0.965371 1.11179e+07 1 
0.0646173 -0.0184621 0.28 -0.110654 0.163498 -0.980318 1.13822e+07 1 
0.065936 -0.0184621 0.28 -0.120828 0.232572 -0.965044 1.11742e+07 1 
0.0684557 -0.0187918 0.285 0.0543138 0.223056 -0.973291 1.11742e+07 1 
0.0697979 -0.0187918 0.285 0.0993254 0.278821 -0.955193 1.16936e+07 1 
0.0711402 -0.0187918 0.285 0.180775 0.285208 -0.941263 1.34644e+07 1 
0.0722282 -0.0187258 0.284 0.249755 0.39245 -0.885215 1.41188e+07 1 
0.0735657 -0.0187258 0.284 0.305453 0.411268 -0.858811 1.41188e+07 1 
0.0754308 -0.0188577 0.286 0.339034 0.413678 -0.844942 1.51015e+07 1 
0.0775831 -0.0190555 0.289 0.613519 0.329389 -0.717702 1.52994e+07 1 
-0.0142751 -0.026511 0.433 -0.992571 0.00339637 -0.121621 1.09023e+07 0 
-0.012038 -0.0260824 0.426 -0.851515 -0.0138732 -0.524146 9.8545e+06 0 
-0.0101259 -0.0263273 0.43 0.81405 0.479344 -0.327952 8.80698e+06 0 
-0.00813838 -0.0264497 0.432 0.417438 0.662991 -0.62144 8.47825e+06 0 
-0.00620269 -0.0268783 0.439 0.100934 0.653338 -0.750308 6.70805e+06 0 
-0.00414455 -0.0269396 0.44 -0.0747341 0.603447 -0.793893 5.98716e+06 0 
-0.00206285 -0.0268171 0.438 -0.154594 0.605689 -0.780539 6.31561e+06 0 
0 -0.0265722 0.434 -0.242731 0.620991 -0.745286 6.31612e+06 0 
0.00205814 -0.0267559 0.437 -0.24796 0.580369 -0.775685 6.31612e+06 0 
0.00410687 -0.0266947 0.436 -0.215235 0.539113 -0.814267 6.25058e+06 0 
0.00817606 -0.0265722 0.434 0.208808 0.54944 -0.809021 6.055e+06 0 
0.00998459 -0.0259599 0.424 -0.908163 -0.192412 -0.371775 6.05474e+06 0 
0.0129235 -0.0240007 0.392 -0.943967 -0.134872 -0.301225 5.26523e+06 0 
0.0142798 -0.0232048 0.379 -0.77497 -0.316337 -0.54713 6.44975e+06 0 
0.0162344 -0.0234497 0.383 -0.837046 -0.136781 -0.529759 6.45001e+06 0 
0.0178969 -0.023266 0.38 -0.865821 -0.248566 -0.434245 6.45001e+06 0 
0.0197384 -0.0233272 0.381 -0.912402 -0.388154 -0.129844 7.2395e+06 0 
0.0217024 -0.0235109 0.384 0.818966 0.464586 -0.33683 7.30608e+06 0 
0.0239395 -0.0239395 0.391 0.693499 0.452547 -0.560589 8.35901e+06 0 
0.0259788 -0.0241231 0.394 0.620632 0.604054 -0.499934 8.88458e+06 0 
0.0283996 -0.024613 0.402 0.643365 0.535197 -0.547399 7.30587e+06 0 
0.0303682 -0.0246742 0.403 0.681907 0.52769 -0.506504 4.87124e+06 0 
0.0321061 -0.0245517 0.401 0.734223 0.551276 -0.396247 5.72706e+06 0 
0.0339947 -0.0245517 0.401 0.864904 0.482008 -0.140037 3.88383e+06 0 
0.0343385 -0.0194087 0.317 -0.947628 -0.295249 -0.121779 9.08122e+06 2 
0.0352663 -0.0191026 0.312 -0.898576 -0.358551 -0.252987 9.41046e+06 1 
0.0359116 -0.018674 0.305 -0.740426 -0.477416 -0.473121 9.60759e+06 1 
0.0372256 -0.0186128 0.304 -0.698493 -0.468027 -0.541349 9.73864e+06 1 
0.0380215 -0.0183067 0.299 -0.617457 -0.417541 -0.666638 1.02649e+07 1 
0.0394297 -0.0183067 0.299 -0.606584 -0.384956 -0.695603 1.02649e+07 1 
0.0409745 -0.0183679 0.3 -0.61369 -0.341645 -0.711803 1.01334e+07 1 
0.04267 -0.0184903 0.302 -0.641683 -0.3137 -0.699882 1.00676e+07 1 
0.0438003 -0.0183679 0.3 -0.661142 -0.223158 -0.716305 1.01334e+07 1 
0.0446104 -0.018123 0.296 -0.599869 -0.085157 -0.795554 1.04615e+07 1 
0.0458491 -0.0180617 0.295 -0.611731 -0.0539531 -0.789224 1.05274e+07 1 
0.0469182 -0.0179393 0.293 -0.613289 0.0057574 -0.789837 1.04616e+07 1 
0.0482981 -0.0179393 0.293 -0.614544 0.00346465 -0.788875 1.04613e+07 1 
0.0498476 -0.0180005 0.294 -0.615711 0.020542 -0.787704 1.05271e+07 1 
0.0508837 -0.0178781 0.292 -0.568898 0.0320265 -0.821784 1.03316e+07 1 
0.05208 -0.0178168 0.291 -0.550712 0.0489451 -0.833259 1.05284e+07 1 
0.0536342 -0.0178781 0.292 -0.511039 0.0292613 -0.859059 1.07908e+07 1 
0.0546327 -0.0177556 0.29 -0.530037 0.0937552 -0.842775 1.10527e+07 1 
0.0559985 -0.0177556 0.29 -0.542418 0.0624574 -0.837784 1.13806e+07 1 
0.0571665 -0.0176944 0.289 -0.532694 0.0690975 -0.843483 1.14464e+07 1 
0.0587301 -0.0177556 0.29 -0.514782 0.0645234 -0.85489 1.14464e+07 1 
0.059267 -0.0175107 0.286 -0.516909 0.0803616 -0.85226 1.14464e+07 1 
0.0601901 -0.0173883 0.284 -0.46116 0.0883588 -0.882907 1.15122e+07 1 
0.0621776 -0.0175719 0.287 -0.399288 0.0994253 -0.911419 1.15122e+07 1 
0.0628652 -0.0173883 0.284 -0.288194 0.111991 -0.951001 1.09861e+07 1 
0.0644289 -0.0174495 0.285 -0.234355 0.11714 -0.965068 1.09858e+07 1 
0.064848 -0.0172046 0.281 -0.0771611 0.148247 -0.985936 1.1448e+07 1 
0.066407 -0.0172658 0.282 -0.019116 0.193847 -0.980845 1.20363e+07 1 
0.0689361 -0.0175719 0.287 0.112547 0.232458 -0.966073 1.20363e+07 1 
0.0693081 -0.017327 0.283 0.157399 0.291909 -0.943406 1.1825e+07 1 
0.0713898 -0.0175107 0.286 0.213756 0.320414 -0.922845 1.24827e+07 1 
0.0724825 -0.0174495 0.285 0.347587 0.34329 -0.872546 1.41195e+07 1 
0.0746019 -0.0176332 0.288 0.530506 0.303893 -0.791336 1.39222e+07 1 
0.076222 -0.0176944 0.289 0.550215 0.367432 -0.749838 1.45764e+07 1 
0.0794623 -0.018123 0.296 0.837793 0.271169 -0.473888 1.5036e+07 1 
-0.0142751 -0.0244717 0.433 0.996006 0.0873946 -0.0183061 1.0901e+07 0 
-0.012038 -0.0240761 0.426 -0.872572 0.0171946 -0.488182 9.91906e+06 0 
-0.0101494 -0.0243586 0.431 0.761008 0.444072 -0.472934 8.8707e+06 0 
-0.00825142 -0.0247543 0.438 0.36668 0.514808 -0.774931 8.54205e+06 0 
-0.00621682 -0.0248673 0.44 0.148374 0.569639 -0.808391 5.98716e+06 0 
-0.00414455 -0.0248673 0.44 -0.0590273 0.568806 -0.820351 6.1848e+06 0 
-0.00206285 -0.0247543 0.438 -0.120255 0.577 -0.807843 6.25058e+06 0 
0 -0.0245847 0.435 -0.269457 0.535728 -0.800242 5.98921e+06 0 
0.00205343 -0.0246412 0.436 -0.309691 0.497132 -0.810525 5.98742e+06 0 
0.00409745 -0.0245847 0.435 -0.268006 0.506127 -0.819761 5.98818e+06 0 
0.0061603 -0.0246412 0.436 -0.143344 0.497561 -0.855503 6.05372e+06 0 
0.00798767 -0.023963 0.424 -0.926802 -0.0453075 -0.372807 6.25238e+06 0 
0.0111338 -0.0222675 0.394 -0.952514 -0.160153 -0.258975 5.00206e+06 0 
0.0126927 -0.0217589 0.385 -0.907113 -0.186 -0.377559 4.2128e+06 0 
0.0142422 -0.0213633 0.378 -0.742869 -0.361222 -0.563617 7.37088e+06 0 
0.0162344 -0.0216458 0.383 -0.873623 -0.126572 -0.469853 6.51555e+06 0 
0.0178027 -0.0213633 0.378 -0.829746 -0.413802 -0.374552 9.41174e+06 0 
0.0196866 -0.0214763 0.38 0.858943 0.421107 -0.29135 9.41174e+06 0 
0.0219284 -0.0219284 0.388 0.761546 0.359409 -0.539326 8.75327e+06 0 
0.0240007 -0.0221545 0.392 0.785569 0.406459 -0.466554 8.88484e+06 0 
0.0261106 -0.0223806 0.396 0.72381 0.368185 -0.583557 8.81885e+06 0 
0.0283289 -0.0226631 0.401 0.775688 0.410548 -0.479331 5.72706e+06 0 
0.0306697 -0.0230022 0.407 0.326751 0.0227633 -0.944836 4.01618e+06 0 
0.0322662 -0.0227762 0.403 -0.90901 -0.407961 -0.0852625 4.21356e+06 0 
0.0337404 -0.0224936 0.398 0.889332 0.44013 -0.123992 7.50268e+06 0 
0.0342302 -0.0178592 0.316 -0.915715 -0.368769 -0.159613 8.88408e+06 1 
0.0351533 -0.0175766 0.311 -0.891788 -0.391186 -0.227348 9.40968e+06 1 
0.0360293 -0.0172941 0.306 -0.797379 -0.405857 -0.446618 9.935e+06 1 
0.0372256 -0.017181 0.304 -0.727979 -0.410067 -0.549447 9.93597e+06 1 
0.0381487 -0.016955 0.3 -0.647097 -0.355019 -0.674705 1.04623e+07 1 
0.0394297 -0.0168984 0.299 -0.591452 -0.296819 -0.749722 1.05274e+07 1 
0.0408379 -0.0168984 0.299 -0.597466 -0.251481 -0.76144 1.05934e+07 1 
0.0422461 -0.0168984 0.299 -0.617177 -0.213849 -0.757206 1.06592e+07 1 
0.0436543 -0.0168984 0.299 -0.582607 -0.168023 -0.795196 1.07906e+07 1 
0.044309 -0.0166159 0.294 -0.535244 -0.0372521 -0.843875 1.13151e+07 1 
0.045072 -0.0163898 0.29 -0.547751 0.010053 -0.836581 1.10522e+07 1 
0.0472384 -0.0166724 0.295 -0.607715 -0.00136328 -0.794154 1.10522e+07 1 
0.0479684 -0.0164463 0.291 -0.588529 0.0397028 -0.8075 1.09858e+07 1 
0.0498476 -0.0166159 0.294 -0.600648 0.0526089 -0.797781 1.09858e+07 1 
0.0508837 -0.0165028 0.292 -0.552618 0.0793029 -0.829653 1.13806e+07 1 
0.05208 -0.0164463 0.291 -0.516757 0.0833875 -0.852061 1.15122e+07 1 
0.0534505 -0.0164463 0.291 -0.501345 0.0963116 -0.859871 1.14464e+07 1 
0.0544443 -0.0163333 0.289 -0.541742 0.120943 -0.831798 1.14464e+07 1 
0.0559985 -0.0163898 0.29 -0.543573 0.107663 -0.832428 1.14464e+07 1 
0.0571665 -0.0163333 0.289 -0.532037 0.087138 -0.842225 1.15125e+07 1 
0.05792 -0.0161637 0.286 -0.569631 0.103661 -0.815337 1.11188e+07 1 
0.0594743 -0.0162202 0.287 -0.494752 0.0923126 -0.864117 1.11185e+07 1 
0.0601901 -0.0160507 0.284 -0.45499 0.0976544 -0.885126 1.13151e+07 1 
0.0626109 -0.0163333 0.289 -0.355867 0.0756671 -0.931468 1.13151e+07 1 
0.0630866 -0.0161072 0.285 -0.300022 0.0842729 -0.950203 1.13807e+07 1 
0.0646549 -0.0161637 0.286 -0.207794 0.104142 -0.972613 1.13149e+07 1 
0.064848 -0.0158812 0.281 -0.0405731 0.155561 -0.986993 1.13164e+07 1 
0.0671134 -0.0161072 0.285 0.0174679 0.167567 -0.985706 1.2759e+07 1 
0.0682155 -0.0160507 0.284 0.155217 0.204666 -0.966447 1.09748e+07 1 
0.0697979 -0.0161072 0.285 0.232102 0.207714 -0.950254 1.23482e+07 1 
0.0711402 -0.0161072 0.285 0.278498 0.284801 -0.917239 1.37913e+07 1 
0.0724825 -0.0161072 0.285 0.385339 0.322611 -0.864544 1.41188e+07 1 
0.0743428 -0.0162202 0.287 0.435324 0.33384 -0.836088 1.45765e+07 1 
0.0759583 -0.0162768 0.288 0.572693 0.320817 -0.754387 1.47731e+07 1 
0.0783885 -0.0165028 0.292 0.733373 0.333478 -0.592415 1.52318e+07 1 
-0.0143411 -0.022536 0.435 0.859022 0.26487 -0.438093 1.09671e+07 0 
-0.0122076 -0.0223806 0.432 0.883111 0.271087 -0.382919 1.09668e+07 0 
-0.0103143 -0.0226914 0.438 0.638805 0.401339 -0.656395 1.01157e+07 0 
-0.00830793 -0.0228468 0.441 0.379572 0.512319 -0.77036 8.47626e+06 0 
-0.00621682 -0.022795 0.44 0.0925846 0.563182 -0.82113 5.98716e+06 0 
-0.00413513 -0.0227432 0.439 -0.0914867 0.532681 -0.841357 6.18479e+06 0 
-0.00207227 -0.022795 0.44 -0.160149 0.49149 -0.856032 6.25033e+06 0 
0 -0.0225878 0.436 -0.355505 0.46454 -0.81106 5.98921e+06 0 
0.00205814 -0.0226396 0.437 -0.423398 0.394792 -0.815398 6.05347e+06 0 
0.00410687 -0.0225878 0.436 -0.445402 0.368311 -0.816066 6.25032e+06 0 
0.0061603 -0.0225878 0.436 -0.172271 0.504392 -0.846116 6.2511e+06 0 
0.00791232 -0.0217589 0.42 -0.609536 -0.543904 -0.576745 6.51478e+06 0 
0.00951362 -0.02093 0.404 -0.969829 0.0624963 -0.23564 5.98818e+06 0 
0.0109642 -0.0201011 0.388 -0.915671 -0.143089 -0.375597 5.46286e+06 0 
0.0127256 -0.0199974 0.386 -0.936232 -0.171799 -0.306522 8.35828e+06 0 
0.0143552 -0.0197384 0.381 -0.712282 -0.0331698 -0.70111 8.81885e+06 0 
0.0164463 -0.0201011 0.388 -0.978562 -0.148891 -0.142296 9.21381e+06 0 
0.0178969 -0.0196866 0.38 0.433193 0.380587 -0.817005 4.4112e+06 0 
0.0199456 -0.0199456 0.385 0.814368 0.22979 -0.532918 4.60883e+06 0 
0.0219284 -0.0201011 0.388 0.824822 0.215381 -0.522762 4.60883e+06 0 
0.0242456 -0.0205155 0.396 0.730795 0.279032 -0.622961 8.81935e+06 0 
0.0263744 -0.0207227 0.4 0.800273 0.225342 -0.555684 6.18786e+06 0 
0.0282583 -0.0207227 0.4 0.843494 0.183258 -0.50491 4.34566e+06 0 
0.0302929 -0.0208264 0.402 0.807507 0.207235 -0.552255 5.0041e+06 0 
0.0323463 -0.02093 0.404 -0.929856 -0.327125 -0.168394 7.10945e+06 0 
0.0335708 -0.0205155 0.396 -0.9667 -0.248118 -0.0626815 4.01592e+06 0 
0.0339052 -0.0162155 0.313 -0.928942 -0.328817 -0.170136 9.08122e+06 1 
0.0348142 -0.0159565 0.308 -0.906931 -0.313435 -0.281486 1.02637e+07 1 
0.0355583 -0.0156457 0.302 -0.770229 -0.321155 -0.551005 1.04623e+07 1 
0.0367358 -0.0155421 0.3 -0.654457 -0.297565 -0.695083 1.05281e+07 1 
0.0380215 -0.0154902 0.299 -0.59852 -0.263429 -0.756558 1.06597e+07 1 
0.0394297 -0.0154902 0.299 -0.568529 -0.245124 -0.785295 1.06592e+07 1 
0.0407013 -0.0154384 0.298 -0.555984 -0.149073 -0.817715 1.07906e+07 1 
0.0425287 -0.0155939 0.301 -0.572912 -0.163453 -0.803153 1.06592e+07 1 
0.0435083 -0.0154384 0.298 -0.55542 -0.0660365 -0.828944 1.10532e+07 1 
0.0441583 -0.0151794 0.293 -0.51609 -0.0207755 -0.856282 1.13819e+07 1 
0.0456936 -0.0152312 0.294 -0.555175 -0.0335672 -0.831056 1.13819e+07 1 
0.0475587 -0.0153866 0.297 -0.59355 0.0440216 -0.803592 1.13158e+07 1 
0.0481333 -0.0151276 0.292 -0.590672 0.0290454 -0.806389 1.11179e+07 1 
0.0505258 -0.0154384 0.298 -0.601214 0.0882067 -0.794205 1.11835e+07 1 
0.0514065 -0.015283 0.295 -0.567692 0.094267 -0.817826 1.13146e+07 1 
0.0524379 -0.0151794 0.293 -0.52164 0.12758 -0.843573 1.13806e+07 1 
0.0530832 -0.0149722 0.289 -0.519606 0.112665 -0.846945 1.13806e+07 1 
0.0542559 -0.0149204 0.288 -0.532884 0.13182 -0.835858 1.14464e+07 1 
0.0552261 -0.0148168 0.286 -0.541357 0.134782 -0.82992 1.1513e+07 1 
0.0569687 -0.0149204 0.288 -0.544677 0.134325 -0.827818 1.14477e+07 1 
0.0581226 -0.0148686 0.287 -0.550607 0.127604 -0.824954 1.13159e+07 1 
0.0596815 -0.0149204 0.288 -0.487657 0.113636 -0.865608 1.11185e+07 1 
0.0599782 -0.0146613 0.283 -0.480722 0.16236 -0.861711 1.11835e+07 1 
0.0626109 -0.0149722 0.289 -0.334999 0.101071 -0.936782 1.15122e+07 1 
0.0628652 -0.0147131 0.284 -0.297677 0.151184 -0.94262 1.13801e+07 1 
0.0646549 -0.0148168 0.286 -0.16872 0.128789 -0.977214 1.13801e+07 1 
0.0646173 -0.0145059 0.28 -0.0237053 0.166591 -0.985741 1.15132e+07 1 
0.0678199 -0.0149204 0.288 0.081144 0.166414 -0.982712 1.15132e+07 1 
0.0686959 -0.0148168 0.286 0.173748 0.137179 -0.975189 1.26931e+07 1 
0.069553 -0.0147131 0.284 0.226913 0.187621 -0.955672 1.26114e+07 1 
0.0718891 -0.0149204 0.288 0.347801 0.291459 -0.891115 1.26114e+07 1 
0.0722282 -0.0147131 0.284 0.411021 0.265545 -0.872094 1.45107e+07 1 
0.0740838 -0.0148168 0.286 0.457122 0.33412 -0.824259 1.45107e+07 1 
0.0756945 -0.0148686 0.287 0.53673 0.317259 -0.781836 1.46423e+07 1 
-0.0143081 -0.0204402 0.434 0.869725 0.250878 -0.425016 1.05744e+07 0 
-0.0122076 -0.020346 0.432 0.84535 0.328142 -0.421552 1.01149e+07 0 
-0.0103378 -0.0206756 0.439 0.69012 0.392625 -0.607931 9.98303e+06 0 
-0.00832677 -0.0208169 0.442 0.337611 0.501118 -0.796806 8.14702e+06 0 
-0.00618856 -0.0206285 0.438 0.346023 0.591056 -0.728643 6.05372e+06 0 
-0.00415397 -0.0207698 0.441 -0.0750599 0.546171 -0.834304 6.0545e+06 0 
-0.00207227 -0.0207227 0.44 -0.13708 0.562626 -0.815267 6.31664e+06 0 
0 -0.0207227 0.44 -0.314304 0.420097 -0.851312 6.05474e+06 0 
0.0020864 -0.020864 0.443 -0.176641 0.590454 -0.787504 6.25238e+06 0 
0.00415397 -0.0207698 0.441 -0.335839 0.545685 -0.76775 5.92341e+06 0 
0.00611792 -0.0203931 0.433 -0.858716 -0.267754 -0.436937 5.79182e+06 0 
0.00764857 -0.0191214 0.406 -0.987862 -0.046352 -0.148257 5.98818e+06 0 
0.00934878 -0.0186976 0.397 -0.956387 -0.17985 -0.230169 8.55433e+06 0 
0.0108794 -0.0181324 0.385 -0.967589 -0.123109 -0.220491 9.01593e+06 0 
0.0127916 -0.0182737 0.388 -0.79857 -0.141238 -0.585096 8.81854e+06 0 
0.0142422 -0.0178027 0.378 -0.356577 0.030764 -0.933759 7.50293e+06 0 
0.0162344 -0.0180382 0.383 0.666718 0.263587 -0.697143 7.50293e+06 0 
0.017944 -0.017944 0.381 0.253247 0.226955 -0.940403 6.25366e+06 0 
0.0199456 -0.0181324 0.385 0.743803 0.230282 -0.627477 4.41223e+06 0 
