VERSION .7
FIELDS x y z rgb
SIZE 4 4 4 4
TYPE F F F F
COUNT 1 1 1 1
WIDTH 1225
HEIGHT 1
VIEWPOINT 0 0 0 1 0 0 0
POINTS 1225
DATA ascii
0.0508649 -0.0139878 0.27 2.18024e-38
0.0521365 -0.0139878 0.27 2.16191e-38
0.0532103 -0.013936 0.269 2.12521e-38
0.0548823 -0.0140397 0.271 2.14351e-38
0.0553297 -0.0138324 0.267 2.18028e-38
0.0570111 -0.013936 0.269 2.18028e-38
0.0580613 -0.0138842 0.268 2.18939e-38
0.0604303 -0.0141433 0.273 2.18939e-38
0.0608118 -0.013936 0.269 2.125e-38
0.0623095 -0.0139878 0.27 2.125e-38
0.0635811 -0.0139878 0.27 2.11585e-38
0.0658135 -0.0141951 0.274 2.11585e-38
0.0656346 -0.0138842 0.268 2.09756e-38
0.0676456 -0.0140397 0.271 2.10678e-38
0.0694306 -0.0141433 0.273 2.00565e-38
0.0707163 -0.0141433 0.273 1.98735e-38
0.0722658 -0.0141951 0.274 1.93218e-38
-0.030858 -0.0128575 0.273 1.51204e-38
-0.0285974 -0.0124336 0.264 1.51204e-38
-0.0272504 -0.0123865 0.263 1.51201e-38
-0.0259128 -0.0123394 0.262 1.33676e-38
-0.0245847 -0.0122924 0.261 1.10573e-38
-0.0233555 -0.0122924 0.261 9.951e-39
-0.0218719 -0.0121511 0.258 1.7144e-38
-0.0208169 -0.0122453 0.26 1.7144e-38
-0.0192156 -0.0120098 0.255 1.69593e-38
-0.0180147 -0.0120098 0.255 1.69593e-38
-0.0167477 -0.0119627 0.254 1.7139e-38
-0.0154902 -0.0119156 0.253 1.45554e-38
-0.0144682 -0.0120569 0.256 1.45554e-38
-0.0131071 -0.0119156 0.253 1.59437e-38
-0.0120569 -0.0120569 0.256 1.59437e-38
-0.010936 -0.0121511 0.258 1.61295e-38
-0.00972085 -0.0121511 0.258 1.64954e-38
-0.00870355 -0.0124336 0.264 1.64954e-38
-0.00743193 -0.0123865 0.263 1.56657e-38
-0.00614618 -0.0122924 0.261 1.53898e-38
-0.00486042 -0.0121511 0.258 1.69578e-38
-0.00364532 -0.0121511 0.258 1.67735e-38
-0.00243021 -0.0121511 0.258 1.76918e-38
-0.00121982 -0.0121982 0.259 1.34465e-38
0.0 -0.0122924 0.261 1.44553e-38
0.00122453 -0.0122453 0.26 1.56509e-38
0.00246789 -0.0123394 0.262 1.28915e-38
0.00367358 -0.0122453 0.26 1.06846e-38
0.00491694 -0.0122924 0.261 1.198e-38
0.00614618 -0.0122924 0.261 1.15212e-38
0.00737541 -0.0122924 0.261 9.77132e-39
0.00863761 -0.0123394 0.262 9.0334e-39
0.00975852 -0.0121982 0.259 1.05956e-38
0.0110207 -0.0122453 0.26 1.15176e-38
0.0123865 -0.0123865 0.263 1.15176e-38
0.013677 -0.0124336 0.264 1.44578e-38
0.0148639 -0.0123865 0.263 1.59293e-38
0.0161637 -0.0124336 0.264 1.99722e-38
0.0172093 -0.0122924 0.261 2.17113e-38
0.0185798 -0.0123865 0.263 2.17113e-38
0.0198185 -0.0123865 0.263 2.30878e-38
0.020897 -0.0122924 0.261 2.29949e-38
0.0220415 -0.0122453 0.26 2.29949e-38
0.023445 -0.0123394 0.262 2.29949e-38
0.0247731 -0.0123865 0.263 2.29941e-38
0.0258139 -0.0122924 0.261 2.29941e-38
0.0272504 -0.0123865 0.263 2.29941e-38
0.0283807 -0.0123394 0.262 2.29945e-38
0.0298407 -0.0124336 0.264 2.3086e-38
0.0309664 -0.0123865 0.263 2.29945e-38
0.0324499 -0.0124807 0.265 2.29945e-38
0.033698 -0.0124807 0.265 2.19857e-38
0.0353417 -0.012622 0.268 2.12518e-38
0.0366039 -0.012622 0.268 1.92249e-38
0.0375835 -0.0125278 0.266 6.92551e-39
0.0391283 -0.012622 0.268 5.55016e-39
0.0402398 -0.0125749 0.267 2.32714e-38
0.0414973 -0.0125749 0.267 2.34522e-38
0.0427548 -0.0125749 0.267 2.16184e-38
0.0441771 -0.012622 0.268 2.16184e-38
0.0451002 -0.0125278 0.266 2.25357e-38
0.0465273 -0.0125749 0.267 2.26279e-38
0.0477847 -0.0125749 0.267 2.18939e-38
0.0494096 -0.0126691 0.269 2.18017e-38
0.0508649 -0.0127162 0.27 1.88612e-38
0.0521365 -0.0127162 0.27 1.74808e-38
0.0532103 -0.0126691 0.269 1.38978e-38
0.0550848 -0.0128104 0.272 1.38978e-38
0.0557442 -0.0126691 0.269 1.28883e-38
0.057223 -0.0127162 0.27 1.19685e-38
0.0584946 -0.0127162 0.27 1.17856e-38
0.0604303 -0.0128575 0.273 1.17856e-38
0.0608118 -0.0126691 0.269 1.14165e-38
0.0623095 -0.0127162 0.27 1.10491e-38
0.0640521 -0.0128104 0.272 1.10491e-38
0.0660537 -0.0129517 0.275 1.06836e-38
0.067104 -0.0129046 0.274 1.10538e-38
0.0681448 -0.0128575 0.273 1.0134e-38
0.0699392 -0.0129517 0.275 1.0223e-38
0.0707163 -0.0128575 0.273 1.01318e-38
0.0725296 -0.0129517 0.275 1.01326e-38
0.0740932 -0.0129988 0.276 1.17939e-38
-0.030858 -0.0115718 0.273 1.63193e-38
-0.028814 -0.0112751 0.266 1.4936e-38
-0.027354 -0.0111903 0.264 1.4936e-38
-0.0259128 -0.0111055 0.262 1.4936e-38
-0.0245847 -0.0110631 0.261 1.51143e-38
-0.0233555 -0.0110631 0.261 8.2922e-39
-0.0218719 -0.010936 0.258 1.74199e-38
-0.0204967 -0.0108512 0.256 1.70508e-38
-0.019291 -0.0108512 0.256 1.70508e-38
-0.0181559 -0.0108936 0.257 1.68664e-38
-0.0170115 -0.010936 0.258 1.61213e-38
-0.0156739 -0.0108512 0.256 1.52908e-38
-0.0145248 -0.0108936 0.257 1.46447e-38
-0.0131071 -0.010724 0.253 1.63082e-38
-0.0120569 -0.0108512 0.256 1.66798e-38
-0.010936 -0.010936 0.258 1.6772e-38
-0.00968317 -0.0108936 0.257 1.62134e-38
-0.00857168 -0.0110207 0.26 1.62134e-38
-0.00729064 -0.010936 0.258 1.5571e-38
-0.00607553 -0.010936 0.258 1.52987e-38
-0.00484158 -0.0108936 0.257 1.58544e-38
-0.00363119 -0.0108936 0.257 1.61317e-38
-0.00242079 -0.0108936 0.257 1.5477e-38
-0.00121982 -0.0109783 0.259 1.4277e-38
0.0 -0.0110207 0.26 1.50127e-38
0.00122453 -0.0110207 0.26 1.43739e-38
0.00245847 -0.0110631 0.261 1.43739e-38
0.00367358 -0.0110207 0.26 1.04174e-38
0.0048981 -0.0110207 0.26 1.1156e-38
0.00614618 -0.0110631 0.261 1.00493e-38
0.00734715 -0.0110207 0.26 8.6675e-39
0.00867058 -0.0111479 0.263 8.75933e-39
0.0097962 -0.0110207 0.26 9.13027e-39
0.0111055 -0.0111055 0.262 9.22246e-39
0.0123865 -0.0111479 0.263 9.22282e-39
0.013677 -0.0111903 0.264 9.40722e-39
0.0148073 -0.0111055 0.262 9.49868e-39
0.0161025 -0.0111479 0.263 9.49868e-39
0.0172093 -0.0110631 0.261 1.12407e-38
0.0185092 -0.0111055 0.262 1.21572e-38
0.0198938 -0.0111903 0.264 1.29834e-38
0.0209771 -0.0111055 0.262 1.58317e-38
0.0219567 -0.0109783 0.259 2.04242e-38
0.0235344 -0.0111479 0.263 2.04242e-38
0.0245847 -0.0110631 0.261 2.25346e-38
0.0259128 -0.0111055 0.262 2.25346e-38
0.0272504 -0.0111479 0.263 2.26268e-38
0.0283807 -0.0111055 0.262 2.29034e-38
0.0297277 -0.0111479 0.263 2.26286e-38
0.0309664 -0.0111479 0.263 2.24446e-38
0.0323275 -0.0111903 0.264 2.24438e-38
0.033698 -0.0112327 0.265 2.04246e-38
0.0350779 -0.0112751 0.266 2.0148e-38
0.0364673 -0.0113174 0.267 1.08658e-38
0.0374422 -0.0112327 0.265 1.01376e-38
0.0389823 -0.0113174 0.267 1.13361e-38
0.0400891 -0.0112751 0.266 2.06097e-38
0.0411864 -0.0112327 0.265 2.27201e-38
0.0425946 -0.0112751 0.266 2.34529e-38
0.0440123 -0.0113174 0.267 2.336e-38
0.0456089 -0.0114022 0.269 2.25353e-38
0.0468758 -0.0114022 0.269 2.01476e-38
0.0476058 -0.0112751 0.266 1.43595e-38
0.0490422 -0.0113174 0.267 1.23381e-38
0.0508649 -0.0114446 0.27 1.23381e-38
0.0523296 -0.011487 0.271 1.0868e-38
0.053606 -0.011487 0.271 1.0868e-38
0.0550848 -0.0115294 0.272 1.05006e-38
0.0559514 -0.0114446 0.27 1.34545e-38
0.057435 -0.011487 0.271 1.34545e-38
0.0584946 -0.0114446 0.27 1.27194e-38
0.0599876 -0.011487 0.271 1.32733e-38
0.0608118 -0.0114022 0.269 1.41016e-38
0.0625403 -0.011487 0.271 1.41931e-38
0.0645231 -0.0116142 0.274 1.36406e-38
0.0658135 -0.0116142 0.274 1.3457e-38
0.0666142 -0.0115294 0.272 1.36421e-38
0.0678952 -0.0115294 0.272 1.36431e-38
0.0699392 -0.0116565 0.275 1.43778e-38
0.0701983 -0.011487 0.271 1.37325e-38
0.0730571 -0.0117413 0.277 1.41935e-38
0.0730194 -0.0115294 0.272 1.3363e-38
-0.030745 -0.0102483 0.272 1.44758e-38
-0.028814 -0.0100223 0.266 1.43836e-38
-0.0272504 -0.00990924 0.263 1.47524e-38
-0.025715 -0.0097962 0.26 1.40148e-38
-0.0243021 -0.00972085 0.258 8.47659e-39
-0.023266 -0.0097962 0.26 9.58294e-39
-0.0218719 -0.00972085 0.258 1.71433e-38
-0.0205767 -0.00968317 0.257 1.69582e-38
-0.0191403 -0.00957014 0.254 1.69586e-38
-0.0181559 -0.00968317 0.257 1.69586e-38
-0.0170115 -0.00972085 0.258 1.70497e-38
-0.0156127 -0.00960782 0.255 1.63989e-38
-0.0145248 -0.00968317 0.257 1.69542e-38
-0.0131589 -0.00957014 0.254 1.65858e-38
-0.0121982 -0.00975852 0.259 1.60327e-38
-0.0109783 -0.00975852 0.259 1.60359e-38
-0.00975852 -0.00975852 0.259 1.65837e-38
-0.00860464 -0.00983388 0.261 1.61209e-38
-0.00729064 -0.00972085 0.258 1.54748e-38
-0.00612263 -0.0097962 0.26 1.5204e-38
-0.00484158 -0.00968317 0.257 1.63157e-38
-0.00364532 -0.00972085 0.258 1.59469e-38
-0.00242079 -0.00968317 0.257 1.62203e-38
-0.00121982 -0.00975852 0.259 1.41001e-38
0.0 -0.0097962 0.26 1.43767e-38
0.00122924 -0.00983388 0.261 1.3919e-38
0.00243963 -0.00975852 0.259 1.05114e-38
0.0036877 -0.00983388 0.261 1.02348e-38
0.0048981 -0.0097962 0.26 1.03259e-38
0.00616972 -0.00987156 0.262 9.68056e-39
0.00740367 -0.00987156 0.262 9.95858e-39
0.00867058 -0.00990924 0.263 1.00515e-38
0.00968317 -0.00968317 0.257 8.57853e-39
0.0110207 -0.0097962 0.26 9.31538e-39
0.0122924 -0.00983388 0.261 8.48634e-39
0.0134698 -0.0097962 0.26 9.31467e-39
0.0146943 -0.0097962 0.26 9.22571e-39
0.0161025 -0.00990924 0.263 9.77528e-39
0.0171434 -0.0097962 0.26 9.13495e-39
0.0183679 -0.0097962 0.26 1.05161e-38
0.0196678 -0.00983388 0.261 1.08777e-38
0.020897 -0.00983388 0.261 1.10585e-38
0.0221262 -0.00983388 0.261 1.22509e-38
0.0238029 -0.0100223 0.266 1.21587e-38
0.0248673 -0.00994691 0.264 1.61083e-38
0.0261106 -0.00994691 0.264 2.12503e-38
0.0272504 -0.00990924 0.263 2.29027e-38
0.0283807 -0.00987156 0.262 2.28115e-38
0.0297277 -0.00990924 0.263 2.34529e-38
0.0309664 -0.00990924 0.263 2.34529e-38
0.0324499 -0.00998459 0.265 2.30874e-38
0.0338252 -0.0100223 0.266 2.29952e-38
0.0353417 -0.0100976 0.268 1.69316e-38
0.0363307 -0.0100223 0.266 7.56222e-39
0.0375835 -0.0100223 0.266 6.2816e-39
0.0388363 -0.0100223 0.266 1.51003e-38
0.0400891 -0.0100223 0.266 2.30867e-38
0.0416527 -0.0100976 0.268 2.3453e-38
0.043075 -0.0101353 0.269 2.33618e-38
0.0441771 -0.0100976 0.268 2.29034e-38
0.0456089 -0.0101353 0.269 2.07001e-38
0.0468758 -0.0101353 0.269 1.6843e-38
0.0476058 -0.0100223 0.266 1.14229e-38
0.0490422 -0.0100599 0.267 1.06865e-38
0.0506765 -0.0101353 0.269 1.07779e-38
0.0523296 -0.0102107 0.271 1.0962e-38
0.053606 -0.0102107 0.271 1.11435e-38
0.0550848 -0.0102483 0.272 1.05003e-38
0.0559514 -0.010173 0.27 1.01329e-38
0.057223 -0.010173 0.27 1.44711e-38
0.058278 -0.0101353 0.269 1.52108e-38
0.0597663 -0.010173 0.27 1.43818e-38
0.0605857 -0.0100976 0.268 1.43782e-38
0.0620787 -0.0101353 0.269 1.43789e-38
0.0635811 -0.010173 0.27 1.38265e-38
0.0650929 -0.0102107 0.271 1.31811e-38
0.0666142 -0.0102483 0.272 1.25364e-38
0.0681448 -0.010286 0.273 1.28138e-38
0.0689219 -0.0102107 0.271 1.23492e-38
0.0704573 -0.0102483 0.272 1.23492e-38
0.0730571 -0.0104367 0.277 1.25336e-38
0.0730194 -0.0102483 0.272 1.06886e-38
-0.0311971 -0.00909917 0.276 1.2539e-38
-0.0285974 -0.00870355 0.264 1.43836e-38
-0.0270432 -0.00860464 0.261 1.40159e-38
-0.025715 -0.00857168 0.26 1.42925e-38
-0.0243021 -0.00850574 0.258 1.41002e-38
-0.023087 -0.00850574 0.258 1.13347e-38
-0.0217024 -0.00843981 0.256 1.58526e-38
-0.0204967 -0.00843981 0.256 1.67738e-38
-0.0191403 -0.00837387 0.254 1.6682e-38
-0.0182266 -0.00850574 0.258 1.6682e-38
-0.0170774 -0.00853871 0.259 1.67713e-38
-0.0156127 -0.00840684 0.255 1.60283e-38
-0.0146378 -0.00853871 0.259 1.68621e-38
-0.0132107 -0.00840684 0.255 1.59369e-38
-0.0121511 -0.00850574 0.258 1.58439e-38
-0.010936 -0.00850574 0.258 1.60323e-38
-0.00972085 -0.00850574 0.258 1.60305e-38
-0.00850574 -0.00850574 0.258 1.56585e-38
-0.00731889 -0.00853871 0.259 1.56599e-38
-0.00614618 -0.00860464 0.261 1.56599e-38
-0.00484158 -0.00847277 0.257 1.65916e-38
-0.00365945 -0.00853871 0.259 1.65916e-38
-0.00242079 -0.00847277 0.257 1.4103e-38
-0.00122453 -0.00857168 0.26 1.49331e-38
0.0 -0.00857168 0.26 1.41956e-38
0.00123394 -0.00863761 0.262 1.32765e-38
0.00245847 -0.00860464 0.261 1.1344e-38
0.00370183 -0.00863761 0.262 1.03288e-38
0.0048981 -0.00857168 0.26 9.67948e-39
0.00619327 -0.00867058 0.263 9.40289e-39
0.00746018 -0.00870355 0.264 8.57384e-39
0.00876949 -0.00876949 0.266 7.6526e-39
0.0097962 -0.00857168 0.26 1.10671e-38
0.0111903 -0.00870355 0.264 1.08823e-38
0.0124807 -0.00873652 0.265 1.07912e-38
0.0135216 -0.00860464 0.261 1.11593e-38
0.0147508 -0.00860464 0.261 1.12515e-38
0.016225 -0.00873652 0.265 1.13433e-38
0.0171434 -0.00857168 0.26 1.06983e-38
0.0183679 -0.00857168 0.26 1.06994e-38
0.0196678 -0.00860464 0.261 1.06994e-38
0.020897 -0.00860464 0.261 9.50409e-39
0.0221262 -0.00860464 0.261 9.96004e-39
0.0236239 -0.00870355 0.264 9.96004e-39
0.0247731 -0.00867058 0.263 9.77673e-39
0.0261106 -0.00870355 0.264 9.68488e-39
0.027354 -0.00870355 0.264 9.86638e-39
0.0284891 -0.00867058 0.263 1.45417e-38
0.0297277 -0.00867058 0.263 1.67497e-38
0.0310841 -0.00870355 0.264 2.13404e-38
0.0325724 -0.00876949 0.266 2.14326e-38
0.0335708 -0.00870355 0.264 1.68444e-38
0.0349461 -0.00873652 0.265 1.41708e-38
0.0361941 -0.00873652 0.265 4.26301e-39
0.0374422 -0.00873652 0.265 1.8401e-38
0.0385443 -0.00870355 0.264 2.29044e-38
0.0400891 -0.00876949 0.266 2.29041e-38
0.0416527 -0.00883542 0.268 2.34519e-38
0.043075 -0.00886839 0.269 2.26282e-38
0.0443419 -0.00886839 0.269 2.24446e-38
0.0456089 -0.00886839 0.269 1.70263e-38
0.0467015 -0.00883542 0.268 1.27976e-38
0.0476058 -0.00876949 0.266 1.12379e-38
0.0490422 -0.00880245 0.267 1.15141e-38
0.0506765 -0.00886839 0.269 1.15159e-38
0.0523296 -0.00893433 0.271 1.1334e-38
0.053606 -0.00893433 0.271 1.10538e-38
0.0548823 -0.00893433 0.271 1.04999e-38
0.0559514 -0.00890136 0.27 1.04095e-38
0.057435 -0.00893433 0.271 1.04095e-38
0.058278 -0.00886839 0.269 9.58118e-39
0.0597663 -0.00890136 0.27 8.93546e-39
0.0601336 -0.00876949 0.266 9.67194e-39
0.0618479 -0.00883542 0.268 9.58118e-39
0.0635811 -0.00890136 0.27 9.3046e-39
0.0650929 -0.00893433 0.271 1.12414e-38
0.0661244 -0.00890136 0.27 1.19801e-38
0.067396 -0.00890136 0.27 1.07815e-38
0.0696849 -0.00903323 0.274 1.0689e-38
0.0701983 -0.00893433 0.271 1.13354e-38
0.0730571 -0.00913213 0.277 1.13354e-38
0.0732878 -0.00900026 0.273 9.95246e-39
-0.0309711 -0.00774277 0.274 1.48449e-38
-0.0287057 -0.00748844 0.265 1.43821e-38
-0.0272504 -0.00743193 0.263 1.43821e-38
-0.025715 -0.00734715 0.26 1.17931e-38
-0.0243021 -0.00729064 0.258 1.26214e-38
-0.0229975 -0.00726238 0.257 1.16065e-38
-0.0217871 -0.00726238 0.257 1.16995e-38
-0.0206568 -0.00729064 0.258 1.63107e-38
-0.019291 -0.00723412 0.256 1.69517e-38
-0.0180853 -0.00723412 0.256 1.72254e-38
-0.0168796 -0.00723412 0.256 1.7031e-38
-0.0154902 -0.00714934 0.253 1.52782e-38
-0.0145248 -0.00726238 0.257 1.52782e-38
-0.0131589 -0.0071776 0.254 1.58407e-38
-0.0121982 -0.00731889 0.259 1.53797e-38
-0.010936 -0.00729064 0.258 1.53797e-38
-0.00972085 -0.00729064 0.258 1.60269e-38
-0.00857168 -0.00734715 0.26 1.5841e-38
-0.00731889 -0.00731889 0.259 1.54716e-38
-0.00609908 -0.00731889 0.259 1.54741e-38
-0.00482275 -0.00723412 0.256 1.60377e-38
-0.00364532 -0.00729064 0.258 1.60377e-38
-0.00243963 -0.00731889 0.259 1.45658e-38
-0.00122453 -0.00734715 0.26 1.42892e-38
0.0 -0.00740367 0.262 1.38282e-38
0.00123394 -0.00740367 0.262 1.34606e-38
0.00247731 -0.00743193 0.263 1.21702e-38
0.00370183 -0.00740367 0.262 1.22617e-38
0.0048981 -0.00734715 0.26 1.08705e-38
0.00616972 -0.00740367 0.262 1.07783e-38
0.00740367 -0.00740367 0.262 9.30745e-39
0.00876949 -0.0075167 0.266 9.30745e-39
0.0097962 -0.00734715 0.26 8.11251e-39
0.0111479 -0.00743193 0.263 8.11251e-39
0.0124336 -0.00746018 0.264 8.11251e-39
0.0135734 -0.00740367 0.262 9.03843e-39
0.0148073 -0.00740367 0.262 1.05146e-38
0.0161025 -0.00743193 0.263 1.05146e-38
0.0170774 -0.00731889 0.259 1.09745e-38
0.0185092 -0.00740367 0.262 1.08827e-38
0.0198938 -0.00746018 0.264 1.11589e-38
0.0211372 -0.00746018 0.264 1.13433e-38
0.0222958 -0.00743193 0.263 1.11589e-38
0.0235344 -0.00743193 0.263 1.09742e-38
0.0248673 -0.00746018 0.264 1.05139e-38
0.0262096 -0.00748844 0.265 1.06061e-38
0.027354 -0.00746018 0.264 9.86819e-39
0.0287057 -0.00748844 0.265 9.77708e-39
0.0300668 -0.0075167 0.266 9.59341e-39
0.0310841 -0.00746018 0.264 1.08737e-38
0.0325724 -0.0075167 0.266 1.13289e-38
0.0335708 -0.00746018 0.264 6.92083e-39
0.0349461 -0.00748844 0.265 4.53637e-39
0.0363307 -0.0075167 0.266 4.99734e-39
0.0374422 -0.00748844 0.265 1.42738e-38
0.0386903 -0.00748844 0.265 2.31782e-38
0.0402398 -0.00754496 0.267 2.26282e-38
0.0411864 -0.00748844 0.265 2.13429e-38
0.0422744 -0.00746018 0.264 2.13429e-38
0.0438474 -0.0075167 0.266 2.12507e-38
0.0451002 -0.0075167 0.266 1.35359e-38
0.0461787 -0.00748844 0.265 1.17914e-38
0.0479637 -0.00757322 0.268 1.12404e-38
0.0488586 -0.0075167 0.266 1.16974e-38
0.0502997 -0.00754496 0.267 1.30893e-38
0.0521365 -0.00762973 0.27 1.30889e-38
0.0530125 -0.00757322 0.268 1.50243e-38
0.0548823 -0.00765799 0.271 1.50243e-38
0.0553297 -0.00754496 0.267 1.41016e-38
0.0567991 -0.00757322 0.268 9.86062e-39
0.0580613 -0.00757322 0.268 1.41935e-38
0.0595449 -0.00760148 0.269 1.40094e-38
0.0601336 -0.0075167 0.266 1.42867e-38
0.0620787 -0.00760148 0.269 1.45633e-38
0.0628747 -0.00754496 0.267 1.37339e-38
0.0646126 -0.00760148 0.269 1.35495e-38
0.0663693 -0.00765799 0.271 1.36421e-38
0.0676456 -0.00765799 0.271 1.42871e-38
0.0699392 -0.00777103 0.275 1.36406e-38
0.0714934 -0.00779928 0.276 1.40094e-38
0.0730571 -0.00782754 0.277 1.41016e-38
0.0735563 -0.00774277 0.274 1.23485e-38
-0.030858 -0.00642876 0.273 1.41985e-38
-0.0284891 -0.00619327 0.263 1.44736e-38
-0.0271468 -0.00616972 0.262 1.43793e-38
-0.025715 -0.00612263 0.26 1.38174e-38
-0.0243963 -0.00609908 0.259 1.42766e-38
-0.023087 -0.00607553 0.258 1.45532e-38
-0.0217871 -0.00605198 0.257 1.63027e-38
-0.0205767 -0.00605198 0.257 1.70403e-38
-0.019291 -0.00602843 0.256 1.77725e-38
-0.0182266 -0.00607553 0.258 1.74058e-38
-0.0170774 -0.00609908 0.259 1.72193e-38
-0.0156127 -0.00600488 0.255 1.80404e-38
-0.0146943 -0.00612263 0.26 1.83174e-38
-0.0132107 -0.00600488 0.255 1.62077e-38
-0.0121511 -0.00607553 0.258 1.69406e-38
-0.0109783 -0.00609908 0.259 1.63939e-38
-0.00972085 -0.00607553 0.258 1.58403e-38
-0.00847277 -0.00605198 0.257 1.56549e-38
-0.00731889 -0.00609908 0.259 1.53812e-38
-0.00614618 -0.00614618 0.261 1.53866e-38
-0.00487926 -0.00609908 0.259 1.56675e-38
-0.0036877 -0.00614618 0.261 1.56675e-38
-0.00243963 -0.00609908 0.259 1.4474e-38
-0.00122453 -0.00612263 0.26 1.41048e-38
0.0 -0.00609908 0.259 1.33684e-38
0.00124807 -0.00624037 0.265 1.4013e-38
0.00246789 -0.00616972 0.262 1.24468e-38
0.00367358 -0.00612263 0.26 1.33669e-38
0.00486042 -0.00607553 0.258 1.43642e-38
0.00607553 -0.00607553 0.258 1.28912e-38
0.00734715 -0.00612263 0.26 1.12363e-38
0.00860464 -0.00614618 0.261 9.76518e-39
0.0097962 -0.00612263 0.26 9.39929e-39
0.0110631 -0.00614618 0.261 9.03123e-39
0.0123865 -0.00619327 0.263 8.84649e-39
0.0136252 -0.00619327 0.263 8.02176e-39
0.0147508 -0.00614618 0.261 8.48418e-39
0.0161025 -0.00619327 0.263 8.57637e-39
0.0170774 -0.00609908 0.259 1.12504e-38
0.0184385 -0.00614618 0.261 1.12504e-38
0.0199692 -0.00624037 0.265 1.12504e-38
0.0210571 -0.00619327 0.263 1.06987e-38
0.0222958 -0.00619327 0.263 1.07909e-38
0.0235344 -0.00619327 0.263 1.08831e-38
0.0248673 -0.00621682 0.264 1.17121e-38
0.0261106 -0.00621682 0.264 1.13433e-38
0.0271468 -0.00616972 0.262 1.08823e-38
0.0285974 -0.00621682 0.264 1.08823e-38
0.0298407 -0.00621682 0.264 9.04167e-39
0.0315551 -0.00631102 0.268 9.49977e-39
0.0323275 -0.00621682 0.264 9.40829e-39
0.0335708 -0.00621682 0.264 5.08377e-39
0.0353417 -0.00631102 0.268 5.08377e-39
0.0364673 -0.00628747 0.267 6.2816e-39
0.0378661 -0.00631102 0.268 6.74257e-39
0.0386903 -0.00624037 0.265 2.2352e-38
0.0399384 -0.00624037 0.265 2.24453e-38
0.0413419 -0.00626392 0.266 2.24453e-38
0.0421143 -0.00619327 0.263 2.13422e-38
0.0440123 -0.00628747 0.267 2.13422e-38
0.0445916 -0.00619327 0.263 1.17924e-38
0.0461787 -0.00624037 0.265 1.17924e-38
0.0476058 -0.00626392 0.266 1.14226e-38
0.0486749 -0.00624037 0.265 1.14226e-38
0.0504881 -0.00631102 0.268 1.124e-38
0.0523296 -0.00638166 0.271 1.43775e-38
0.053606 -0.00638166 0.271 1.30889e-38
0.0546798 -0.00635811 0.27 1.3457e-38
0.0557442 -0.00633456 0.269 1.06904e-38
0.0570111 -0.00633456 0.269 9.86026e-39
0.0587113 -0.00638166 0.271 1.29938e-38
0.0597663 -0.00635811 0.27 1.55753e-38
0.0603597 -0.00628747 0.267 1.12425e-38
0.0627711 -0.00640521 0.272 1.12425e-38
0.0633456 -0.00633456 0.269 1.09656e-38
0.0655733 -0.00642876 0.273 1.09656e-38
0.0663693 -0.00638166 0.271 9.49114e-39
0.0678952 -0.00640521 0.272 1.07801e-38
0.0696849 -0.00645231 0.274 1.07801e-38
0.0709754 -0.00645231 0.274 9.4897e-39
0.0733208 -0.0065465 0.278 9.4897e-39
0.0735563 -0.00645231 0.274 9.48791e-39
-0.0310841 -0.00518068 0.275 1.41999e-38
-0.0284891 -0.00495462 0.263 1.39215e-38
-0.0271468 -0.00493578 0.262 1.39215e-38
-0.0258139 -0.00491694 0.261 1.42896e-38
-0.0243021 -0.00486042 0.258 1.65822e-38
-0.0229975 -0.00484158 0.257 1.50138e-38
-0.0216176 -0.00480391 0.255 1.45543e-38
-0.0204967 -0.00482275 0.256 1.45575e-38
-0.019291 -0.00482275 0.256 1.4376e-38
-0.0181559 -0.00484158 0.257 1.40065e-38
-0.0168796 -0.00482275 0.256 1.51053e-38
-0.0154902 -0.00476623 0.253 1.54662e-38
-0.0146378 -0.00487926 0.259 1.55663e-38
-0.0132626 -0.00482275 0.256 1.52803e-38
-0.012104 -0.00484158 0.257 1.69398e-38
-0.0108936 -0.00484158 0.257 1.74937e-38
-0.00968317 -0.00484158 0.257 1.58378e-38
-0.00853871 -0.00487926 0.259 1.54705e-38
-0.00743193 -0.00495462 0.263 1.54705e-38
-0.00612263 -0.0048981 0.26 1.47401e-38
-0.00491694 -0.00491694 0.261 1.31767e-38
-0.00371596 -0.00495462 0.263 1.33608e-38
-0.00243963 -0.00487926 0.259 1.52115e-38
-0.00122453 -0.0048981 0.26 1.4197e-38
0.0 -0.00487926 0.259 1.38286e-38
0.00123865 -0.00495462 0.263 1.33683e-38
0.00246789 -0.00493578 0.262 1.22617e-38
0.00363119 -0.00484158 0.257 1.4197e-38
0.00482275 -0.00482275 0.256 1.76699e-38
0.00607553 -0.00486042 0.258 1.81247e-38
0.00731889 -0.00487926 0.259 1.74794e-38
0.00860464 -0.00491694 0.261 1.78481e-38
0.00975852 -0.00487926 0.259 1.35308e-38
0.0110631 -0.00491694 0.261 1.14211e-38
0.0124336 -0.00497346 0.264 1.01372e-38
0.0135734 -0.00493578 0.262 9.49256e-39
0.0148073 -0.00493578 0.262 9.3089e-39
0.0161025 -0.00495462 0.263 8.66641e-39
0.0171434 -0.0048981 0.26 8.57493e-39
0.0184385 -0.00491694 0.261 9.31356e-39
0.0198185 -0.00495462 0.263 9.31356e-39
0.0209771 -0.00493578 0.262 1.05121e-38
0.0222958 -0.00495462 0.263 1.06965e-38
0.023445 -0.00493578 0.262 1.12511e-38
0.0247731 -0.00495462 0.263 1.05146e-38
0.0262096 -0.0049923 0.265 1.04225e-38
0.027354 -0.00497346 0.264 1.06987e-38
0.0285974 -0.00497346 0.264 1.06987e-38
0.0297277 -0.00495462 0.263 1.14344e-38
0.0314373 -0.00502997 0.267 1.14344e-38
0.0325724 -0.00501113 0.266 1.09738e-38
0.033698 -0.0049923 0.265 4.53349e-39
0.0353417 -0.00504881 0.268 4.53349e-39
0.0366039 -0.00504881 0.268 4.54105e-39
0.0380074 -0.00506765 0.269 4.81763e-39
0.0388363 -0.00501113 0.266 1.28948e-38
0.0400891 -0.00501113 0.266 1.7394e-38
0.0413419 -0.00501113 0.266 2.15269e-38
0.0422744 -0.00497346 0.264 1.91424e-38
0.0438474 -0.00501113 0.266 1.90503e-38
0.0449307 -0.0049923 0.265 1.19761e-38
0.0460045 -0.00497346 0.264 1.133e-38
0.0476058 -0.00501113 0.266 1.133e-38
0.0486749 -0.0049923 0.265 1.08691e-38
0.049923 -0.0049923 0.265 1.09613e-38
0.0517503 -0.00504881 0.268 9.94783e-39
0.0532103 -0.00506765 0.269 9.94783e-39
0.0546798 -0.00508649 0.27 1.07779e-38
0.0555369 -0.00504881 0.268 1.08723e-38
0.0565872 -0.00502997 0.267 1.49303e-38
0.0584946 -0.00508649 0.27 1.49303e-38
0.0599876 -0.00510533 0.271 1.22566e-38
0.0612639 -0.00510533 0.271 1.17949e-38
0.0627711 -0.00512417 0.272 1.15184e-38
0.0631102 -0.00504881 0.268 1.16116e-38
0.0648527 -0.00508649 0.27 1.16116e-38
0.0661244 -0.00508649 0.27 1.36403e-38
0.0678952 -0.00512417 0.272 1.43779e-38
0.0696849 -0.00516185 0.274 1.40101e-38
0.0704573 -0.00512417 0.272 1.40094e-38
0.0725296 -0.00518068 0.275 1.39172e-38
0.0735563 -0.00516185 0.274 1.42846e-38
-0.0314232 -0.0039279 0.278 6.08563e-39
-0.0285974 -0.00373009 0.264 1.41956e-38
-0.027354 -0.00373009 0.264 1.36442e-38
-0.0260117 -0.00371596 0.263 1.39194e-38
-0.0246789 -0.00370183 0.262 1.6123e-38
-0.0229975 -0.00363119 0.257 1.2531e-38
-0.0217024 -0.00361706 0.256 1.26307e-38
-0.0203365 -0.0035888 0.254 1.32783e-38
-0.0192156 -0.00360293 0.255 1.30939e-38
-0.0182266 -0.00364532 0.258 1.32783e-38
-0.0169455 -0.00363119 0.257 1.45589e-38
-0.0155515 -0.0035888 0.254 1.65844e-38
-0.0146378 -0.00365945 0.259 1.64011e-38
-0.0133144 -0.00363119 0.257 1.53855e-38
-0.0121511 -0.00364532 0.258 1.2621e-38
-0.0111055 -0.00370183 0.262 1.38196e-38
-0.00968317 -0.00363119 0.257 1.4e-38
-0.00850574 -0.00364532 0.258 1.49209e-38
-0.00743193 -0.00371596 0.263 1.49209e-38
-0.00621682 -0.00373009 0.264 1.27986e-38
-0.00491694 -0.0036877 0.261 1.23427e-38
-0.0036877 -0.0036877 0.261 1.52065e-38
-0.00244905 -0.00367358 0.26 1.57651e-38
-0.00121982 -0.00365945 0.259 1.63164e-38
0.0 -0.00364532 0.258 1.50257e-38
0.00123394 -0.00370183 0.262 1.50257e-38
0.00245847 -0.0036877 0.261 1.42892e-38
0.00363119 -0.00363119 0.257 1.88605e-38
0.00486042 -0.00364532 0.258 1.92257e-38
0.00612263 -0.00367358 0.26 1.92257e-38
0.00740367 -0.00370183 0.262 2.0233e-38
0.00860464 -0.0036877 0.261 2.09662e-38
0.0097962 -0.00367358 0.26 2.11503e-38
0.010936 -0.00364532 0.258 1.83977e-38
0.0123394 -0.00370183 0.262 1.83977e-38
0.0136252 -0.00371596 0.263 1.67465e-38
0.0147508 -0.0036877 0.261 1.33497e-38
0.0160413 -0.00370183 0.262 1.33497e-38
0.0172093 -0.0036877 0.261 1.05942e-38
0.0184385 -0.0036877 0.261 9.12487e-39
0.0198938 -0.00373009 0.264 9.12487e-39
0.0211372 -0.00373009 0.264 8.75716e-39
0.022211 -0.00370183 0.262 8.75717e-39
0.023445 -0.00370183 0.262 9.77168e-39
0.0246789 -0.00370183 0.262 9.59017e-39
0.0261106 -0.00373009 0.264 9.21923e-39
0.027354 -0.00373009 0.264 9.86964e-39
0.0285974 -0.00373009 0.264 9.59161e-39
0.0298407 -0.00373009 0.264 1.0515e-38
0.0313196 -0.00375835 0.266 1.04214e-38
0.0326948 -0.00377248 0.267 9.68992e-39
0.033698 -0.00374422 0.265 4.72403e-39
0.0352098 -0.00377248 0.267 4.90407e-39
0.0364673 -0.00377248 0.267 7.3854e-39
0.0381487 -0.00381487 0.27 8.85477e-39
0.0392743 -0.00380074 0.269 8.85368e-39
0.0402398 -0.00377248 0.267 9.95533e-39
0.0414973 -0.00377248 0.267 1.31714e-38
0.0427548 -0.00377248 0.267 1.50081e-38
0.0443419 -0.00380074 0.269 1.657e-38
0.0456089 -0.00380074 0.269 1.23445e-38
0.046353 -0.00375835 0.266 1.18836e-38
0.0477847 -0.00377248 0.267 1.16066e-38
0.0490422 -0.00377248 0.267 1.12378e-38
0.0501113 -0.00375835 0.266 1.11456e-38
0.0515572 -0.00377248 0.267 1.10534e-38
0.0528147 -0.00377248 0.267 1.06854e-38
0.0542747 -0.00378661 0.268 1.08698e-38
0.0551225 -0.00375835 0.266 1.29031e-38
0.0563753 -0.00375835 0.266 1.54849e-38
0.0580613 -0.00378661 0.268 1.2719e-38
0.0595449 -0.00380074 0.269 1.31804e-38
0.0612639 -0.003829 0.271 1.36424e-38
0.0634634 -0.00388551 0.275 1.40112e-38
0.0638166 -0.003829 0.271 1.37353e-38
0.0648527 -0.00381487 0.27 1.38275e-38
0.0663693 -0.003829 0.271 1.31822e-38
0.067396 -0.00381487 0.27 1.34595e-38
0.0691763 -0.00384313 0.272 1.32751e-38
0.0699392 -0.00381487 0.27 1.38265e-38
0.0714746 -0.003829 0.271 1.38265e-38
0.0732878 -0.00385725 0.273 1.00418e-38
-0.0313102 -0.00260918 0.277 1.29077e-38
-0.028814 -0.00250557 0.266 1.35517e-38
-0.0271468 -0.00246789 0.262 1.36428e-38
-0.0258139 -0.00245847 0.261 1.41034e-38
-0.0245847 -0.00245847 0.261 1.45644e-38
-0.022908 -0.00241137 0.256 1.33662e-38
-0.0217871 -0.00242079 0.257 1.22566e-38
-0.0203365 -0.00239253 0.254 1.29077e-38
-0.0191403 -0.00239253 0.254 1.30921e-38
-0.0182266 -0.00243021 0.258 1.30921e-38
-0.0170115 -0.00243021 0.258 1.42838e-38
-0.0156739 -0.00241137 0.256 1.51114e-38
-0.0146378 -0.00243963 0.259 1.45582e-38
-0.0133144 -0.00242079 0.257 1.73241e-38
-0.0120098 -0.00240195 0.255 1.16127e-38
-0.0109783 -0.00243963 0.259 1.16127e-38
-0.00972085 -0.00243021 0.258 1.23445e-38
-0.00853871 -0.00243963 0.259 1.29898e-38
-0.00737541 -0.00245847 0.261 1.29898e-38
-0.00612263 -0.00244905 0.26 1.30788e-38
-0.0048981 -0.00244905 0.26 1.36367e-38
-0.00367358 -0.00244905 0.26 1.45611e-38
-0.00243963 -0.00243963 0.259 1.52094e-38
-0.00121982 -0.00243963 0.259 1.56696e-38
0.0 -0.00244905 0.26 1.56696e-38
0.00124807 -0.00249615 0.265 1.63161e-38
0.00243963 -0.00243963 0.259 1.48406e-38
0.00365945 -0.00243963 0.259 1.39147e-38
0.00487926 -0.00243963 0.259 1.32661e-38
0.00607553 -0.00243021 0.258 1.95001e-38
0.00737541 -0.00245847 0.261 1.94079e-38
0.00857168 -0.00244905 0.26 2.15172e-38
0.0097962 -0.00244905 0.26 2.1518e-38
0.0109783 -0.00243963 0.259 2.0784e-38
0.0123394 -0.00246789 0.262 2.0784e-38
0.0136252 -0.00247731 0.263 2.08744e-38
0.0149204 -0.00248673 0.264 1.83059e-38
0.0161637 -0.00248673 0.264 1.64699e-38
0.0172093 -0.00245847 0.261 1.36255e-38
0.0184385 -0.00245847 0.261 1.21569e-38
0.0198185 -0.00247731 0.263 1.08705e-38
0.0212173 -0.00249615 0.265 1.03198e-38
0.022211 -0.00246789 0.262 9.21527e-39
0.0235344 -0.00247731 0.263 9.21527e-39
0.0248673 -0.00248673 0.264 9.03447e-39
0.0262096 -0.00249615 0.265 9.12631e-39
0.027354 -0.00248673 0.264 1.01423e-38
0.028814 -0.00250557 0.266 9.86386e-39
0.0298407 -0.00248673 0.264 1.01415e-38
0.0312018 -0.00249615 0.265 9.68091e-39
0.0325724 -0.00250557 0.266 8.48561e-39
0.0338252 -0.00250557 0.266 7.84024e-39
0.0352098 -0.00251499 0.267 6.64929e-39
0.0366039 -0.00252441 0.268 1.06079e-38
0.0377248 -0.00251499 0.267 1.08823e-38
0.0386903 -0.00249615 0.265 9.49759e-39
0.0400891 -0.00250557 0.266 8.20757e-39
0.0416527 -0.00252441 0.268 9.68198e-39
0.0432352 -0.00254324 0.27 9.68198e-39
0.0441771 -0.00252441 0.268 1.23445e-38
0.0454393 -0.00252441 0.268 1.23445e-38
0.0461787 -0.00249615 0.265 1.18832e-38
0.0477847 -0.00251499 0.267 1.18832e-38
0.0488586 -0.00250557 0.266 1.14222e-38
0.0502997 -0.00251499 0.267 1.11456e-38
0.0517503 -0.00252441 0.268 1.10534e-38
0.0530125 -0.00252441 0.268 1.07776e-38
0.0544773 -0.00253383 0.269 1.01333e-38
0.0553297 -0.00251499 0.267 1.502e-38
0.0565872 -0.00251499 0.267 9.49077e-39
0.0587113 -0.00255266 0.271 9.76808e-39
0.060209 -0.00256208 0.272 9.58334e-39
0.0612639 -0.00255266 0.271 9.58297e-39
0.0634634 -0.00259034 0.275 9.58297e-39
0.0633456 -0.00253383 0.269 9.39644e-39
0.0648527 -0.00254324 0.27 9.76379e-39
0.0661244 -0.00254324 0.27 9.39536e-39
0.0681448 -0.0025715 0.273 9.94853e-39
0.0689219 -0.00255266 0.271 9.49043e-39
0.0699392 -0.00254324 0.27 8.9376e-39
0.0717383 -0.00256208 0.272 8.84576e-39
0.0735563 -0.00258092 0.274 1.1057e-38
-0.0314232 -0.0013093 0.278 1.34598e-38
-0.0287057 -0.00124807 0.265 1.33673e-38
-0.0270432 -0.00122924 0.261 1.36424e-38
-0.0254183 -0.0012104 0.257 1.54788e-38
-0.0244905 -0.00122453 0.26 1.54788e-38
-0.022908 -0.00120569 0.256 1.65865e-38
-0.0217024 -0.00120569 0.256 1.47444e-38
-0.0203365 -0.00119627 0.254 1.40068e-38
-0.0191403 -0.00119627 0.254 1.66802e-38
-0.0182972 -0.00121982 0.259 1.70482e-38
-0.0167477 -0.00119627 0.254 1.42834e-38
-0.0156739 -0.00120569 0.256 1.42834e-38
-0.0145813 -0.00121511 0.258 1.37281e-38
-0.0132626 -0.00120569 0.256 1.65865e-38
-0.0119627 -0.00119627 0.254 1.56689e-38
-0.0109783 -0.00121982 0.259 1.59455e-38
-0.00964549 -0.00120569 0.256 1.16163e-38
-0.00850574 -0.00121511 0.258 1.20729e-38
-0.00737541 -0.00122924 0.261 1.32646e-38
-0.00609908 -0.00121982 0.259 1.39042e-38
-0.0048981 -0.00122453 0.26 1.35387e-38
-0.00365945 -0.00121982 0.259 1.41891e-38
-0.00245847 -0.00122924 0.261 1.38243e-38
-0.00122453 -0.00122453 0.26 1.58518e-38
0.0 -0.00122453 0.26 1.67742e-38
0.00123394 -0.00123394 0.262 1.68689e-38
0.00243963 -0.00121982 0.259 1.76961e-38
0.00363119 -0.0012104 0.257 1.35394e-38
0.00487926 -0.00121982 0.259 1.35394e-38
0.00609908 -0.00121982 0.259 2.11513e-38
0.00737541 -0.00122924 0.261 2.06925e-38
0.00860464 -0.00122924 0.261 2.11513e-38
0.00990924 -0.00123865 0.263 2.12421e-38
0.0110631 -0.00122924 0.261 2.14261e-38
0.0124336 -0.00124336 0.264 2.14261e-38
0.0136252 -0.00123865 0.263 2.07836e-38
0.0148073 -0.00123394 0.262 2.06003e-38
0.0161025 -0.00123865 0.263 2.05074e-38
0.0172093 -0.00122924 0.261 1.99564e-38
0.0185092 -0.00123394 0.262 1.93146e-38
0.0199692 -0.00124807 0.265 1.93146e-38
0.0212173 -0.00124807 0.265 1.86729e-38
0.022211 -0.00123394 0.262 1.34437e-38
0.023445 -0.00123394 0.262 1.1975e-38
0.0248673 -0.00124336 0.264 1.13347e-38
0.0262096 -0.00124807 0.265 9.67804e-39
0.027354 -0.00124336 0.264 9.31141e-39
0.0289223 -0.00125749 0.267 8.66785e-39
0.0298407 -0.00124336 0.264 9.31285e-39
0.0310841 -0.00124336 0.264 9.58619e-39
0.0324499 -0.00124807 0.265 9.49292e-39
0.0338252 -0.00125278 0.266 8.5706e-39
0.0352098 -0.00125749 0.267 8.29474e-39
0.0367405 -0.00126691 0.269 8.38766e-39
0.0380074 -0.00126691 0.269 8.11287e-39
0.0388363 -0.00125278 0.266 8.84863e-39
0.0400891 -0.00125278 0.266 8.94083e-39
0.0413419 -0.00125278 0.266 8.75932e-39
0.0427548 -0.00125749 0.267 9.58801e-39
0.0438474 -0.00125278 0.266 1.21601e-38
0.0451002 -0.00125278 0.266 1.22523e-38
0.0461787 -0.00124807 0.265 1.1791e-38
0.0476058 -0.00125278 0.266 1.1791e-38
0.0486749 -0.00124807 0.265 1.12378e-38
0.0501113 -0.00125278 0.266 1.11456e-38
0.0513641 -0.00125278 0.266 1.05939e-38
0.0532103 -0.00126691 0.269 1.04084e-38
0.0548823 -0.00127633 0.271 1.08684e-38
0.0551225 -0.00125278 0.266 9.85599e-39
0.0570111 -0.00126691 0.269 9.85599e-39
0.0584946 -0.00127162 0.27 1.47466e-38
0.0593235 -0.0012622 0.268 1.47463e-38
0.0608118 -0.00126691 0.269 1.50232e-38
0.0636942 -0.00129988 0.276 1.50232e-38
0.0633456 -0.00126691 0.269 1.47481e-38
0.0653331 -0.00128104 0.272 1.47481e-38
0.0661244 -0.00127162 0.27 1.41034e-38
0.0676456 -0.00127633 0.271 1.41034e-38
0.0686676 -0.00127162 0.27 1.37379e-38
0.0701983 -0.00127633 0.271 1.30921e-38
0.0722658 -0.00129046 0.274 1.3829e-38
0.0735563 -0.00129046 0.274 1.36417e-38
-0.0314232 0.0 0.278 6.08454e-39
-0.0287057 0.0 0.265 1.36435e-38
-0.0270432 0.0 0.261 1.3919e-38
-0.025715 0.0 0.26 1.59455e-38
-0.0245847 0.0 0.261 1.70497e-38
-0.022908 0.0 0.256 1.66802e-38
-0.0216176 0.0 0.255 1.31789e-38
-0.0203365 0.0 0.254 1.18921e-38
-0.0191403 0.0 0.254 1.58555e-38
-0.0182972 0.0 0.259 1.58555e-38
-0.0168137 0.0 0.255 1.68671e-38
-0.0156739 0.0 0.256 1.57586e-38
-0.0145248 0.0 0.257 1.49281e-38
-0.0132107 0.0 0.255 1.51125e-38
-0.0120098 0.0 0.255 1.64054e-38
-0.0110207 0.0 0.26 1.64976e-38
-0.00964549 0.0 0.256 1.42816e-38
-0.00850574 0.0 0.258 1.45582e-38
-0.00731889 0.0 0.259 1.44628e-38
-0.00602843 0.0 0.256 1.38182e-38
-0.00480391 0.0 0.255 1.48345e-38
-0.00364532 0.0 0.258 1.51136e-38
-0.00243963 0.0 0.259 1.56667e-38
-0.00121982 0.0 0.259 1.64976e-38
0.0 0.0 0.258 1.67727e-38
0.00121982 0.0 0.259 1.69589e-38
0.00243021 0.0 0.258 1.71462e-38
0.00364532 0.0 0.258 1.88903e-38
0.00487926 0.0 0.259 2.02348e-38
0.00609908 0.0 0.259 2.02348e-38
0.00737541 0.0 0.261 2.04174e-38
0.00860464 0.0 0.261 2.12428e-38
0.00990924 0.0 0.263 2.14261e-38
0.0110207 0.0 0.26 2.11513e-38
0.0123865 0.0 0.263 2.12428e-38
0.0135216 0.0 0.261 2.17924e-38
0.0146943 0.0 0.26 2.16084e-38
0.0159188 0.0 0.26 2.13329e-38
0.0171434 0.0 0.26 2.12417e-38
0.0182972 0.0 0.259 2.10581e-38
0.0199692 0.0 0.265 2.10581e-38
0.0210571 0.0 0.263 1.98664e-38
0.0221262 0.0 0.261 1.86736e-38
0.0231765 0.0 0.259 1.61044e-38
0.0247731 0.0 0.263 1.75726e-38
0.0262096 0.0 0.265 1.37206e-38
0.0272504 0.0 0.263 1.22541e-38
0.0287057 0.0 0.265 1.22541e-38
0.0298407 0.0 0.264 1.08741e-38
0.0309664 0.0 0.263 1.05975e-38
0.0323275 0.0 0.264 9.12522e-39
0.0338252 0.0 0.266 8.75716e-39
0.0349461 0.0 0.265 8.84792e-39
0.0367405 0.0 0.269 8.94012e-39
0.0381487 0.0 0.27 9.03266e-39
0.0386903 0.0 0.265 8.11179e-39
0.0397877 0.0 0.264 8.85044e-39
0.0411864 0.0 0.265 9.77492e-39
0.0427548 0.0 0.267 1.09756e-38
0.0438474 0.0 0.266 1.38171e-38
0.0452698 0.0 0.267 1.25296e-38
0.0460045 0.0 0.264 1.15177e-38
0.0477847 0.0 0.267 1.19747e-38
0.0492259 0.0 0.268 1.16966e-38
0.0502997 0.0 0.267 1.05946e-38
0.0517503 0.0 0.268 1.05024e-38
0.0534081 0.0 0.27 1.05932e-38
0.0548823 0.0 0.271 1.04996e-38
0.0551225 0.0 0.266 1.02241e-38
0.0570111 0.0 0.269 1.02241e-38
0.0584946 0.0 0.27 1.42842e-38
0.0591022 0.0 0.267 1.44729e-38
0.0610379 0.0 0.27 1.37353e-38
0.0634634 0.0 0.275 1.37353e-38
0.0633456 0.0 0.269 1.48428e-38
0.0646126 0.0 0.269 1.40119e-38
0.0656346 0.0 0.268 1.36421e-38
0.067396 0.0 0.27 1.30882e-38
0.0686676 0.0 0.27 1.32726e-38
0.0696802 0.0 0.269 1.3641e-38
0.0720021 0.0 0.273 1.3641e-38
0.0732878 0.0 0.273 1.17939e-38
0.0789442 0.0 0.289 1.36399e-38
-0.0310841 0.00129517 0.275 1.67785e-38
-0.0284891 0.00123865 0.263 1.63175e-38
-0.0269396 0.00122453 0.26 1.65001e-38
-0.0258139 0.00122924 0.261 1.65001e-38
-0.0244905 0.00122453 0.26 1.81532e-38
-0.022908 0.00120569 0.256 9.96572e-39
-0.0216176 0.00120098 0.255 1.07901e-38
-0.0204166 0.00120098 0.255 1.00601e-38
-0.0192156 0.00120098 0.255 1.12539e-38
-0.0182266 0.00121511 0.258 1.14398e-38
-0.0167477 0.00119627 0.254 1.49349e-38
-0.0157351 0.0012104 0.257 1.41052e-38
-0.0145248 0.0012104 0.257 1.68671e-38
-0.0132107 0.00120098 0.255 1.5943e-38
-0.0120098 0.00120098 0.255 1.62196e-38
-0.0110207 0.00122453 0.26 1.62196e-38
-0.00957014 0.00119627 0.254 1.75081e-38
-0.00843981 0.00120569 0.256 1.61241e-38
-0.00729064 0.00121511 0.258 1.56624e-38
-0.00607553 0.00121511 0.258 1.61237e-38
-0.0048981 0.00122453 0.26 1.63081e-38
-0.0036877 0.00122924 0.261 1.64025e-38
-0.00245847 0.00122924 0.261 1.63103e-38
-0.00122924 0.00122924 0.261 1.58518e-38
0.0 0.00121511 0.258 1.6588e-38
0.0012104 0.0012104 0.257 1.6682e-38
0.00243963 0.00121982 0.259 1.65923e-38
0.00367358 0.00122453 0.26 1.77678e-38
0.00493578 0.00123394 0.262 1.60161e-38
0.00616972 0.00123394 0.262 2.0417e-38
0.00734715 0.00122453 0.26 2.08755e-38
0.00857168 0.00122453 0.26 2.13339e-38
0.0097962 0.00122453 0.26 2.14261e-38
0.0109783 0.00121982 0.259 2.14261e-38
0.0123865 0.00123865 0.263 2.11506e-38
0.013418 0.00121982 0.259 2.17928e-38
0.0146943 0.00122453 0.26 2.15172e-38
0.0159801 0.00122924 0.261 2.15172e-38
0.0171434 0.00122453 0.26 2.15172e-38
0.0183679 0.00122453 0.26 2.15172e-38
0.0197431 0.00123394 0.262 2.15172e-38
0.0209771 0.00123394 0.262 2.17928e-38
0.0221262 0.00122924 0.261 2.16998e-38
0.0233555 0.00122924 0.261 2.16084e-38
0.0247731 0.00123865 0.263 2.11506e-38
0.0261106 0.00124336 0.264 2.05996e-38
0.0271468 0.00123394 0.262 1.89487e-38
0.0285974 0.00124336 0.264 1.89487e-38
0.0297277 0.00123865 0.263 1.72979e-38
0.0308486 0.00123394 0.262 1.55519e-38
0.032205 0.00123865 0.263 1.41744e-38
0.0338252 0.00125278 0.266 1.41744e-38
0.0348142 0.00124336 0.264 1.28919e-38
0.0364673 0.00125749 0.267 1.27997e-38
0.0377248 0.00125749 0.267 1.15151e-38
0.0389823 0.00125749 0.267 1.11481e-38
0.0399384 0.00124807 0.265 1.09655e-38
0.0416527 0.0012622 0.268 1.25318e-38
0.0427548 0.00125749 0.267 1.35452e-38
0.0438474 0.00125278 0.266 1.95995e-38
0.0449307 0.00124807 0.265 1.73036e-38
0.0460045 0.00124336 0.264 1.1974e-38
0.0479637 0.0012622 0.268 1.1974e-38
0.0494096 0.00126691 0.269 1.17899e-38
0.0502997 0.00125749 0.267 1.09627e-38
0.0517503 0.0012622 0.268 1.09627e-38
0.053606 0.00127633 0.271 1.09616e-38
0.0548823 0.00127633 0.271 1.05921e-38
0.0555369 0.0012622 0.268 9.94675e-39
0.057223 0.00127162 0.27 1.01308e-38
0.0584946 0.00127162 0.27 9.85599e-39
0.0593235 0.0012622 0.268 9.21205e-39
0.0612639 0.00127633 0.271 9.21205e-39
0.0623095 0.00127162 0.27 9.12129e-39
0.0638166 0.00127633 0.271 1.09652e-38
0.0653331 0.00128104 0.272 8.84363e-39
0.0658795 0.00126691 0.269 9.30389e-39
0.0676456 0.00127633 0.271 9.76379e-39
0.0686676 0.00127162 0.27 9.94818e-39
0.0704573 0.00128104 0.272 9.1195e-39
0.0720021 0.00128575 0.273 9.30281e-39
0.0730194 0.00128104 0.272 1.01311e-38
0.0781247 0.00134698 0.286 9.76379e-39
-0.0315362 0.00262802 0.279 1.09709e-38
-0.028814 0.00250557 0.266 1.59487e-38
-0.0271468 0.00246789 0.262 1.64086e-38
-0.0253194 0.00241137 0.256 1.64958e-38
-0.0241137 0.00241137 0.256 1.02348e-38
-0.0228186 0.00240195 0.255 1.02348e-38
-0.0215328 0.00239253 0.254 1.61313e-38
-0.0202565 0.00238311 0.253 1.70504e-38
-0.0190649 0.00238311 0.253 1.58554e-38
-0.0182266 0.00243021 0.258 1.70511e-38
-0.0168137 0.00240195 0.255 1.17088e-38
-0.0156739 0.00241137 0.256 1.17088e-38
-0.0145248 0.00242079 0.257 1.48395e-38
-0.0132107 0.00240195 0.255 1.63139e-38
-0.012104 0.00242079 0.257 1.62224e-38
-0.0110631 0.00245847 0.261 1.61302e-38
-0.00964549 0.00241137 0.256 1.67738e-38
-0.00847277 0.00242079 0.257 1.67738e-38
-0.00726238 0.00242079 0.257 1.54795e-38
-0.00607553 0.00243021 0.258 1.53873e-38
-0.00486042 0.00243021 0.258 1.53862e-38
-0.00364532 0.00243021 0.258 1.57542e-38
-0.00243021 0.00243021 0.258 1.59412e-38
-0.00121511 0.00243021 0.258 1.58504e-38
0.0 0.00243021 0.258 1.64018e-38
0.00121511 0.00243021 0.258 1.6405e-38
0.00242079 0.00242079 0.257 1.76875e-38
0.00367358 0.00244905 0.26 1.76875e-38
0.00491694 0.00245847 0.261 1.74894e-38
0.00607553 0.00243021 0.258 2.07833e-38
0.00726238 0.00242079 0.257 2.11495e-38
0.00850574 0.00243021 0.258 2.1518e-38
0.00983388 0.00245847 0.261 2.1518e-38
0.0109783 0.00243963 0.259 2.14261e-38
0.0122924 0.00245847 0.261 2.14258e-38
0.0135734 0.00246789 0.262 2.15172e-38
0.0147508 0.00245847 0.261 2.15172e-38
0.0161025 0.00247731 0.263 2.17006e-38
0.0171434 0.00244905 0.26 2.18846e-38
0.0183679 0.00244905 0.26 2.18846e-38
0.0196678 0.00245847 0.261 2.18846e-38
0.0209771 0.00246789 0.262 2.1335e-38
0.022211 0.00246789 0.262 2.17006e-38
0.0235344 0.00247731 0.263 2.17924e-38
0.0247731 0.00247731 0.263 2.1608e-38
0.0261106 0.00248673 0.264 2.16098e-38
0.0270432 0.00245847 0.261 2.12425e-38
0.0283807 0.00246789 0.262 2.12425e-38
0.0297277 0.00247731 0.263 2.06907e-38
0.0310841 0.00248673 0.264 1.97717e-38
0.032205 0.00247731 0.263 1.81175e-38
0.033698 0.00249615 0.265 1.79346e-38
0.0345505 0.00246789 0.262 1.87647e-38
0.0363307 0.00250557 0.266 1.92242e-38
0.0375835 0.00250557 0.266 1.88569e-38
0.0389823 0.00251499 0.267 1.95033e-38
0.0400891 0.00250557 0.266 2.17128e-38
0.0418081 0.00253383 0.269 2.27212e-38
0.043075 0.00253383 0.269 2.3453e-38
0.0443419 0.00253383 0.269 2.34519e-38
0.0457784 0.00254324 0.27 2.34537e-38
0.0460045 0.00248673 0.264 1.32611e-38
0.0476058 0.00250557 0.266 1.1607e-38
0.0490422 0.00251499 0.267 1.1607e-38
0.0502997 0.00251499 0.267 1.12385e-38
0.0517503 0.00252441 0.268 1.09645e-38
0.0532103 0.00253383 0.269 1.10563e-38
0.0550848 0.00256208 0.272 1.10563e-38
0.0557442 0.00253383 0.269 1.24378e-38
0.0570111 0.00253383 0.269 1.33601e-38
0.058278 0.00253383 0.269 1.27148e-38
0.0593235 0.00252441 0.268 1.25314e-38
0.0608118 0.00253383 0.269 1.25322e-38
0.0620787 0.00253383 0.269 1.2257e-38
0.0633456 0.00253383 0.269 1.26258e-38
0.0650929 0.00255266 0.271 1.34545e-38
0.0656346 0.00252441 0.268 1.28991e-38
0.0678952 0.00256208 0.272 1.28084e-38
0.0689219 0.00255266 0.271 1.21648e-38
0.0701983 0.00255266 0.271 1.16123e-38
0.0717383 0.00256208 0.272 1.18897e-38
0.0724825 0.00254324 0.27 1.22577e-38
0.0775784 0.00267512 0.284 1.25343e-38
-0.0315362 0.00394203 0.279 1.47484e-38
-0.0289223 0.00377248 0.267 1.61299e-38
-0.0270432 0.0036877 0.261 1.68664e-38
-0.0255172 0.00364532 0.258 1.38214e-38
-0.0242079 0.00363119 0.257 1.36392e-38
-0.022908 0.00361706 0.256 1.51164e-38
-0.0217871 0.00363119 0.257 1.56696e-38
-0.0204967 0.00361706 0.256 1.67717e-38
-0.0192156 0.00360293 0.255 1.72362e-38
-0.0182266 0.00364532 0.258 1.74185e-38
-0.0168137 0.00360293 0.255 1.63121e-38
-0.0156127 0.00360293 0.255 1.63121e-38
-0.0144682 0.00361706 0.256 1.53905e-38
-0.0132626 0.00361706 0.256 1.61281e-38
-0.0121511 0.00364532 0.258 1.71426e-38
-0.0110631 0.0036877 0.261 1.68671e-38
-0.00964549 0.00361706 0.256 1.68674e-38
-0.00850574 0.00364532 0.258 1.68674e-38
-0.00729064 0.00364532 0.258 1.73277e-38
-0.00605198 0.00363119 0.257 1.56606e-38
-0.00486042 0.00364532 0.258 1.5384e-38
-0.00367358 0.00367358 0.26 1.52925e-38
-0.00243963 0.00365945 0.259 1.52965e-38
-0.0012104 0.00363119 0.257 1.57553e-38
0.0 0.00364532 0.258 1.55742e-38
0.00121511 0.00364532 0.258 1.58529e-38
0.00242079 0.00363119 0.257 1.86926e-38
0.00364532 0.00364532 0.258 1.78528e-38
0.0048981 0.00367358 0.26 1.84982e-38
0.00609908 0.00365945 0.259 2.0784e-38
0.00729064 0.00364532 0.258 2.08758e-38
0.00857168 0.00367358 0.26 2.11506e-38
0.0097962 0.00367358 0.26 2.12428e-38
0.0110207 0.00367358 0.26 2.1335e-38
0.0122924 0.0036877 0.261 2.11506e-38
0.0135216 0.0036877 0.261 2.1518e-38
0.0146943 0.00367358 0.26 2.16094e-38
0.0159801 0.0036877 0.261 2.18846e-38
0.0168796 0.00361706 0.256 2.20679e-38
0.0182266 0.00364532 0.258 2.20679e-38
0.0193663 0.00363119 0.257 2.16094e-38
0.0210571 0.00371596 0.263 2.20679e-38
0.0221262 0.0036877 0.261 2.14265e-38
0.0233555 0.0036877 0.261 2.14265e-38
0.0245847 0.0036877 0.261 2.14265e-38
0.0258139 0.0036877 0.261 2.1518e-38
0.0270432 0.0036877 0.261 2.16094e-38
0.0281641 0.00367358 0.26 2.1151e-38
0.0297277 0.00371596 0.263 2.1151e-38
0.0310841 0.00373009 0.264 1.98635e-38
0.0320826 0.00370183 0.262 1.93125e-38
0.0333165 0.00370183 0.262 1.9772e-38
0.0344186 0.0036877 0.261 2.05081e-38
0.0361941 0.00374422 0.265 2.05081e-38
0.0371596 0.00371596 0.263 1.97767e-38
0.0386903 0.00374422 0.265 2.02376e-38
0.0399384 0.00374422 0.265 2.28126e-38
0.0413419 0.00375835 0.266 2.34544e-38
0.0427548 0.00377248 0.267 2.34544e-38
0.0440123 0.00377248 0.267 2.34533e-38
0.0456089 0.00380074 0.269 2.30863e-38
0.0461787 0.00374422 0.265 1.41798e-38
0.0477847 0.00377248 0.267 1.41798e-38
0.0492259 0.00378661 0.268 1.28991e-38
0.0504881 0.00378661 0.268 1.38247e-38
0.0517503 0.00378661 0.268 1.35477e-38
0.0530125 0.00378661 0.268 1.318e-38
0.0548823 0.003829 0.271 1.31797e-38
0.0555369 0.00378661 0.268 1.25336e-38
0.057223 0.00381487 0.27 1.25336e-38
0.058278 0.00380074 0.269 1.25347e-38
0.0593235 0.00378661 0.268 1.26254e-38
0.0603597 0.00377248 0.267 1.21634e-38
0.0620787 0.00380074 0.269 1.21634e-38
0.0635811 0.00381487 0.27 1.18871e-38
0.0650929 0.003829 0.271 1.23474e-38
0.0656346 0.00378661 0.268 1.23467e-38
0.0671464 0.00380074 0.269 1.12421e-38
0.068159 0.00378661 0.268 1.10581e-38
0.0694212 0.00378661 0.268 1.09659e-38
0.0714746 0.003829 0.271 1.09659e-38
0.0727509 0.003829 0.271 1.05971e-38
0.0783979 0.00405506 0.287 1.06893e-38
-0.0314232 0.0052372 0.278 1.60391e-38
-0.0289223 0.00502997 0.267 1.70522e-38
-0.0272504 0.00495462 0.263 1.73288e-38
-0.0258139 0.00491694 0.261 1.74188e-38
-0.0243963 0.00487926 0.259 1.71419e-38
-0.0229975 0.00484158 0.257 1.76003e-38
-0.0217871 0.00484158 0.257 1.6494e-38
-0.0204967 0.00482275 0.256 1.28087e-38
-0.0191403 0.00478507 0.254 1.32754e-38
-0.0180853 0.00482275 0.256 1.32754e-38
-0.0168796 0.00482275 0.256 1.41012e-38
-0.0156739 0.00482275 0.256 1.66813e-38
-0.0145248 0.00484158 0.257 1.66813e-38
-0.0133144 0.00484158 0.257 1.73248e-38
-0.0121511 0.00486042 0.258 1.75081e-38
-0.0111055 0.00493578 0.262 1.74156e-38
-0.00968317 0.00484158 0.257 1.60323e-38
-0.00850574 0.00486042 0.258 1.60323e-38
-0.00726238 0.00484158 0.257 1.75099e-38
-0.00602843 0.00482275 0.256 1.43731e-38
-0.00482275 0.00482275 0.256 2.35099e-38
-0.00364532 0.00486042 0.258 1.51082e-38
-0.00244905 0.0048981 0.26 1.52003e-38
-0.00121511 0.00486042 0.258 1.53837e-38
0.0 0.00480391 0.255 1.65851e-38
0.00120569 0.00482275 0.256 1.63027e-38
0.00241137 0.00482275 0.256 1.57496e-38
0.00364532 0.00486042 0.258 1.93214e-38
0.00486042 0.00486042 0.258 2.08758e-38
0.00609908 0.00487926 0.259 2.08758e-38
0.00726238 0.00484158 0.257 2.12421e-38
0.00847277 0.00484158 0.257 2.12421e-38
0.00968317 0.00484158 0.257 2.17024e-38
0.010936 0.00486042 0.258 2.16102e-38
0.0122924 0.00491694 0.261 2.1518e-38
0.0135216 0.00491694 0.261 2.18846e-38
0.0148073 0.00493578 0.262 2.18846e-38
0.0161025 0.00495462 0.263 2.18846e-38
0.0170774 0.00487926 0.259 2.19757e-38
0.0185092 0.00493578 0.262 2.19757e-38
0.0194417 0.00486042 0.258 2.17024e-38
0.0208169 0.0048981 0.26 2.17031e-38
0.0221262 0.00491694 0.261 2.17031e-38
0.0233555 0.00491694 0.261 2.15194e-38
0.0245847 0.00491694 0.261 2.15194e-38
0.0260117 0.00495462 0.263 2.15194e-38
0.0270432 0.00491694 0.261 2.17946e-38
0.0282724 0.00491694 0.261 2.15187e-38
0.0298407 0.00497346 0.264 2.10588e-38
0.0310841 0.00497346 0.264 1.96791e-38
0.0318377 0.0048981 0.26 1.9404e-38
0.0333165 0.00493578 0.262 1.94961e-38
0.0342867 0.0048981 0.26 1.94072e-38
0.0361941 0.0049923 0.265 1.9315e-38
0.0371596 0.00495462 0.263 2.13425e-38
0.0391283 0.00504881 0.268 2.01451e-38
