VERSION .7
FIELDS x y z rgb
SIZE 4 4 4 4
TYPE F F F F
COUNT 1 1 1 1
WIDTH 847
HEIGHT 1
VIEWPOINT 0 0 0 1 0 0 0
POINTS 847
DATA ascii
-0.0227818228197 0.0243529830142 0.417 1.25403614884e-38
-0.0213632573204 0.0245281843308 0.42 1.43820964678e-38
-0.0551149432245 0.0263593206726 0.424 9.12808061739e-39
-0.0532649680315 0.0262349842543 0.422 9.12808061739e-39
-0.0517974215189 0.0262971524635 0.423 9.12808061739e-39
-0.0500849699401 0.0262349842543 0.422 8.67140725695e-39
-0.0484949708944 0.0262349842543 0.422 8.30190867398e-39
-0.0463492257367 0.0259241432087 0.417 1.42946246151e-38
-0.0439190139251 0.0254267975356 0.409 1.36488950724e-38
-0.0414454727557 0.0248672836534 0.4 1.23581562543e-38
-0.0396388269205 0.024680779026 0.397 1.31868379232e-38
-0.0380469439897 0.0246186108169 0.396 1.31861190571e-38
-0.0361856654859 0.0243699379803 0.392 1.30017306e-38
-0.0346201569468 0.0243077697712 0.391 1.08844540996e-38
-0.0332317336095 0.0243699379803 0.392 1.30060353889e-38
-0.0315117464902 0.0241834333529 0.389 1.31900707188e-38
-0.0301233231529 0.0242456015621 0.39 1.18071404747e-38
-0.0291681933944 0.024680779026 0.397 5.90554116365e-39
-0.0276026848553 0.0246186108169 0.396 9.50008892591e-39
-0.0263743917536 0.0248672836534 0.4 9.86635331202e-39
-0.0249916200717 0.0249916200717 0.402 1.05106423199e-38
-0.023944179942 0.0254889657447 0.41 1.13374770775e-38
-0.0226179248138 0.0257376385813 0.414 1.49334611707e-38
-0.0208546083366 0.0254889657447 0.41 1.62238328486e-38
-0.0200162794559 0.0264214888817 0.425 1.63163788031e-38
-0.00220979725193 0.0243077697712 0.391 2.11022432574e-38
-0.000725295773224 0.0239347605164 0.385 2.14699495796e-38
0.00073471519885 0.0242456015621 0.39 2.22057083448e-38
0.00217588731967 0.0239347605164 0.385 2.20220359512e-38
0.00363589829175 0.0239969287255 0.386 2.16546939665e-38
0.0051166320002 0.0241212651438 0.388 2.10107692962e-38
-0.0517974215189 0.0278909192794 0.423 9.22027624725e-39
-0.0494915461256 0.0274953034031 0.417 6.2739607468e-39
-0.047345800968 0.0271656235062 0.412 1.38340023956e-38
-0.0454600319576 0.0269678155681 0.409 1.46630441983e-38
-0.0429525808559 0.0263743917536 0.4 1.30035256633e-38
-0.0410310180281 0.0261106478361 0.396 1.28180554038e-38
-0.0391395973623 0.0258469039185 0.392 1.38322101349e-38
-0.0375665532827 0.0257809679391 0.391 1.29095349701e-38
-0.0358164240014 0.025583160001 0.388 1.27251437104e-38
-0.0347972421486 0.0259128398979 0.393 1.58608657178e-38
-0.0331469587789 0.0257809679391 0.391 1.2819131601e-38
-0.0314307394298 0.025583160001 0.388 8.48629993371e-39
-0.0300460838627 0.0256490959804 0.389 9.22458383873e-39
-0.0288743073148 0.0259128398979 0.393 1.0330212531e-38
-0.0276026848553 0.0261106478361 0.396 9.86887004406e-39
-0.0261765838154 0.0261765838154 0.397 9.59119714816e-39
-0.0247429472351 0.0262425197948 0.398 1.15258620379e-38
-0.0234185759921 0.026440327733 0.401 1.58546986032e-38
-0.0222354961334 0.0268359436093 0.407 1.65004211395e-38
-0.0206002838447 0.0267040716505 0.405 1.63153026059e-38
-0.0195453081745 0.0273634314444 0.415 1.67766324811e-38
-0.0182416596679 0.0277590473207 0.421 1.73294405214e-38
-0.00666330168803 0.0259128398979 0.393 2.02764356516e-38
-0.00506388321669 0.0253194160835 0.384 2.05515820063e-38
-0.00359822058924 0.0251875441247 0.382 2.10114825571e-38
-0.00216458400892 0.0252534801041 0.383 2.15635773365e-38
-0.000721528002973 0.0252534801041 0.383 2.17479685962e-38
0.000723411888099 0.0253194160835 0.384 2.25752097304e-38
0.00215328069817 0.0251216081453 0.381 2.19309193211e-38
0.00358880116361 0.0251216081453 0.381 2.1378107077e-38
0.00495838564968 0.0247919282484 0.376 2.06419839742e-38
0.00644288712838 0.0250556721659 0.38 1.9905863674e-38
0.00783319435082 0.0249238002071 0.378 1.98151099802e-38
0.00918393998563 0.024725992269 0.375 1.96310802555e-38
0.0106251121064 0.0247919282484 0.376 1.91708209723e-38
0.0121058458149 0.0249238002071 0.378 1.82488674763e-38
0.0136374444217 0.0251216081453 0.381 1.82499436735e-38
-0.0567124778107 0.029554389845 0.424 8.85257272761e-39
-0.0551149432245 0.029554389845 0.424 8.85257272761e-39
-0.0536436289417 0.0296240935947 0.425 8.76037709775e-39
-0.0505728961875 0.0287876485991 0.413 8.48379020816e-39
-0.0487794375483 0.0286482410998 0.411 1.02383714296e-38
-0.0461966310416 0.0280209073531 0.402 1.61381728748e-38
-0.0445708381785 0.0279512036034 0.401 1.32801097503e-38
-0.0420935292387 0.0273238698567 0.392 1.18960991051e-38
-0.0405129496187 0.0272541661071 0.391 1.22641627585e-38
-0.0388400596274 0.0271147586078 0.389 1.38314912687e-38
-0.0372783188586 0.0270450548582 0.388 1.59509145584e-38
-0.035539492888 0.0268359436093 0.385 1.30006544028e-38
-0.0342659865433 0.0269753511086 0.387 9.1280722096e-39
-0.0328078594564 0.0269753511086 0.387 1.00503914445e-38
-0.0311067111882 0.0267662398597 0.384 1.05120926639e-38
-0.0300460838627 0.0271147586078 0.389 9.95963775079e-39
-0.0285069497154 0.0270450548582 0.388 9.86779244554e-39
-0.0271844623575 0.0271844623575 0.39 9.95997686502e-39
-0.0257809679391 0.0272541661071 0.391 1.13425399689e-38
-0.0247429472351 0.0277420923545 0.398 1.43839097481e-38
-0.0233601755532 0.0278814998538 0.4 1.61309169513e-38
-0.0220715981275 0.0281603148523 0.404 1.68684791876e-38
-0.0204476891495 0.0280209073531 0.402 1.73294461266e-38
-0.0194040167901 0.0287179448494 0.412 1.73297964512e-38
-0.0180683422363 0.0290664635976 0.417 1.75138233733e-38
-0.0166554283924 0.0293452785961 0.421 1.78815268929e-38
-0.0113880855822 0.0280906111027 0.403 1.91711726982e-38
-0.00972273113145 0.0276723886049 0.397 1.96321508475e-38
-0.00810258992373 0.0272541661071 0.391 2.02768013905e-38
-0.00652766195902 0.0268359436093 0.385 2.05530253438e-38
-0.00499794723731 0.0264177211115 0.379 2.1012561557e-38
-0.00352286518423 0.0260692023633 0.374 2.14724607064e-38
-0.00210241579979 0.025929794864 0.372 2.19330773208e-38
-0.000704573036846 0.0260692023633 0.374 2.21174657779e-38
0.000706456921971 0.0261389061129 0.375 2.27613960534e-38
0.00209676414441 0.0258600911144 0.371 2.22082222742e-38
0.00350402633298 0.025929794864 0.372 2.13791846755e-38
0.00489244967029 0.0258600911144 0.371 2.06419839742e-38
0.00629029243323 0.0258600911144 0.371 1.99980565012e-38
0.00775030340531 0.0260692023633 0.374 2.00909737998e-38
0.00906148745249 0.0257903873648 0.37 1.999950124e-38
0.0105685955527 0.0260692023633 0.374 1.96307201218e-38
0.0119136895321 0.025929794864 0.372 1.88942326814e-38
0.0135300629696 0.0263480173618 0.378 1.8709842823e-38
0.0151125264748 0.0266268323604 0.382 1.80644762165e-38
0.0164218266369 0.0264177211115 0.379 1.74198298775e-38
-0.0551149432245 0.0311519244312 0.424 8.57670470414e-39
-0.0527600868179 0.0307110953119 0.418 8.94548722359e-39
-0.050083086055 0.030049851633 0.409 7.93133529509e-39
-0.0478299594451 0.0296090225137 0.403 1.71526807331e-38
-0.0449325441225 0.028727364275 0.391 1.28191301997e-38
-0.0433481967322 0.0286538927552 0.39 1.13432798545e-38
-0.0416640034302 0.0285069497154 0.388 1.2264878822e-38
-0.040202108573 0.0285069497154 0.388 1.75193164633e-38
-0.0386403678041 0.0284334781955 0.387 1.4199197591e-38
-0.0372783188586 0.0285069497154 0.388 7.92989476027e-39
-0.0354471825168 0.0282130636358 0.384 1.05110150653e-38
-0.0340003587406 0.0282130636358 0.384 1.06950461914e-38
-0.0322992104725 0.0279926490762 0.381 9.95784408875e-39
-0.0308636900071 0.0279926490762 0.381 9.95892308857e-39
-0.0298143659923 0.0283600066756 0.386 9.77452902625e-39
-0.0285804212353 0.0285804212353 0.389 9.77415768216e-39
-0.0272541661071 0.028727364275 0.391 1.19861185185e-38
-0.0257150319598 0.0286538927552 0.39 1.41058781197e-38
-0.0244942743986 0.0289477788347 0.394 1.56721136172e-38
-0.0228929720421 0.0288008357949 0.392 1.64993337319e-38
-0.0217984347843 0.0293151364341 0.399 1.69603076773e-38
-0.0203459593528 0.029388607954 0.4 1.72368847578e-38
-0.0190272397651 0.0296824940335 0.404 1.77893312631e-38
-0.0178516954469 0.0302702661926 0.412 1.78818800201e-38
-0.0164576204542 0.0305641522722 0.416 1.82499422722e-38
-0.0149618156648 0.0307110953119 0.418 1.87109204215e-38
-0.0130986532759 0.030049851633 0.409 1.91708209723e-38
-0.0111620193671 0.0290212503546 0.395 1.94470407217e-38
-0.0095023165718 0.0285069497154 0.388 1.9908018871e-38
-0.00787463982357 0.0279191775563 0.38 2.05526722165e-38
-0.00635811229774 0.0275518199569 0.375 2.0920731666e-38
-0.00493201125792 0.027478348437 0.374 2.11051201231e-38
-0.00349460690735 0.0272579338773 0.371 2.13813426751e-38
-0.00207415752291 0.0269640477978 0.367 2.18415977544e-38
-0.000689501955844 0.0268905762779 0.366 2.20263421414e-38
0.000687618070719 0.026817104758 0.365 2.20256260778e-38
0.00207980917828 0.0270375193177 0.368 2.17486832584e-38
0.00343809035359 0.026817104758 0.365 2.15642948013e-38
0.00482651369091 0.0268905762779 0.366 2.10114825571e-38
0.00613769773809 0.0265966901984 0.362 2.0181724691e-38
0.00752235330515 0.0266701617183 0.363 1.99980593038e-38
0.00891454441272 0.0267436332381 0.364 1.99058664766e-38
0.0101447213995 0.0263762756387 0.359 1.98136708467e-38
0.0117855853436 0.0270375193177 0.368 1.8986065375e-38
0.0131721247958 0.0270375193177 0.368 1.88016769178e-38
0.0145191026604 0.0269640477978 0.367 1.83410631061e-38
0.0160751917738 0.0272579338773 0.371 1.77886151996e-38
0.0177556173055 0.0276987629967 0.377 1.67748276087e-38
0.0190743368932 0.0275518199569 0.375 1.68677491111e-38
-0.0561774544352 0.0324405018569 0.42 8.76037709775e-39
-0.0535550863408 0.0318225875358 0.412 9.03696258604e-39
-0.0508667822671 0.0311274339246 0.403 8.20755784708e-39
-0.0488585607235 0.0308184767641 0.399 1.37392956389e-38
-0.0473552203936 0.0308184767641 0.399 1.43850167738e-38
-0.0451623781078 0.0303550410233 0.393 1.58590692531e-38
-0.0433481967322 0.0301233231529 0.39 1.7610070157e-38
-0.0414492405259 0.0298143659923 0.386 1.10638245069e-38
-0.0399948812092 0.0298143659923 0.386 9.68089286156e-39
-0.0383408300692 0.029659887412 0.384 1.01418710109e-38
-0.0367979281516 0.0295826481219 0.383 1.02347827043e-38
-0.0350779410323 0.0293509302515 0.38 1.01436660742e-38
-0.0339118161398 0.0295826481219 0.383 9.68484872713e-39
-0.0321296608113 0.0292736909614 0.379 9.223153113e-39
-0.0308636900071 0.0294281695416 0.381 9.86672465611e-39
-0.029659887412 0.029659887412 0.384 1.02344169654e-38
-0.0282865351557 0.0297371267022 0.385 1.06024581979e-38
-0.0271844623575 0.0301233231529 0.39 1.41973520809e-38
-0.0255172240216 0.0298916052825 0.387 1.53958826574e-38
-0.0243077697712 0.030200562443 0.391 1.56717492796e-38
-0.0227761711644 0.0301233231529 0.39 1.65922454253e-38
-0.0215799041098 0.0305095196035 0.395 1.7052859237e-38
-0.0203459593528 0.0308957160542 0.4 1.76045882774e-38
-0.0187917541244 0.0308184767641 0.399 1.80651992865e-38
-0.0175050605839 0.0312046732148 0.404 1.8525450162e-38
-0.0163389356914 0.031899826826 0.413 1.8986065375e-38
-0.0144607022215 0.0312046732148 0.404 1.9262649462e-38
-0.0124901583805 0.0301233231529 0.39 1.96317879112e-38
-0.0107946617677 0.0295054088318 0.382 2.07363432089e-38
-0.00923292099888 0.0291192123811 0.377 2.09207344686e-38
-0.00775030340531 0.0288874945107 0.374 2.12887953193e-38
-0.00618856263647 0.0281923408995 0.365 2.14735425089e-38
-0.00480013929915 0.0281151016093 0.364 2.17490503986e-38
-0.00341925150234 0.0280378623192 0.363 2.20256344856e-38
-0.00204024759065 0.0278833837389 0.361 2.23018598402e-38
-0.000680082530218 0.0278833837389 0.361 2.21174685805e-38
0.000678198645093 0.0278061444488 0.36 2.18401642261e-38
0.00206285421216 0.0281923408995 0.365 2.23011423754e-38
0.00338157379984 0.0277289051587 0.359 2.18405271624e-38
0.00474739051565 0.0278061444488 0.36 2.11029621235e-38
0.00605292290745 0.0275744265784 0.357 2.0734179604e-38
0.00739801688688 0.0275744265784 0.357 2.07348984701e-38
0.0088165823862 0.0278061444488 0.36 2.01817274936e-38
0.010031688292 0.0274199479981 0.355 1.98129449741e-38
0.0115293769666 0.0278061444488 0.36 1.92619376023e-38
0.0128857742568 0.0278061444488 0.36 1.85240166336e-38
0.0143608563098 0.0280378623192 0.363 1.84325426725e-38
0.0157285569108 0.0280378623192 0.363 1.77875361997e-38
0.0173317431524 0.0284240587699 0.368 1.69584971997e-38
0.0188200124013 0.0285785373501 0.37 1.68666673087e-38
0.0205418834058 0.029041973091 0.376 1.64978875919e-38
-0.0559099427474 0.0338609512414 0.418 8.3915945783e-39
-0.0535550863408 0.0333749088791 0.412 7.83841939782e-39
-0.0507405619637 0.0325648382752 0.402 8.85292725613e-39
-0.0482462980578 0.0319167817921 0.394 1.71505339438e-38
-0.0465244270533 0.0317547676713 0.392 1.346450101e-38
-0.0448176271299 0.0315927535506 0.39 9.31462146896e-39
-0.0429035998426 0.031268725309 0.386 8.39266797292e-39
-0.0412344776216 0.0311067111882 0.384 9.49829666517e-39
-0.0397876538454 0.0311067111882 0.384 9.49794073536e-39
-0.0383408300692 0.0311067111882 0.384 9.59121116115e-39
-0.036894006293 0.0311067111882 0.384 1.06053630896e-38
-0.0351702514034 0.0308636900071 0.381 9.68448298823e-39
-0.033734730938 0.0308636900071 0.381 8.57777950006e-39
-0.0323839853032 0.0309446970675 0.382 9.77524649106e-39
-0.0311067111882 0.0311067111882 0.384 1.03277014041e-38
-0.0295826481219 0.0310257041279 0.383 1.17099015717e-38
-0.0282865351557 0.0311877182486 0.385 1.25389223549e-38
-0.0268359436093 0.0311877182486 0.385 1.47508789873e-38
-0.0254512880422 0.031268725309 0.386 1.52114871938e-38
-0.0242456015621 0.0315927535506 0.39 1.57642980367e-38
-0.0227761711644 0.0315927535506 0.39 1.66844368512e-38
-0.0214706387726 0.0318357747317 0.393 1.71450520642e-38
-0.020244229556 0.0322408100336 0.398 1.77889767346e-38
-0.0188859483807 0.0324838312148 0.401 1.82495933489e-38
-0.017461731226 0.0326458453356 0.403 1.85254543659e-38
-0.0161015661656 0.0329698735771 0.407 1.88935180192e-38
-0.0141385578651 0.0319977888525 0.395 1.91701021062e-38
-0.0123300281448 0.0311877182486 0.385 1.96310802555e-38
-0.0105968538296 0.0303776476448 0.375 2.08285388387e-38
-0.00901250643923 0.0298105982221 0.368 2.0920731666e-38
-0.00758452151428 0.0296485841013 0.366 2.12887953193e-38
-0.00613769773809 0.0293245558598 0.362 2.15657381387e-38
-0.00474739051565 0.029162541739 0.36 2.18412460285e-38
-0.00334389609733 0.028757506437 0.355 2.20256344856e-38
-0.00201198931377 0.0288385134974 0.356 2.22096656117e-38
-0.000668779219466 0.028757506437 0.355 2.21174685805e-38
0.000665011449216 0.0285954923163 0.353 2.1287709313e-38
0.00202329262453 0.0290005276182 0.358 2.20252743519e-38
0.0033344766717 0.0286764993767 0.354 2.18405271624e-38
0.00468145453626 0.028757506437 0.355 2.11951577533e-38
0.00600205800907 0.0286764993767 0.354 2.08270941e-38
0.00731512594137 0.0285954923163 0.353 2.07348984701e-38
0.00874311086632 0.0289195205578 0.357 2.02739231234e-38
0.0100034300151 0.0286764993767 0.354 1.99973362338e-38
0.0114973509194 0.0290815346786 0.359 1.88927991531e-38
0.0127425989872 0.0288385134974 0.356 1.82481486102e-38
0.0140839251964 0.0288385134974 0.356 1.84325426725e-38
0.015641898195 0.0292435487994 0.361 1.78797318296e-38
0.0169549661273 0.029162541739 0.36 1.71436101281e-38
0.018514823011 0.0294865699805 0.364 1.67755506787e-38
0.0199955567195 0.0296485841013 0.366 1.63145753319e-38
0.0217833637033 0.030215633524 0.373 1.58543160487e-38
-0.0578974415545 0.035690203698 0.421 8.3915973809e-39
-0.0552411635279 0.0350120050529 0.413 8.20720331857e-39
-0.0531651221199 0.0346729057304 0.409 8.85257132632e-39
-0.0503619010535 0.033825157424 0.399 9.12951414572e-39
-0.0481238455247 0.0333165084402 0.393 9.12951414572e-39
-0.0460496880018 0.032892634287 0.388 7.74945376092e-39
-0.0443579591593 0.0327230846257 0.386 1.22663207581e-38
-0.0423478537307 0.0322992104725 0.381 1.15280396557e-38
-0.0409123332652 0.0322992104725 0.381 9.59193423115e-39
-0.0395804264816 0.0323839853032 0.382 9.40754016883e-39
-0.038141138246 0.0323839853032 0.382 1.06982789869e-38
-0.0366057718689 0.0322992104725 0.381 1.01458212713e-38
-0.0351702514034 0.0322992104725 0.381 8.67140725695e-39
-0.0335576457362 0.0321296608113 0.379 1.06064364843e-38
-0.0321296608113 0.0321296608113 0.379 1.07897515468e-38
-0.031268725309 0.0327230846257 0.386 1.134112746e-38
-0.0298143659923 0.0327230846257 0.386 1.12485576835e-38
-0.0284334781955 0.0328078594564 0.387 1.34605115133e-38
-0.0267662398597 0.0325535349644 0.384 1.49349031068e-38
-0.0254512880422 0.0327230846257 0.386 1.55802613055e-38
-0.0239969287255 0.0327230846257 0.386 1.58561223225e-38
-0.0227177707255 0.0329774091176 0.389 1.69613796706e-38
-0.0213613734353 0.0331469587789 0.391 1.74216361512e-38
-0.0200407699625 0.0334012832708 0.394 1.80655636241e-38
-0.0188388512526 0.0339099322546 0.4 1.85261802385e-38
-0.017461731226 0.0341642567465 0.403 1.87094896958e-38
-0.015626827114 0.0334860581014 0.395 1.89857164517e-38
-0.0137806196913 0.0326383097951 0.385 1.91701077114e-38
-0.012137871862 0.0321296608113 0.379 1.97229255608e-38
-0.0105120789989 0.0315362369968 0.372 2.10129272959e-38
-0.00886556339946 0.0306884886904 0.362 2.10129272959e-38
-0.0074809078324 0.0306037138598 0.361 2.12891512491e-38
-0.00605292290745 0.0302646145373 0.357 2.15657381387e-38
-0.00472101612389 0.0303493893679 0.358 2.20256372882e-38
-0.00338157379984 0.0304341641985 0.359 2.20256372882e-38
-0.00198938269227 0.0298407403841 0.352 2.20252743519e-38
-0.00066312756409 0.0298407403841 0.352 2.20252743519e-38
0.00066312756409 0.0298407403841 0.352 2.13799049429e-38
0.0020289442799 0.0304341641985 0.359 2.20252743519e-38
0.00332505724608 0.0299255152147 0.353 2.16568547688e-38
0.004602331361 0.0295864158922 0.349 2.10114853597e-38
0.00591728317843 0.0295864158922 0.349 2.07348984701e-38
0.00727368046862 0.0297559655534 0.351 2.05515862102e-38
0.00871862035969 0.0301798397066 0.356 2.04590346506e-38
0.00997517173824 0.0299255152147 0.353 1.99058608714e-38
0.0113372206838 0.0300102900453 0.354 1.91701049088e-38
0.0127425989872 0.0301798397066 0.356 1.87091295621e-38
0.0140443636088 0.030095064876 0.355 1.83407099789e-38
0.0155552394792 0.0304341641985 0.359 1.72358029554e-38
0.0169549661273 0.0305189390292 0.36 1.70524934981e-38
0.0183113634175 0.0305189390292 0.36 1.67762723474e-38
0.0198862913822 0.0308580383517 0.364 1.62245405043e-38
0.02143296107 0.0311123628436 0.367 1.55791710953e-38
0.0230644055885 0.0314514621662 0.371 1.30006235742e-38
0.0245281843308 0.0315362369968 0.372 9.22170697298e-39
-0.0573473470979 0.0369222645699 0.417 8.29940175103e-39
-0.0548398959962 0.0363024663637 0.41 8.66818146789e-39
-0.0529051459726 0.036036838561 0.407 8.57598443673e-39
-0.0498570198399 0.0349743273504 0.395 9.22170977558e-39
-0.0478789404584 0.0346201569468 0.391 9.59049229503e-39
-0.0459310032389 0.0342659865433 0.387 8.21043471283e-39
-0.0442430421667 0.0340889013415 0.385 1.01458240738e-38
-0.0423478537307 0.033734730938 0.381 1.07904746168e-38
-0.0410197147173 0.0338232735389 0.382 9.68412986102e-39
-0.0395804264816 0.0338232735389 0.382 9.31534453897e-39
-0.0379414464227 0.0336461883371 0.38 1.02376567674e-38
-0.0365096937275 0.0336461883371 0.38 9.68519905174e-39
-0.0350779410323 0.0336461883371 0.38 9.13274273738e-39
-0.0335576457362 0.0335576457362 0.379 9.59156288706e-39
-0.0322144356419 0.0336461883371 0.38 1.02358560989e-38
-0.0308636900071 0.033734730938 0.381 1.032733006e-38
-0.0295054088318 0.0338232735389 0.382 1.03265971809e-38
-0.0282865351557 0.0340889013415 0.385 1.48437976872e-38
-0.0267662398597 0.0340003587406 0.384 1.5211840321e-38
-0.0253853520628 0.0340889013415 0.385 1.59483151497e-38
-0.0239969287255 0.0341774439424 0.386 1.63174521977e-38
-0.0226009698477 0.0342659865433 0.387 1.71457709303e-38
-0.0213067407667 0.034531614346 0.39 1.7606027411e-38
-0.0200407699625 0.0348857847495 0.394 1.8250312215e-38
-0.0186975598682 0.0351514125522 0.397 1.88027643255e-38
-0.0171584257208 0.0350628699513 0.396 1.95396034918e-38
-0.0152312112377 0.0340889013415 0.385 1.95388846256e-38
-0.0134942691522 0.0333805605344 0.377 1.97232758854e-38
-0.0117215332493 0.0324065919247 0.366 2.04608409243e-38
-0.0102860127839 0.0322295067229 0.364 2.1197315753e-38
-0.00879209187957 0.0317867937185 0.359 2.11051201231e-38
-0.00743946235964 0.0317867937185 0.359 2.12891512491e-38
-0.00603596794132 0.0315211659158 0.356 2.16579337686e-38
-0.00466826734039 0.031344080714 0.354 2.19334416584e-38
-0.00332505724608 0.0312555381131 0.353 2.20256372882e-38
-0.00198938269227 0.0311669955123 0.352 2.2117114052e-38
-0.000661243678965 0.0310784529114 0.351 2.18405271624e-38
0.000657475908715 0.0309013677096 0.349 2.1749047596e-38
0.00197242772614 0.0309013677096 0.349 2.20256344856e-38
0.00327796011795 0.0308128251087 0.348 2.15646591389e-38
0.0045495825775 0.030547197306 0.345 2.08281730998e-38
0.00586641828005 0.0306357399069 0.346 2.06437818401e-38
0.00723223499586 0.0309013677096 0.349 2.03671949505e-38
0.00862065833318 0.0311669955123 0.352 2.02746433908e-38
0.00986213863072 0.0309013677096 0.349 1.98143841076e-38
0.011145064401 0.0308128251087 0.348 1.93544989711e-38
0.0125994237177 0.0311669955123 0.352 1.89860765854e-38
0.0138465556706 0.0309899103105 0.35 1.84339846086e-38
0.015295263332 0.0312555381131 0.353 1.73290803877e-38
0.0166723833585 0.031344080714 0.354 1.66840739149e-38
0.0180570389256 0.0314326233149 0.355 1.62245377017e-38
0.0196131280391 0.0317867937185 0.359 1.59483137484e-38
0.0210825584368 0.0319638789202 0.361 1.49352422211e-38
0.0225670599155 0.032140964122 0.363 1.14365516815e-38
0.023868824537 0.0320524215211 0.362 9.59266150506e-39
0.0259994986137 0.0330263901309 0.373 8.67325556963e-39
-0.0596249642144 0.0389549766201 0.422 8.20720331857e-39
-0.0562471581848 0.0377549417953 0.409 8.29939894843e-39
-0.0540373609329 0.0372933899396 0.404 8.3915945783e-39
-0.0519952294571 0.036924148455 0.4 8.3915945783e-39
-0.0496045792331 0.0362779758571 0.393 8.48379020816e-39
-0.047511582859 0.0358164240014 0.388 8.48379020816e-39
-0.045812318476 0.0356318032591 0.386 8.85329019243e-39
-0.0443579591593 0.0356318032591 0.386 8.85329019243e-39
-0.042459002953 0.0352625617746 0.382 1.18039062779e-38
-0.0406975703609 0.0349856306611 0.379 9.77560242087e-39
-0.0393731991179 0.0350779410323 0.38 9.77632268828e-39
-0.037841600511 0.0349856306611 0.379 1.00529095779e-38
-0.0363175374447 0.03489332029 0.378 1.00532655077e-38
-0.03489332029 0.03489332029 0.378 1.01454611375e-38
-0.0335576457362 0.0349856306611 0.379 8.94764522323e-39
-0.0322992104725 0.0351702514034 0.381 9.96106707522e-39
-0.0307826829467 0.0350779410323 0.38 1.00518011508e-38
-0.0294281695416 0.0351702514034 0.381 1.35537749326e-38
-0.0279191775563 0.0350779410323 0.38 1.50274490613e-38
-0.02669653611 0.0353548721457 0.383 1.58561195199e-38
-0.0253194160835 0.0354471825168 0.384 1.63167361342e-38
-0.0239969287255 0.0356318032591 0.386 1.66855186536e-38
-0.0224257685311 0.0354471825168 0.384 1.76964195697e-38
-0.0211974754294 0.0358164240014 0.388 1.82485115465e-38
-0.019837310369 0.0360010447437 0.39 1.87091267595e-38
-0.0185091713556 0.0362779758571 0.393 1.92619376023e-38
-0.0167684614999 0.0357241136302 0.387 1.97229143504e-38
-0.0149938417119 0.0349856306611 0.379 1.999950124e-38
-0.0133868877001 0.0345240788055 0.374 2.03690026255e-38
-0.0117535592965 0.0338779062075 0.367 2.0645232184e-38
-0.010257754507 0.0335086647229 0.363 2.09218078632e-38
-0.00879209187957 0.0331394232384 0.359 2.1197315753e-38
-0.00739801688688 0.0329548024961 0.357 2.10129244933e-38
-0.00600205800907 0.0326778713827 0.354 2.12891512491e-38
-0.00464189294863 0.0324932506404 0.352 2.15657381387e-38
-0.00331563782045 0.0324932506404 0.352 2.2210028548e-38
-0.00198938269227 0.0324932506404 0.352 2.12880722493e-38
-0.00065935979384 0.0323086298982 0.35 2.06419839742e-38
0.000657475908715 0.032216319527 0.349 2.15657381387e-38
0.00196112441539 0.0320316987847 0.347 2.18423250283e-38
0.00326854069232 0.0320316987847 0.347 2.18426879646e-38
0.00456276977337 0.0319393884136 0.346 2.11973213582e-38
0.00588337324618 0.0320316987847 0.347 2.07363432089e-38
0.00717006678673 0.0319393884136 0.346 2.04590402558e-38
0.00847371529341 0.0319393884136 0.346 2.00899004052e-38
0.00977736380008 0.0319393884136 0.346 1.99969845079e-38
0.011145064401 0.0321240091559 0.348 1.91693860427e-38
0.0125636299003 0.0324009402693 0.351 1.9170472049e-38
0.013806994083 0.032216319527 0.349 1.87102169697e-38
0.0152086046162 0.0324009402693 0.351 1.82495933489e-38
0.0166252862304 0.0325855610116 0.353 1.72354358152e-38
0.0180061740272 0.0326778713827 0.354 1.66844270421e-38
0.0194492300332 0.032862492125 0.356 1.49352534314e-38
0.0208489566812 0.0329548024961 0.357 1.24481532468e-38
0.0223183870789 0.0331394232384 0.359 8.48848595932e-39
0.023868824537 0.0334163543518 0.362 8.39666447614e-39
0.0258600911144 0.034247147692 0.371 7.75311255121e-39
-0.05948367283 0.0404488975244 0.421 8.20792078339e-39
-0.0563846817989 0.0393920379691 0.41 8.30011641325e-39
-0.0537698492451 0.038623412838 0.402 8.30011641325e-39
-0.0513452890889 0.0379508658483 0.395 8.30011641325e-39
-0.0493521386264 0.0375665532827 0.391 8.39231204311e-39
-0.047511582859 0.0372783188586 0.388 8.39231204311e-39
-0.0455749489502 0.036894006293 0.384 8.30011641325e-39
-0.0442430421667 0.0369900844344 0.385 8.48450767298e-39
-0.0422367045083 0.0365096937275 0.38 1.00521893105e-38
-0.0405901889088 0.0363175374447 0.378 1.14351237584e-38
-0.0391659717541 0.0363175374447 0.378 1.01451052077e-38
-0.0377417545994 0.0363175374447 0.378 1.04216920973e-38
-0.0361253811619 0.0361253811619 0.376 9.77667861809e-39
-0.0348010099189 0.0362214593033 0.377 9.59228735837e-39
-0.0332034753327 0.0360293030205 0.375 9.31426834175e-39
-0.0322144356419 0.0365096937275 0.38 1.01440178001e-38
-0.0308636900071 0.0366057718689 0.381 9.49718683679e-39
-0.0297371267022 0.0369900844344 0.385 1.44742892951e-38
-0.0279926490762 0.0366057718689 0.381 1.56713779355e-38
-0.0265571286107 0.0366057718689 0.381 1.63156585357e-38
-0.0251216081453 0.0366057718689 0.381 1.67762723474e-38
-0.0241212651438 0.0372783188586 0.388 1.7052859237e-38
-0.0224841689699 0.0369900844344 0.385 1.751202831e-38
-0.0210882100921 0.0370861625758 0.386 1.81563159166e-38
-0.0196847156738 0.0371822407172 0.387 1.87091267595e-38
-0.0184620742275 0.0376626314241 0.392 1.90775463426e-38
-0.0166384734263 0.036894006293 0.384 1.96307187205e-38
-0.0147960337738 0.0359332248792 0.374 1.97229143504e-38
-0.0131363309784 0.0352606778894 0.367 2.00924157359e-38
-0.0116574811551 0.0349724434653 0.364 2.05530365541e-38
-0.0101447213995 0.0344920527583 0.359 2.10140034931e-38
-0.00866963934643 0.0340116620514 0.354 2.14739026426e-38
-0.00731512594137 0.03391558391 0.353 2.15660982724e-38
-0.00598510304294 0.03391558391 0.353 2.17501293985e-38
-0.00461551855688 0.0336273494858 0.35 2.18423250283e-38
-0.00327796011795 0.0334351932031 0.348 2.25788110674e-38
-0.00196677607077 0.0334351932031 0.348 2.19334416584e-38
-0.000651824253339 0.0332430369203 0.346 2.09185708638e-38
0.000651824253339 0.0332430369203 0.346 2.11969556193e-38
0.00196112441539 0.0333391150617 0.347 2.12887953193e-38
0.00326854069232 0.0333391150617 0.347 2.12895141854e-38
0.00453639538162 0.0330508806375 0.344 2.08292591061e-38
0.00586641828005 0.0332430369203 0.346 2.08292591061e-38
0.00719078952311 0.0333391150617 0.347 2.05526750191e-38
0.00844922478678 0.0331469587789 0.345 2.009061787e-38
0.00980562207696 0.0333391150617 0.347 1.97211178857e-38
0.0110489862596 0.0331469587789 0.345 1.8800959453e-38
0.0123846608134 0.0332430369203 0.346 1.84329056088e-38
0.0137674324954 0.0334351932031 0.348 1.7881175167e-38
0.0151219459004 0.0335312713444 0.349 1.76971384358e-38
0.0165781891023 0.0338195057686 0.352 1.7143961854e-38
0.0178535793321 0.0337234276272 0.351 1.65925971512e-38
0.0192306993586 0.0338195057686 0.352 1.45668394535e-38
0.0207321558035 0.0341077401928 0.355 1.22641319299e-38
0.0220697142424 0.0341077401928 0.355 8.48885029692e-39
0.0237369525782 0.0345881308997 0.36 8.12115798767e-39
0.0253024611173 0.0348763653239 0.363 7.66091972394e-39
0.0272579338773 0.035644990455 0.371 7.0170076653e-39
0.02850129806 0.0354528341722 0.369 6.74187392222e-39
-0.058070758986 0.0410366696835 0.411 8.2082767132e-39
-0.0554220164999 0.0402379023904 0.403 8.30047234306e-39
-0.0532348258695 0.0397386728322 0.398 8.39266797292e-39
-0.0510853129416 0.039239443274 0.393 8.39266797292e-39
-0.049225918323 0.0389399055391 0.39 8.39266797292e-39
-0.047511582859 0.0387402137158 0.388 8.39266797292e-39
-0.0454562641873 0.0382409841576 0.383 8.30011641325e-39
-0.0435535402108 0.037841600511 0.379 8.57670330284e-39
-0.0417921076187 0.0375420627761 0.376 8.66925486251e-39
-0.0401606631002 0.0373423709528 0.374 1.2357080057e-38
-0.0388551307084 0.0374422168645 0.375 1.10670615064e-38
-0.0375420627761 0.0375420627761 0.376 1.12514527661e-38
-0.0361253811619 0.0375420627761 0.376 1.02376567674e-38
-0.0345240788055 0.0373423709528 0.374 9.5000917285e-39
-0.0332034753327 0.0374422168645 0.375 9.86707918462e-39
-0.0320448859806 0.0377417545994 0.378 1.05113583835e-38
-0.0307016758863 0.037841600511 0.379 1.02333113409e-38
-0.0298143659923 0.0385405218925 0.386 1.54873594212e-38
-0.0282130636358 0.0383408300692 0.384 1.56699359994e-38
-0.0267662398597 0.0383408300692 0.384 1.62223797021e-38
-0.0251875441247 0.038141138246 0.382 1.68666673087e-38
-0.0239969287255 0.0385405218925 0.386 1.7327645458e-38
-0.0224841689699 0.0384406759809 0.385 1.76042239398e-38
-0.0211974754294 0.0387402137158 0.388 1.84329028062e-38
-0.0197864454706 0.0388400596274 0.389 1.88935180192e-38
-0.0182265885869 0.0386403678041 0.387 1.92619376023e-38
-0.0164651559947 0.0379414464227 0.38 1.95385230906e-38
-0.0146773490109 0.0370428332179 0.371 1.96307187205e-38
-0.013100537161 0.0365436036597 0.366 1.99080244762e-38
-0.0114973509194 0.0358446822783 0.359 2.04608409243e-38
-0.0101164631226 0.0357448363666 0.358 2.08296150359e-38
-0.0086451488398 0.0352456068084 0.353 2.11973185556e-38
-0.00727368046862 0.0350459149852 0.351 2.1566101075e-38
-0.00598510304294 0.0352456068084 0.353 2.17501293985e-38
-0.004602331361 0.0348462231619 0.349 2.19345206582e-38
-0.00327796011795 0.0347463772502 0.348 2.20256344856e-38
-0.00195547276002 0.034546685427 0.346 2.16568519662e-38
-0.000648056483088 0.0343469936037 0.344 2.13799049429e-38
0.000649940368214 0.0344468395153 0.345 2.12887953193e-38
0.00193851779389 0.034247147692 0.343 2.0920731666e-38
0.00325912126669 0.034546685427 0.346 2.06448678464e-38
0.00453639538162 0.0343469936037 0.344 2.03689998229e-38
0.0058325083478 0.0343469936037 0.344 2.00009361696e-38
0.00712862131397 0.0343469936037 0.344 2.01846085632e-38
0.00840024377352 0.034247147692 0.343 1.97236332165e-38
0.0097491055232 0.0344468395153 0.345 1.98151099802e-38
0.0110169602125 0.0343469936037 0.344 1.90775463426e-38
0.0123488669961 0.0344468395153 0.345 1.84329056088e-38
0.0137674324954 0.0347463772502 0.348 1.74212732149e-38
0.0150352871847 0.0346465313386 0.347 1.73290761838e-38
0.0164368977179 0.0348462231619 0.349 1.71454037901e-38
0.0176501197385 0.0346465313386 0.347 1.62249048419e-38
0.0190668013527 0.0348462231619 0.349 1.34612275768e-38
0.0204985540479 0.0350459149852 0.351 1.11585200532e-38
0.0219453778241 0.0352456068084 0.353 8.30554924739e-39
0.0234732086607 0.0355451445433 0.356 8.02897216689e-39
0.0248842386195 0.035644990455 0.357 7.38469577065e-39
0.0265966901984 0.0361442200132 0.362 6.83297653928e-39
0.0281923408995 0.0364437577481 0.365 6.74151098592e-39
0.0298916052825 0.0368431413947 0.369 6.37345433907e-39
0.0317057866581 0.0373423709528 0.374 6.55784840139e-39
0.0340003587406 0.0383408300692 0.384 6.55784840139e-39
-0.0610699041055 0.0436213600753 0.421 8.20720191727e-39
-0.0577881762173 0.0423779958927 0.409 8.29939754714e-39
-0.0550094456575 0.0414454727557 0.4 8.391593177e-39
-0.0532348258695 0.0412382453919 0.398 8.391593177e-39
-0.0512153010152 0.0408237906643 0.394 8.391593177e-39
-0.049225918323 0.0404093359368 0.39 8.391593177e-39
-0.0473891303258 0.0400984948911 0.387 8.29939754714e-39
-0.0455749489502 0.0397876538454 0.384 8.39231204311e-39
-0.0438982911887 0.0395804264816 0.382 8.30011641325e-39
-0.0421255552859 0.039269585436 0.379 8.39266797292e-39
-0.0404828074566 0.0390623580722 0.377 1.00521893105e-38
-0.0390623580722 0.0390623580722 0.377 1.08826702466e-38
-0.0374422168645 0.0388551307084 0.375 1.08826702466e-38
-0.0360293030205 0.0388551307084 0.375 1.06986349167e-38
-0.0345240788055 0.0387515170265 0.374 1.01454611375e-38
-0.033734730938 0.0394768127998 0.381 1.06046414209e-38
-0.0322144356419 0.0393731991179 0.38 1.05113527783e-38
-0.0307826829467 0.0393731991179 0.38 1.19853842381e-38
-0.0294281695416 0.0394768127998 0.381 1.54873580199e-38
-0.0280661205961 0.0395804264816 0.382 1.56710121966e-38
-0.0266268323604 0.0395804264816 0.382 1.63152913955e-38
-0.0251875441247 0.0395804264816 0.382 1.69592188684e-38
-0.0236860876799 0.0394768127998 0.381 1.75123926476e-38
-0.0224257685311 0.0397876538454 0.384 1.79730064593e-38
-0.0211974754294 0.040202108573 0.388 1.8525098436e-38
-0.0197864454706 0.0403057222549 0.389 1.89857136491e-38
-0.0178498115618 0.039269585436 0.379 1.95385244919e-38
-0.0162485092053 0.0388551307084 0.375 1.95385230906e-38
-0.014558664248 0.0381298349352 0.368 1.98151099802e-38
-0.013100537161 0.0379226075714 0.366 2.01846113658e-38
-0.0114012727781 0.0368864707525 0.356 2.05530365541e-38
-0.0100034300151 0.0366792433888 0.354 2.08292591061e-38
-0.00862065833318 0.036472016025 0.352 2.09207344686e-38
-0.00725295773224 0.0362647886612 0.35 2.11973185556e-38
-0.00591728317843 0.0361611749793 0.349 2.1381346879e-38
-0.00457595696925 0.0359539476155 0.347 2.19345206582e-38
-0.00325912126669 0.0358503339336 0.346 2.11958738169e-38
-0.00196677607077 0.0360575612974 0.348 2.11040355181e-38
-0.000651824253339 0.0358503339336 0.346 2.16564904312e-38
0.000649940368214 0.0357467202518 0.345 2.11973213582e-38
0.00193851779389 0.035539492888 0.343 2.10129300984e-38
0.00325912126669 0.0358503339336 0.346 2.05533910827e-38
0.0045495825775 0.0357467202518 0.345 2.02775230592e-38
0.0058325083478 0.0356431065699 0.344 1.96332326499e-38
0.00712862131397 0.0356431065699 0.344 1.99098195395e-38
0.00837575326689 0.0354358792061 0.342 1.96332326499e-38
0.00972084724633 0.0356431065699 0.344 2.00009361696e-38
0.0110169602125 0.0356431065699 0.344 1.94466889958e-38
0.0123130731787 0.0356431065699 0.344 1.87105686956e-38
0.0136091861449 0.0356431065699 0.344 1.76056644747e-38
0.0149486284689 0.0357467202518 0.345 1.66844256408e-38
0.0162956063335 0.0358503339336 0.346 1.66847899784e-38
0.0177009846369 0.0360575612974 0.348 1.54877083445e-38
0.0191214340214 0.0362647886612 0.35 1.23559702287e-38
0.020440153609 0.0362647886612 0.35 1.01451052077e-38
0.0218210414059 0.0363684023431 0.351 8.12116779676e-39
0.0231435287638 0.0363684023431 0.351 7.84530537847e-39
0.0250236461188 0.0371973117982 0.359 7.2932204082e-39
0.0265232186785 0.037404539162 0.361 6.64894261066e-39
0.0276516658685 0.0370936981163 0.358 6.64931115216e-39
0.0293245558598 0.0375081528439 0.362 6.55747985989e-39
0.031027588013 0.0379226075714 0.366 6.64967829235e-39
0.0331149327318 0.0387515170265 0.374 6.55748546509e-39
0.0350779410323 0.0393731991179 0.38 5.8220966427e-39
-0.0604896674869 0.0447780655422 0.417 8.3915945783e-39
-0.0569404279109 0.0432747252123 0.403 8.57598583802e-39
-0.0550094456575 0.0429525808559 0.4 8.66818146789e-39
-0.0522985349623 0.0419861477866 0.391 8.66818146789e-39
-0.0503053844997 0.041556621978 0.387 8.66818146789e-39
-0.048594816806 0.0413418590738 0.385 8.66818146789e-39
-0.0468993201933 0.0411270961695 0.383 8.66818146789e-39
-0.0452188946615 0.0409123332652 0.381 8.66745979918e-39
-0.0436684572035 0.0408049518131 0.38 8.66745979918e-39
-0.0419032568411 0.0404828074566 0.377 8.57598443673e-39
-0.0403754260045 0.0403754260045 0.376 9.22135384577e-39
-0.0390623580722 0.0404828074566 0.377 1.11585368688e-38
-0.0373423709528 0.0401606631002 0.374 1.06975587195e-38
-0.0358371467378 0.0400532816481 0.373 1.05138877272e-38
-0.0347086995477 0.0403754260045 0.376 1.03294964675e-38
-0.0334691031353 0.0405901889088 0.378 1.17088309797e-38
-0.0321296608113 0.0406975703609 0.379 1.0325522385e-38
-0.0308636900071 0.0409123332652 0.381 1.4842369764e-38
-0.0294281695416 0.0409123332652 0.381 1.53029667602e-38
-0.0279926490762 0.0409123332652 0.381 1.65918894954e-38
-0.0266268323604 0.0410197147173 0.382 1.67755506787e-38
-0.0253853520628 0.0413418590738 0.385 1.73272825217e-38
-0.0238104240981 0.0411270961695 0.383 1.7971572931e-38
-0.0223673680922 0.0411270961695 0.383 1.80659209553e-38
-0.0209789447549 0.0412344776216 0.384 1.84339846086e-38
-0.0194812560803 0.0411270961695 0.383 1.88027643255e-38
-0.0176614230493 0.0402680445524 0.375 1.92630194048e-38
-0.0160318624159 0.0397311372917 0.37 1.96317991216e-38
-0.0144795410727 0.0393016114831 0.366 2.00002201061e-38
-0.0129931557089 0.0389794671267 0.363 2.03689998229e-38
-0.0113372206838 0.0380130340574 0.354 2.07370634763e-38
-0.00991865518448 0.037690889701 0.351 2.11058459957e-38
-0.00852269630666 0.0373687453446 0.348 2.12895141854e-38
-0.00717006678673 0.0371539824403 0.346 2.14735425089e-38
-0.00591728317843 0.0374761267967 0.349 2.18412432259e-38
-0.00453639538162 0.036939219536 0.344 2.19334388558e-38
-0.00324028241544 0.036939219536 0.344 2.14724607064e-38
-0.00194982110464 0.0370466009882 0.345 2.11969528167e-38
-0.000648056483088 0.036939219536 0.344 2.21189119179e-38
0.000648056483088 0.036939219536 0.344 2.09221736021e-38
0.00193851779389 0.0368318380839 0.343 2.09228924682e-38
0.00322144356419 0.0367244566318 0.342 2.10150880981e-38
0.00451002098987 0.0367244566318 0.342 2.03693627592e-38
0.00579859841554 0.0367244566318 0.342 2.00016592396e-38
0.00712862131397 0.036939219536 0.344 1.95406824916e-38
0.00837575326689 0.0367244566318 0.342 1.94484868617e-38
0.00966433069257 0.0367244566318 0.342 1.93562912318e-38
0.0109208820711 0.0366170751796 0.341 1.90782750178e-38
0.0123130731787 0.036939219536 0.344 1.92630194048e-38
0.0136091861449 0.036939219536 0.344 1.87109218228e-38
0.0149486284689 0.0370466009882 0.345 1.68684539643e-38
0.0162956063335 0.0371539824403 0.346 1.57639266926e-38
0.0175992548402 0.0371539824403 0.346 1.43824706145e-38
0.0190121686841 0.0373687453446 0.348 1.1064543373e-38
0.0203233527313 0.0373687453446 0.348 1.18035699662e-38
0.0215102003602 0.0371539824403 0.346 7.10592565806e-39
0.0228797848462 0.0372613638925 0.347 7.84458370976e-39
0.0245357198713 0.0377982711532 0.352 7.47833754053e-39
0.0260823895592 0.0381204155096 0.355 6.18941620655e-39
0.0274199479981 0.0381204155096 0.355 6.46637724283e-39
0.0288385134974 0.0382277969617 0.356 6.09796046228e-39
0.0309428131823 0.039194230031 0.365 6.37310821835e-39
0.0330263901309 0.0400532816481 0.373 6.7418907378e-39
0.03489332029 0.0405901889088 0.378 6.74261100521e-39
0.0370861625758 0.0414492405259 0.386 6.74333267392e-39
-0.0599094308683 0.0459046288471 0.413 8.66818146789e-39
-0.0566578451421 0.0445708381785 0.401 8.76037709775e-39
-0.0539092567444 0.0435704951769 0.392 8.85257272761e-39
-0.0518972674306 0.0431258982874 0.388 8.85257272761e-39
-0.0497854322052 0.0425701521754 0.383 8.85257272761e-39
-0.0480899355924 0.0423478537307 0.381 8.76037709775e-39
-0.0465319625938 0.0422367045083 0.38 8.76037709775e-39
-0.04474415561 0.0419032568411 0.377 8.85257132632e-39
-0.0433237062255 0.0419032568411 0.377 8.85257132632e-39
-0.0420144060635 0.0420144060635 0.378 8.85257132632e-39
-0.0403754260045 0.0417921076187 0.376 9.03696258604e-39
-0.0388551307084 0.0416809583963 0.375 1.1066341239e-38
-0.0373423709528 0.0415698091739 0.374 1.1066341239e-38
-0.0359332248792 0.0415698091739 0.374 1.09741456091e-38
-0.0347086995477 0.0417921076187 0.376 1.07897543494e-38
-0.0334691031353 0.0420144060635 0.378 1.06031994848e-38
-0.0320448859806 0.0420144060635 0.378 9.77342620436e-39
-0.0308636900071 0.0423478537307 0.381 1.43824678119e-38
-0.0295054088318 0.042459002953 0.382 1.52114871938e-38
-0.0280661205961 0.042459002953 0.382 1.65014917315e-38
-0.0264874248611 0.0422367045083 0.38 1.68684679772e-38
-0.0249897361865 0.0421255552859 0.379 1.71443331981e-38
-0.0238104240981 0.0425701521754 0.383 1.76964279775e-38
-0.0224841689699 0.0427924506202 0.385 1.78815296955e-38
-0.0210882100921 0.0429035998426 0.386 1.83417889787e-38
-0.0192269315884 0.0420144060635 0.378 1.88949599553e-38
-0.0175201316649 0.0413475107291 0.372 1.93552150346e-38
-0.0156852275529 0.0402360185052 0.362 1.96317991216e-38
-0.0142421715469 0.0400137200605 0.36 1.99080244762e-38
-0.0128499804394 0.0399025708381 0.359 2.02768041931e-38
-0.0113372206838 0.0393468247261 0.354 2.06448678464e-38
-0.0098903969076 0.0389022278366 0.35 2.07374166035e-38
-0.00844922478678 0.0383464817246 0.345 2.13817070127e-38
-0.00714934405035 0.0383464817246 0.345 2.19345178556e-38
-0.00586641828005 0.038457630947 0.346 2.21181874466e-38
-0.00453639538162 0.0382353325022 0.344 2.23947715336e-38
-0.00325912126669 0.038457630947 0.346 2.09196442584e-38
-0.00196112441539 0.0385687801694 0.347 2.08281688959e-38
-0.000651824253339 0.038457630947 0.346 2.1657930966e-38
0.000648056483088 0.0382353325022 0.344 2.13824328853e-38
0.00193286613851 0.0380130340574 0.342 2.11980416256e-38
0.00321202413856 0.037901884835 0.341 2.11058487983e-38
0.00451002098987 0.0380130340574 0.342 2.07370662789e-38
0.00581555338167 0.0381241832798 0.343 2.08299807748e-38
0.00712862131397 0.0382353325022 0.344 2.03690026255e-38
0.00837575326689 0.0380130340574 0.342 2.00920584048e-38
0.00963607241569 0.037901884835 0.341 1.94466889958e-38
0.0109208820711 0.037901884835 0.341 1.9077196018e-38
0.0122772793613 0.0381241832798 0.343 1.90779120815e-38
0.0136487477325 0.0383464817246 0.345 1.86176499957e-38
0.014905299111 0.0382353325022 0.344 1.6683708176e-38
0.0163427034616 0.0385687801694 0.347 1.50270875263e-38
0.0175992548402 0.038457630947 0.346 1.31853693624e-38
0.0189575360155 0.0385687801694 0.347 1.08826702466e-38
0.0202649522924 0.0385687801694 0.347 1.06075407075e-38
0.0218210414059 0.0390133770589 0.351 7.56582200496e-39
0.0230775927844 0.0389022278366 0.35 7.84422077346e-39
0.024605423621 0.0392356755037 0.353 7.84603825757e-39
0.0258619749995 0.0391245262813 0.352 6.55711972619e-39
0.0271109908376 0.0390133770589 0.351 6.92627639233e-39
0.0286764993767 0.0393468247261 0.354 6.37382848576e-39
0.030095064876 0.0394579739485 0.355 6.46530384821e-39
0.032140964122 0.0403471677276 0.363 7.01775595868e-39
0.034247147692 0.0412363615068 0.371 6.65077130516e-39
0.0367018500103 0.042459002953 0.382 6.65113143886e-39
-0.0593291942497 0.04700104999 0.409 9.03696398734e-39
-0.0563752623733 0.0458518800636 0.399 9.1291596172e-39
-0.0539092567444 0.0450474611151 0.392 9.1291596172e-39
-0.0517635115867 0.0444728761519 0.387 9.1291596172e-39
-0.0495254560579 0.0437833741961 0.381 9.1291596172e-39
-0.047963715289 0.0436684572035 0.38 9.03696398734e-39
-0.0465319625938 0.0436684572035 0.38 9.03696398734e-39
-0.0449815251358 0.0435535402108 0.379 8.76109456257e-39
-0.0435535402108 0.0435535402108 0.379 8.76109456257e-39
-0.0420144060635 0.0434386232182 0.378 8.85329019243e-39
-0.0401606631002 0.0429789552476 0.374 8.76109456257e-39
-0.0387515170265 0.0429789552476 0.374 1.11578180027e-38
-0.0373423709528 0.0429789552476 0.374 1.18031874118e-38
-0.0359332248792 0.0429789552476 0.374 1.10656223728e-38
-0.0346163891766 0.0430938722403 0.375 1.06968398534e-38
-0.0331149327318 0.0429789552476 0.374 1.1434027943e-38
-0.03196011115 0.0433237062255 0.377 1.18027992521e-38
-0.0305396617655 0.0433237062255 0.377 1.44757340338e-38
-0.0293509302515 0.0436684572035 0.38 1.53969504469e-38
-0.0278457060364 0.0435535402108 0.379 1.65936831575e-38
-0.0264874248611 0.0436684572035 0.38 1.69613796706e-38
-0.0247919282484 0.0432087892329 0.376 1.74212760175e-38
-0.0234995830525 0.0434386232182 0.378 1.78808192372e-38
-0.0225425694088 0.0443579591593 0.386 1.77893340657e-38
-0.0210882100921 0.0443579591593 0.386 1.84339846086e-38
-0.01917606669 0.0433237062255 0.377 1.89871555852e-38
-0.0173317431524 0.0422894532918 0.368 1.93552150346e-38
-0.0159018743423 0.0421745362991 0.367 1.97239947515e-38
-0.0142817331346 0.0414850343433 0.361 2.00002201061e-38
-0.0127068051699 0.0407955323874 0.355 2.02768041931e-38
-0.0112091164953 0.0402209474242 0.35 2.05526722165e-38
-0.00980562207696 0.0398761964463 0.347 2.09218050606e-38
-0.00844922478678 0.039646362461 0.345 2.12898659114e-38
-0.00712862131397 0.0395314454684 0.344 2.16582854945e-38
-0.0058325083478 0.0395314454684 0.344 2.18415977544e-38
-0.00451002098987 0.0393016114831 0.342 2.13806196051e-38
-0.00322144356419 0.0393016114831 0.342 1.99976879597e-38
-0.00195547276002 0.0397612794537 0.346 2.05515834076e-38
-0.000651824253339 0.0397612794537 0.346 2.12891484465e-38
0.000644288712838 0.0393016114831 0.342 2.11044096648e-38
0.00193286613851 0.0393016114831 0.342 2.0735987279e-38
0.00321202413856 0.0391866944905 0.341 2.08281829089e-38
0.00451002098987 0.0393016114831 0.342 2.08281829089e-38
0.00576468848329 0.0390717774978 0.34 2.07370662789e-38
0.00708717584122 0.0393016114831 0.342 2.04604793893e-38
0.00832677225364 0.0390717774978 0.34 2.01838924997e-38
0.00960781413881 0.0390717774978 0.34 1.95385230906e-38
0.0108568299769 0.0389568605052 0.339 1.89850003881e-38
0.0122414855439 0.0393016114831 0.342 1.86165780024e-38
0.0135696245572 0.0394165284758 0.343 1.77882578684e-38
0.014905299111 0.0395314454684 0.344 1.63149382683e-38
0.0162485092053 0.039646362461 0.345 1.5488076886e-38
0.0175483899418 0.039646362461 0.345 1.26325571183e-38
0.0189029033468 0.0397612794537 0.346 1.06989950504e-38
0.0203233527313 0.039991113439 0.348 1.03316684801e-38
0.0216967049876 0.0401060304316 0.349 8.39376939351e-39
0.0229457208256 0.039991113439 0.348 8.11899858673e-39
0.0243266086224 0.0401060304316 0.349 8.12082167604e-39
0.0254946174001 0.0398761964463 0.347 7.01665734068e-39
0.0271882301277 0.0404507814095 0.352 6.83371782617e-39
0.0288385134974 0.0409104493801 0.356 6.28019091977e-39
0.0303493893679 0.0411402833654 0.358 6.37274247945e-39
0.032140964122 0.0417148683286 0.363 7.57092133007e-39
0.0341548373209 0.0425192872771 0.37 6.65076850256e-39
0.0358371467378 0.042864038255 0.373 6.65113143886e-39
0.0377417545994 0.0434386232182 0.378 6.65113424146e-39
-0.0590390759404 0.0483046984967 0.407 9.40574650679e-39
-0.0565165537577 0.0474739051565 0.4 9.40574650679e-39
-0.0539092567444 0.0465244270533 0.392 9.40574650679e-39
-0.0516297557428 0.045812318476 0.386 9.40574650679e-39
-0.0496554441315 0.0453375794244 0.382 9.31355087693e-39
-0.0482161558958 0.0453375794244 0.382 9.22135524707e-39
-0.0465319625938 0.0451002098987 0.38 9.22135524707e-39
-0.04474415561 0.04474415561 0.377 8.85436919225e-39
-0.0433237062255 0.04474415561 0.377 8.76109456257e-39
-0.0414586599515 0.0442694165584 0.373 8.85329019243e-39
-0.0398385187438 0.0440320470326 0.371 8.76109456257e-39
-0.0387515170265 0.0443881013213 0.374 9.77488355476e-39
-0.0372425250412 0.0442694165584 0.373 1.13422092624e-38
-0.0359332248792 0.0443881013213 0.374 1.08812311131e-38
-0.0346163891766 0.0445067860842 0.375 1.11567390029e-38
-0.0332034753327 0.0445067860842 0.375 1.23552513625e-38
-0.0318753363193 0.0446254708471 0.376 1.29080537976e-38
-0.0304586547052 0.0446254708471 0.376 1.46601112806e-38
-0.0291964516712 0.0448628403729 0.378 1.57650028898e-38
-0.0278457060364 0.0449815251358 0.379 1.65936733484e-38
-0.0266268323604 0.0453375794244 0.382 1.71454037901e-38
-0.0249897361865 0.0449815251358 0.379 1.78815296955e-38
-0.0235617512616 0.0449815251358 0.379 1.82492360178e-38
-0.0223089676533 0.0453375794244 0.382 1.81581165851e-38
-0.0210882100921 0.045812318476 0.386 1.85261802385e-38
-0.0191252017916 0.0446254708471 0.376 1.88949599553e-38
-0.0172375488961 0.0434386232182 0.366 1.92630194048e-38
-0.0155552394792 0.0426078298779 0.359 1.98161903813e-38
-0.0143212947222 0.0429638841666 0.362 2.01846113658e-38
-0.0126710113525 0.0420144060635 0.354 2.04611954528e-38
-0.0112091164953 0.0415396670119 0.35 2.05526722165e-38
-0.00977736380008 0.0410649279604 0.346 2.0645218171e-38
