VERSION .7
FIELDS x y z rgb
SIZE 4 4 4 4
TYPE F F F F
COUNT 1 1 1 1
WIDTH 853
HEIGHT 1
VIEWPOINT 0 0 0 1 0 0 0
POINTS 853
DATA ascii
0.0086451488398 0.0206153549257 0.353 9.95640915913e-39
0.0100882048458 0.0208489566812 0.357 1.18006776862e-38
0.0114012727781 0.0207905562423 0.356 1.20794183715e-38
0.0127783928046 0.0208489566812 0.357 1.31861218597e-38
0.0141234867841 0.0208489566812 0.357 2.11149460279e-38
0.0154252514056 0.0207905562423 0.356 2.00075166672e-38
0.0168607718711 0.0209073571201 0.358 2.25882782398e-38
0.018107903824 0.0207905562423 0.356 2.25882824437e-38
0.0196677607077 0.0210241579979 0.36 2.26794088829e-38
0.0211993593145 0.0211993593145 0.363 2.25872160556e-38
0.0225670599155 0.0211993593145 0.363 2.25879293165e-38
0.0240006964958 0.0212577597534 0.364 2.25879293165e-38
0.0252327573677 0.0211409588756 0.362 2.25879293165e-38
0.0265232186785 0.0210825584368 0.361 2.25879293165e-38
0.0280378623192 0.0211993593145 0.363 2.25879293165e-38
0.0293245558598 0.0211409588756 0.362 2.25879293165e-38
0.0309428131823 0.0213161601923 0.365 2.25879293165e-38
0.0324065919247 0.0213745606312 0.366 2.25879293165e-38
0.0337855958364 0.0213745606312 0.366 2.25879293165e-38
0.0353567560308 0.0214913615089 0.368 2.25879293165e-38
0.036743295483 0.0214913615089 0.368 2.25879293165e-38
0.038337062299 0.0216081623867 0.37 2.25879293165e-38
0.0397311372917 0.0216081623867 0.37 2.25879293165e-38
0.0413475107291 0.0217249632645 0.372 2.25879293165e-38
0.042864038255 0.0217833637033 0.373 2.25879293165e-38
0.0441507317955 0.0217249632645 0.372 2.25879293165e-38
0.0456747948619 0.0217833637033 0.373 2.26794060803e-38
0.0467015122551 0.0216081623867 0.37 2.26794060803e-38
0.0478356111005 0.0214913615089 0.368 2.26794060803e-38
0.0494896622405 0.0216081623867 0.37 2.25879293165e-38
0.0510212608473 0.0216665628256 0.371 2.26804780736e-38
0.0524191036103 0.0216665628256 0.371 2.25882782398e-38
0.0542521238372 0.0218417641422 0.374 2.25893502332e-38
0.0556612699108 0.0218417641422 0.374 2.16673925332e-38
0.0570704159845 0.0218417641422 0.374 2.33204510822e-38
0.058792286989 0.02195856502 0.376 1.64979758737e-38
0.0608494895458 0.0221921667755 0.38 1.11502762144e-38
0.0619534462292 0.0220753658978 0.378 8.47625122242e-39
0.0628746660555 0.0219001645811 0.375 8.47590089781e-39
0.064973314085 0.0221337663366 0.379 7.83017976285e-39
0.0662260976933 0.0220753658978 0.378 7.27665145516e-39
0.0674713457611 0.0220169654589 0.377 6.35469795912e-39
0.0692572688598 0.0221337663366 0.379 8.01670379884e-39
0.0706852537848 0.0221337663366 0.379 7.83267267282e-39
0.0723035111074 0.0221921667755 0.38 2.28623582065e-38
0.0739293039705 0.0222505672144 0.381 2.26797620101e-38
0.0759582482504 0.0224257685311 0.384 2.24042513177e-38
0.0770019206098 0.0223089676533 0.382 2.23131332864e-38
0.0794679262387 0.0226009698477 0.387 2.22220096498e-38
0.0798804970811 0.0223089676533 0.382 2.21298112174e-38
0.0821713013935 0.0225425694088 0.386 2.2313483611e-38
0.0823257799737 0.0221921667755 0.38 2.212981402e-38
0.0844187763479 0.0223673680922 0.383 2.212981402e-38
0.0869827440034 0.0226593702866 0.388 2.20386973899e-38
0.0889005390609 0.0227761711644 0.39 2.19468618938e-38
0.0892113801065 0.0224841689699 0.385 2.19472178236e-38
0.0918393998563 0.0227761711644 0.39 2.16713483988e-38
0.0930695768431 0.0227177707255 0.389 2.13025630767e-38
0.0942922182894 0.0226593702866 0.388 2.0748673234e-38
0.0955073241952 0.0226009698477 0.387 2.04720863445e-38
0.0974665647254 0.0227177707255 0.389 2.04720863445e-38
0.0981692538771 0.0225425694088 0.386 2.02876950847e-38
0.100914074505 0.0228345716032 0.391 2.01955008562e-38
0.102910992737 0.022951372481 0.393 2.00111095964e-38
0.114219955144 0.0251121887197 0.43 1.99189139666e-38
0.123113776821 0.0266890005695 0.457 1.99189139666e-38
0.126747791227 0.0270978036417 0.464 1.97345227068e-38
-0.158491255588 0.0292190582927 0.47 1.98742573871e-38
-0.142048706215 0.0264836570909 0.426 2.05188883119e-38
-0.136817157222 0.0257998067904 0.415 2.042417595e-38
-0.138512653835 0.0264214888817 0.425 1.80375418588e-38
-0.13401205227 0.0258619749995 0.416 1.45492433487e-38
-0.129579270571 0.0253024611173 0.407 1.20722156974e-38
-0.124899699919 0.024680779026 0.397 1.12485829068e-38
-0.121538848856 0.0243077697712 0.391 1.1158180939e-38
-0.117301991209 0.023748255889 0.382 1.18024601378e-38
-0.114042869943 0.0233752466342 0.376 1.21712314469e-38
-0.111727575124 0.0231887420068 0.373 1.23552653755e-38
-0.109434886926 0.0230022373794 0.37 1.22630697457e-38
-0.106580800961 0.0226913963337 0.365 1.20786812885e-38
-0.103764392699 0.0223805552881 0.36 1.20786812885e-38
-0.101554595447 0.0221940506607 0.357 1.22630753509e-38
-0.0990867059331 0.0219453778241 0.353 1.20786840911e-38
-0.0969258896945 0.0217588731967 0.35 9.31245926543e-39
-0.0961534967931 0.021883209615 0.352 1.08797849731e-38
-0.094557846092 0.0218210414059 0.351 1.19886352505e-38
-0.0924384753261 0.0216345367785 0.348 1.25418090297e-38
-0.0903417111817 0.0214480321511 0.345 1.21730265102e-38
-0.0887837381831 0.0213858639419 0.344 1.25418090297e-38
-0.0874876252169 0.0213858639419 0.344 1.20804763519e-38
-0.0849387286425 0.0210750228962 0.339 1.16195010052e-38
-0.0839082434789 0.0211371911054 0.34 1.17113435078e-38
-0.081412095688 0.0208263500597 0.335 1.27251381052e-38
-0.0801498926541 0.0208263500597 0.335 1.46598057975e-38
-0.0795941465421 0.0210128546871 0.338 1.47523573572e-38
-0.0794792295495 0.0213236957328 0.343 1.42913736027e-38
-0.0772750839529 0.0210750228962 0.339 1.27244052261e-38
-0.0748768981885 0.0207641818506 0.334 1.24470966678e-38
-0.0727368046862 0.020515509014 0.33 1.29080748171e-38
-0.0712767937141 0.0204533408049 0.329 1.34612485963e-38
-0.0708887133783 0.0207020136414 0.333 1.34612485963e-38
-0.0696340458849 0.0207020136414 0.333 1.35541518819e-38
-0.0677633479555 0.020515509014 0.33 1.42913595897e-38
-0.0673262866064 0.0207641818506 0.334 1.42913651949e-38
-0.0660678513428 0.0207641818506 0.334 1.4843106847e-38
-0.0638392152396 0.0204533408049 0.329 1.22616306121e-38
-0.0625996188272 0.0204533408049 0.329 1.13396729122e-38
-0.0619195362969 0.0206398454323 0.332 1.46583554536e-38
-0.0606686365738 0.0206398454323 0.332 1.31832225732e-38
-0.0592387677637 0.0205776772232 0.331 1.56714115667e-38
-0.0574660318608 0.0203911725958 0.328 1.56714115667e-38
-0.0565730703115 0.020515509014 0.33 1.55792159368e-38
-0.0553297061288 0.020515509014 0.33 1.55792159368e-38
-0.0540863419461 0.020515509014 0.33 1.57639631264e-38
-0.0528429777635 0.020515509014 0.33 1.58561587562e-38
-0.0514432511154 0.0204533408049 0.329 1.6040550016e-38
-0.050203654703 0.0204533408049 0.329 1.61327456458e-38
-0.0495593659901 0.0207020136414 0.333 1.64093297328e-38
-0.0484497576514 0.0207641818506 0.334 1.65015239614e-38
-0.0471913223877 0.0207641818506 0.334 1.67784667808e-38
-0.0455203162816 0.0205776772232 0.331 1.67784667808e-38
-0.0444069401726 0.0206398454323 0.332 1.68706624106e-38
-0.0439359688912 0.0210128546871 0.338 1.70550536704e-38
-0.0432935640635 0.0213236957328 0.343 1.70546977406e-38
-0.042368576467 0.0215102003602 0.346 1.68703078821e-38
-0.0548154054896 0.0296542357567 0.477 1.67784751886e-38
-0.0454449608766 0.0294055629201 0.473 1.69625021107e-38
-0.0441243574038 0.0297164039658 0.478 1.67784667808e-38
-0.0425004484258 0.0298407403841 0.48 1.65022442288e-38
-0.0400984948911 0.0294055629201 0.473 1.65940867314e-38
-0.0353190783283 0.0271053391822 0.436 1.594980473e-38
-0.030200562443 0.0243077697712 0.391 1.53973568234e-38
-0.0277722345165 0.0234995830525 0.378 1.63193159247e-38
-0.0255812761159 0.022815732752 0.367 1.59498075326e-38
-0.0231435287638 0.0218210414059 0.351 1.60405584237e-38
-0.0218210414059 0.0218210414059 0.351 1.58565216925e-38
-0.0201481514146 0.0214480321511 0.345 1.58558028264e-38
-0.0187390053409 0.0213236957328 0.343 1.53962666132e-38
-0.0175992548402 0.0215102003602 0.346 1.41058921327e-38
-0.0160601206928 0.0211993593145 0.341 1.355200229e-38
-0.0149919578268 0.0215102003602 0.346 1.38228284416e-38
-0.0136883093201 0.0215102003602 0.346 1.49205327911e-38
-0.0123488669961 0.0214480321511 0.345 1.62026255976e-38
-0.0111130383539 0.0215723685693 0.347 1.76723522686e-38
-0.00991865518448 0.0218210414059 0.351 1.52007252216e-38
-0.00847371529341 0.0215102003602 0.346 5.79931152967e-39
-0.00727368046862 0.0218210414059 0.351 5.89584838217e-39
-0.00598510304294 0.0219453778241 0.353 5.52922806625e-39
-0.00458914416513 0.0216345367785 0.348 5.89872524792e-39
-0.00328737954357 0.0216967049876 0.349 5.80795894249e-39
-0.00196112441539 0.0215723685693 0.347 5.8086778086e-39
-0.000653708138464 0.0215723685693 0.347 5.53317692532e-39
0.000651824253339 0.0215102003602 0.346 6.08491157098e-39
0.00201198931377 0.0221318824515 0.356 5.90052031125e-39
0.00332505724608 0.0219453778241 0.353 6.17531213751e-39
0.00464189294863 0.021883209615 0.352 6.54337859345e-39
0.00598510304294 0.0219453778241 0.353 6.35898733372e-39
0.00733584867775 0.0220075460333 0.354 4.51543066626e-39
0.0086451488398 0.0219453778241 0.353 3.77858169087e-39
0.010031688292 0.0220697142424 0.355 1.27215577876e-38
0.0113692467309 0.0220697142424 0.355 1.24481826741e-38
0.0127783928046 0.0221940506607 0.357 1.44764865311e-38
0.0142026099593 0.0223183870789 0.359 2.09298246917e-38
0.0154685807635 0.0221940506607 0.357 2.1114218754e-38
0.0169078689992 0.0223183870789 0.359 2.25886341696e-38
0.0182096336207 0.0222562188698 0.358 2.25882810424e-38
0.0196131280391 0.0223183870789 0.359 2.25879265139e-38
0.0211993593145 0.0225670599155 0.363 2.25879321191e-38
0.0224427234972 0.0224427234972 0.361 2.27708786401e-38
0.023868824537 0.0225048917063 0.362 2.29552727024e-38
0.0251630536181 0.0224427234972 0.361 2.2587213253e-38
0.0265232186785 0.0224427234972 0.361 2.25875761893e-38
0.0279606230291 0.0225048917063 0.362 2.25879321191e-38
0.0292435487994 0.0224427234972 0.361 2.25879293165e-38
0.0306884886904 0.0225048917063 0.362 2.26797592075e-38
0.0322295067229 0.0226292281246 0.364 2.28634287985e-38
0.0336932854652 0.0226913963337 0.365 2.28627211428e-38
0.0350685216067 0.0226913963337 0.365 2.28630770726e-38
0.0368431413947 0.0229400691703 0.369 2.28630770726e-38
0.0384406759809 0.0230644055885 0.371 2.26794060803e-38
0.0397311372917 0.0230022373794 0.37 2.25875663802e-38
0.0414586599515 0.0231887420068 0.373 2.25875663802e-38
0.0427491212623 0.0231265737977 0.372 2.24953707503e-38
0.0440320470326 0.0230644055885 0.371 2.26797620101e-38
0.0456747948619 0.0231887420068 0.373 2.22223950069e-38
0.0467015122551 0.0230022373794 0.37 2.18536040797e-38
0.0478356111005 0.0228779009611 0.368 2.23134892162e-38
0.0494896622405 0.0230022373794 0.37 2.21272888801e-38
0.0508837372332 0.0230022373794 0.37 2.30463641091e-38
0.0522778122259 0.0230022373794 0.37 2.3135691281e-38
0.0543971829918 0.0233130784251 0.375 1.87081570609e-38
0.0556612699108 0.0232509102159 0.374 1.08704593318e-38
0.0572230106797 0.0233130784251 0.375 8.29512919201e-39
0.058792286989 0.0233752466342 0.376 6.36045869711e-39
0.0608494895458 0.0236239194707 0.38 3.78077051907e-39
0.0617895482233 0.0234374148433 0.377 5.16549022127e-39
0.0628746660555 0.0233130784251 0.375 4.06021045234e-39
0.0646304469922 0.0234374148433 0.377 1.31868589427e-38
0.0662260976933 0.0234995830525 0.378 1.963912511e-38
0.0671134075873 0.0233130784251 0.375 6.54627787997e-39
0.0690745320027 0.0234995830525 0.378 1.04152545322e-38
0.0704987491574 0.0234995830525 0.378 5.89837352201e-39
0.0723035111074 0.0236239194707 0.38 2.27719576399e-38
0.0735412236347 0.0235617512616 0.379 2.23116913502e-38
0.0751670164978 0.0236239194707 0.38 2.24968014761e-38
0.0768003449014 0.0236860876799 0.381 2.23134864136e-38
0.0786465523241 0.0238104240981 0.383 2.22220068472e-38
0.0796713858322 0.0236860876799 0.381 2.22223585731e-38
0.0819584223743 0.0239347605164 0.385 2.19472178236e-38
0.0827590735525 0.023748255889 0.382 2.20386973899e-38
0.0844187763479 0.0238104240981 0.383 2.22220124524e-38
0.0867585616735 0.0240590969347 0.387 2.22216565226e-38
0.089128489161 0.0243077697712 0.391 2.22220124524e-38
0.0892113801065 0.0239347605164 0.385 2.22220096498e-38
0.0918393998563 0.0242456015621 0.39 2.2038693186e-38
0.0930695768431 0.0241834333529 0.389 2.19472136197e-38
0.0940491971082 0.0240590969347 0.387 2.11174571548e-38
0.0957541131466 0.0241212651438 0.388 2.07486746353e-38
0.0972160080038 0.0241212651438 0.388 2.04720877458e-38
0.0984235783691 0.0240590969347 0.387 2.01955008562e-38
0.100655982242 0.0242456015621 0.39 2.01955008562e-38
0.105529593062 0.0250537882808 0.403 2.01033052263e-38
0.122454417027 0.0286595444105 0.461 2.00111095964e-38
0.126077128123 0.0290947218745 0.468 2.00111095964e-38
0.128113607943 0.0291568900836 0.469 2.0196218321e-38
-0.155119101214 0.0303305505166 0.46 1.95991124336e-38
-0.140381467879 0.0277590473207 0.421 2.00593492961e-38
-0.135498437634 0.0270996875268 0.411 2.01497498626e-38
-0.138512653835 0.0280227912382 0.425 1.77627528351e-38
-0.133367763557 0.027297495465 0.414 1.41815384277e-38
-0.128624140812 0.0266381356711 0.404 1.16130340127e-38
-0.124270482288 0.0260447118567 0.395 1.09737910806e-38
-0.119673802582 0.0253853520628 0.385 1.09748686791e-38
-0.116380771383 0.0249897361865 0.379 1.16191478779e-38
-0.113739564437 0.024725992269 0.375 1.20793973521e-38
-0.110529424184 0.0243303763927 0.369 1.2170879721e-38
-0.108251807068 0.0241325684545 0.366 1.2170879721e-38
-0.105996796573 0.0239347605164 0.363 1.20786840911e-38
-0.103476158275 0.0236710165989 0.359 1.2170879721e-38
-0.101270128793 0.0234732086607 0.356 1.20786812885e-38
-0.0990867059331 0.0232754007226 0.353 1.22630725483e-38
-0.0969258896945 0.0230775927844 0.35 1.19864856587e-38
-0.09588033345 0.0231435287638 0.351 1.09723337302e-38
-0.0940190549462 0.023011656805 0.349 1.08819359662e-38
-0.0921728475234 0.0228797848462 0.347 1.26336501311e-38
-0.0911272912789 0.0229457208256 0.348 1.20804763519e-38
-0.0887837381831 0.0226819769081 0.344 1.23570618402e-38
-0.0869789762331 0.0225501049493 0.342 1.23570618402e-38
-0.0846881719208 0.0222863610318 0.338 1.23570632415e-38
-0.0836614545275 0.0223522970112 0.339 1.22648676116e-38
-0.081412095688 0.0220885530936 0.335 1.20804791545e-38
-0.0806283994759 0.0222204250524 0.337 1.17098959665e-38
-0.0793586609015 0.0222204250524 0.337 1.15255047068e-38
-0.0773937687158 0.0220226171143 0.334 1.20783141483e-38
-0.0754514831517 0.0218248091761 0.331 1.29084307469e-38
-0.0746527158586 0.0219566811349 0.333 1.30006263768e-38
-0.0720755610072 0.0215610652586 0.327 1.36459957858e-38
-0.0712767937141 0.0216929372173 0.329 1.34605255263e-38
-0.0706758343591 0.0218907451555 0.332 1.42902889977e-38
-0.0690067121382 0.0217588731967 0.33 1.3738554352e-38
-0.0679686914341 0.0218248091761 0.331 1.3461970265e-38
-0.0675278623148 0.0220885530936 0.335 9.86634070033e-39
-0.0658700434046 0.0219566811349 0.333 1.22634270768e-38
-0.0644213357433 0.0218907451555 0.332 1.14329475419e-38
-0.0631704360201 0.0218907451555 0.332 1.19861185185e-38
-0.0626655548065 0.022154489073 0.336 1.08801268899e-38
-0.0608513734309 0.0219566811349 0.333 1.49367346039e-38
-0.0588808295899 0.0216929372173 0.329 1.56714115667e-38
-0.0572908305442 0.0215610652586 0.327 1.56714115667e-38
-0.0565730703115 0.0217588731967 0.33 1.56714115667e-38
-0.0556650376811 0.0218907451555 0.332 1.55792159368e-38
-0.0547419339697 0.0220226171143 0.334 1.58561587562e-38
-0.0531632382348 0.0218907451555 0.332 1.59483543861e-38
-0.0522250634424 0.0220226171143 0.334 1.6040550016e-38
-0.0505088440933 0.0218248091761 0.331 1.61327456458e-38
-0.049708192915 0.0220226171143 0.334 1.61331057795e-38
-0.0484497576514 0.0220226171143 0.334 1.63178529691e-38
-0.0473326137721 0.0220885530936 0.335 1.65944398586e-38
-0.0455203162816 0.0218248091761 0.331 1.66866340872e-38
-0.0445406960165 0.0219566811349 0.333 1.68710253469e-38
-0.0443259331122 0.0224841689699 0.341 1.69632223781e-38
-0.0432935640635 0.0226160409287 0.343 1.69632223781e-38
-0.042368576467 0.0228138488669 0.346 1.67784751886e-38
-0.0521026109092 0.0289458949496 0.439 1.67781150549e-38
-0.0557347414307 0.0319789500012 0.485 1.67781150549e-38
-0.0489244967029 0.0323086298982 0.49 1.67784751886e-38
-0.0452528045938 0.0310558462899 0.471 1.68710267482e-38
-0.044955150744 0.03211082196 0.487 1.68710253469e-38
-0.0429431614302 0.0319789500012 0.485 1.65951629287e-38
-0.0398441703992 0.0309899103105 0.47 1.64107744715e-38
-0.0344280006641 0.0280227912382 0.425 1.61345519195e-38
-0.0300460838627 0.0256490959804 0.389 1.53966309508e-38
-0.0276252914768 0.0247919282484 0.376 1.82546982792e-38
-0.0257206836151 0.0243303763927 0.369 1.84390867363e-38
-0.0232754007226 0.0232754007226 0.353 1.62260286833e-38
-0.021883209615 0.0232094647432 0.352 1.59494403924e-38
-0.0200897509757 0.0226819769081 0.344 1.61338330534e-38
-0.0186297400037 0.0224841689699 0.341 1.49356528015e-38
-0.0173957952466 0.0225501049493 0.342 1.3553800156e-38
-0.0160130235647 0.0224182329906 0.34 1.28137169837e-38
-0.0148619697532 0.0226160409287 0.343 1.40986950638e-38
-0.0136487477325 0.0227479128875 0.345 1.50120067522e-38
-0.0123130731787 0.0226819769081 0.344 1.66621632121e-38
-0.0109849341654 0.0226160409287 0.343 1.79482146869e-38
-0.0097491055232 0.0227479128875 0.345 1.45557201502e-38
-0.00847371529341 0.0228138488669 0.346 6.16845838672e-39
-0.00725295773224 0.0230775927844 0.35 5.98804821593e-39
-0.00591728317843 0.023011656805 0.349 5.25300691556e-39
-0.00452320818574 0.0226160409287 0.343 5.71433679079e-39
-0.00325912126669 0.0228138488669 0.346 5.89907837513e-39
-0.00196112441539 0.0228797848462 0.347 5.80832468139e-39
-0.000649940368214 0.0227479128875 0.345 5.80869042029e-39
0.000657475908715 0.023011656805 0.349 5.90052031125e-39
0.00199503434765 0.0232754007226 0.353 6.08419270487e-39
0.00331563782045 0.0232094647432 0.352 6.17531213751e-39
0.00461551855688 0.0230775927844 0.35 5.99092087778e-39
0.00595119311069 0.0231435287638 0.351 5.4373869649e-39
0.00731512594137 0.0232754007226 0.353 6.54409465696e-39
0.00859616782655 0.0231435287638 0.351 4.88492924923e-39
0.0100599465689 0.0234732086607 0.356 1.23534955356e-38
0.0114332988252 0.0235391446401 0.357 1.18035363351e-38
0.012814186622 0.0236050806195 0.358 1.41084270817e-38
0.0140443636088 0.0234072726813 0.355 1.97312815035e-38
0.0154252514056 0.0234732086607 0.356 2.16673925332e-38
0.0168136747429 0.0235391446401 0.357 2.24967986735e-38
0.0185656879094 0.0240666324752 0.365 2.24968042787e-38
0.0196131280391 0.0236710165989 0.359 2.25879265139e-38
0.020965757559 0.0236710165989 0.359 2.25879293165e-38
0.0221318824515 0.0234732086607 0.356 2.24042513177e-38
0.0236710165989 0.0236710165989 0.359 2.24964469476e-38
0.0250933498684 0.0237369525782 0.36 2.23120584904e-38
0.0264497471586 0.0237369525782 0.36 2.24042569229e-38
0.0277289051587 0.0236710165989 0.359 2.24039009931e-38
0.0293245558598 0.023868824537 0.362 2.24039037957e-38
0.0307732635211 0.0239347605164 0.363 2.2403905197e-38
0.032140964122 0.0239347605164 0.363 2.24961008268e-38
0.0336932854652 0.0240666324752 0.365 2.26797578062e-38
0.0350685216067 0.0240666324752 0.365 2.26797592075e-38
0.036743295483 0.0242644404133 0.368 2.25882824437e-38
0.0382334486171 0.0243303763927 0.369 2.25879265139e-38
0.0395163743874 0.0242644404133 0.368 2.23113424269e-38
0.0414586599515 0.0245941203102 0.373 2.2496096623e-38
0.0427491212623 0.0245281843308 0.372 2.26804878827e-38
0.0437946775068 0.0243303763927 0.369 2.2496096623e-38
0.0453074372624 0.0243963123721 0.37 2.22169887974e-38
0.0464490716483 0.0242644404133 0.368 2.26779641441e-38
0.0475756349532 0.0241325684545 0.366 2.24013772546e-38
0.0497571739283 0.0245281843308 0.372 1.87135548626e-38
0.0511587844615 0.0245281843308 0.372 1.19829221567e-38
0.0521365208415 0.0243303763927 0.369 7.64937722849e-39
0.0541070646825 0.0245941203102 0.373 6.72706920394e-39
0.0555124429859 0.0245941203102 0.373 6.72671327413e-39
0.0566126318991 0.0244622483515 0.371 8.94262717342e-39
0.0586359245236 0.024725992269 0.375 1.364532036e-38
0.0606893593102 0.0249897361865 0.379 1.58594532089e-38
0.0619534462292 0.0249238002071 0.378 1.90880855084e-38
0.0622040029509 0.0244622483515 0.371 1.96419739498e-38
0.0644590134458 0.0247919282484 0.376 1.78895409189e-38
0.0665765003266 0.0250556721659 0.38 1.63200684219e-38
0.0671134075873 0.024725992269 0.375 4.33321141916e-39
0.0690745320027 0.0249238002071 0.378 8.38695487908e-39
0.07031224453 0.0248578642278 0.377 4.8842271987e-39
0.0715424215168 0.0247919282484 0.376 2.18496482141e-38
0.0735412236347 0.0249897361865 0.379 2.21273042944e-38
0.0751670164978 0.0250556721659 0.38 2.24964469476e-38
0.0763971934845 0.0249897361865 0.379 2.23131332864e-38
0.0780305218881 0.0250556721659 0.38 2.22220096498e-38
0.0794622745833 0.0250556721659 0.38 2.22223641783e-38
0.0819584223743 0.0253853520628 0.385 2.22220096498e-38
0.0829757203419 0.0252534801041 0.383 2.23134892162e-38
0.0846391909075 0.0253194160835 0.384 2.23131346877e-38
0.0867585616735 0.0255172240216 0.387 2.24964497502e-38
0.0889005390609 0.0257150319598 0.39 2.24964469476e-38
0.089443097977 0.0254512880422 0.386 2.23131332864e-38
0.0920748854969 0.0257809679391 0.391 2.23134864136e-38
0.0930695768431 0.0256490959804 0.389 2.22220068472e-38
0.0940491971082 0.0255172240216 0.387 2.13018484145e-38
0.096000902098 0.0256490959804 0.389 2.08408702652e-38
0.0974665647254 0.0256490959804 0.389 2.04720877458e-38
0.0994408763367 0.0257809679391 0.391 2.0287696486e-38
0.100139797718 0.025583160001 0.388 2.0287696486e-38
0.105529593062 0.0265721996917 0.403 2.01033052263e-38
0.123251300435 0.0305942944342 0.464 2.00111095964e-38
0.126615919269 0.0309899103105 0.47 1.99189139666e-38
0.128659934629 0.0310558462899 0.471 2.11117090285e-38
-0.153770239464 0.0317849098333 0.456 1.97835008908e-38
-0.14138181088 0.029554389845 0.424 1.9690563974e-38
-0.136487477325 0.0288573523487 0.414 1.95065398545e-38
-0.138838565961 0.0296937973443 0.426 1.71195414257e-38
-0.132723474845 0.0287179448494 0.412 1.39067494041e-38
-0.128942517398 0.028230018602 0.405 1.17059457061e-38
-0.124899699919 0.0276723886049 0.397 1.09737896793e-38
-0.119673802582 0.0268359436093 0.385 1.09748658765e-38
-0.11791613776 0.0267662398597 0.384 1.16191478779e-38
-0.113132953427 0.0259994986137 0.373 1.21708769184e-38
-0.110529424184 0.0257206836151 0.369 1.20783281613e-38
-0.108547577032 0.0255812761159 0.367 1.20783281613e-38
-0.107748809739 0.0257206836151 0.369 1.20786840911e-38
-0.104340861547 0.0252327573677 0.362 1.2170879721e-38
-0.100985662139 0.0247448311203 0.355 1.23552681781e-38
-0.0985253081658 0.0244660161217 0.351 1.21708769184e-38
-0.0963720274676 0.0242569048728 0.348 1.23552653755e-38
-0.0947876800773 0.0241872011232 0.347 1.0695744038e-38
-0.0937496593733 0.0242569048728 0.348 8.57561309263e-39
-0.0924384753261 0.0242569048728 0.348 1.00507403678e-38
-0.0895561310845 0.023838682375 0.342 1.15262263755e-38
-0.088525645921 0.0239083861246 0.343 1.26325697299e-38
-0.087233300725 0.0239083861246 0.343 1.24481784702e-38
-0.0846881719208 0.0235598673765 0.338 1.25403741001e-38
-0.0834146655761 0.0235598673765 0.338 1.25403741001e-38
-0.0806830321445 0.0231416448787 0.332 1.23559828403e-38
-0.0799106392432 0.0232810523779 0.334 1.3000270447e-38
-0.0788876896201 0.0233507561276 0.335 1.3000270447e-38
-0.0771620508454 0.0232113486283 0.333 1.31850176365e-38
-0.075907383352 0.0232113486283 0.333 1.35527183536e-38
-0.0742043511987 0.023071941129 0.331 1.34605255263e-38
-0.0725163901265 0.0229325336298 0.329 1.38293080457e-38
-0.0712767937141 0.0229325336298 0.329 1.41058977379e-38
-0.0700371973017 0.0229325336298 0.329 1.38285947848e-38
-0.0685884896404 0.0228628298801 0.328 1.16184220053e-38
-0.0677633479555 0.0230022373794 0.33 1.46608749882e-38
-0.067124710898 0.0232113486283 0.333 1.06961013691e-38
-0.0664634672191 0.0234204598772 0.336 1.6412227618e-38
-0.0644213357433 0.0231416448787 0.332 8.29900938746e-39
-0.0633607084178 0.0232113486283 0.333 1.49367318013e-38
-0.0624790501791 0.0233507561276 0.335 1.53055115182e-38
-0.0612168471452 0.0233507561276 0.335 1.52133158883e-38
-0.0595967059375 0.0232113486283 0.333 1.54877391731e-38
-0.0578164344941 0.0230022373794 0.33 1.55799348029e-38
-0.0569159374043 0.0231416448787 0.332 1.55799348029e-38
-0.0558327034572 0.0232113486283 0.333 1.56721304328e-38
-0.0544141379579 0.0231416448787 0.332 1.58565188899e-38
-0.0530031079991 0.023071941129 0.331 1.59487145198e-38
-0.0517559760462 0.023071941129 0.331 1.60409101497e-38
-0.050203654703 0.0229325336298 0.329 1.60409101497e-38
-0.0492617121403 0.023071941129 0.331 1.60419891495e-38
-0.048594816806 0.0233507561276 0.335 1.62263804092e-38
-0.0471913223877 0.0232810523779 0.334 1.65029644962e-38
-0.0457953635099 0.0232113486283 0.333 1.6687713087e-38
-0.0449419635481 0.0234204598772 0.336 1.67799087169e-38
-0.0441959450385 0.0236992748757 0.34 1.67795513858e-38
-0.0431673437601 0.023838682375 0.342 1.66873585585e-38
-0.042368576467 0.0241174973735 0.346 1.65951629287e-38
-0.052339980435 0.0307393535888 0.441 1.70536299511e-38
-0.0555049074454 0.0336669110735 0.483 1.69621531874e-38
-0.0432973318338 0.0340851335713 0.489 1.69650328557e-38
-0.0399289452298 0.0328304660779 0.471 1.68721169584e-38
-0.0343469936037 0.029554389845 0.424 1.60423562897e-38
-0.0298916052825 0.0269753511086 0.387 1.61345519195e-38
-0.0276252914768 0.0262086098626 0.376 1.62267475494e-38
-0.0255115723662 0.0255115723662 0.366 1.65029785092e-38
-0.0231435287638 0.0244660161217 0.351 1.54888265807e-38
-0.0215723685693 0.0241872011232 0.347 1.57664952727e-38
-0.0196809479036 0.0234901636268 0.337 1.00510920938e-38
-0.0185204746664 0.0236295711261 0.339 7.65400571732e-39
-0.0172940654499 0.0236992748757 0.34 1.15255047068e-38
-0.0160130235647 0.0236992748757 0.34 1.26286096605e-38
-0.0147319816795 0.0236992748757 0.34 1.40965356629e-38
-0.0136091861449 0.0239780898743 0.344 1.49172873838e-38
-0.0123130731787 0.0239780898743 0.344 1.7213527915e-38
-0.0109849341654 0.0239083861246 0.343 1.84988619249e-38
-0.00972084724633 0.0239780898743 0.344 1.33575469047e-38
-0.00842473428015 0.0239780898743 0.344 5.98515173201e-39
-0.00719078952311 0.0241872011232 0.347 5.71182706524e-39
-0.0059003282123 0.0242569048728 0.348 5.25265238705e-39
-0.00453639538162 0.0239780898743 0.344 5.71433819209e-39
-0.00326854069232 0.0241872011232 0.347 5.89908117773e-39
-0.00196112441539 0.0241872011232 0.347 5.80760581528e-39
-0.000653708138464 0.0241872011232 0.347 5.71577592431e-39
0.000655592023589 0.0242569048728 0.348 5.71612624893e-39
0.00197807938152 0.0243963123721 0.35 5.90015737495e-39
0.00328737954357 0.0243266086224 0.349 5.80760581528e-39
0.00461551855688 0.0243963123721 0.35 5.52994272847e-39
0.00598510304294 0.024605423621 0.353 6.17531213751e-39
0.00737729415051 0.0248145348699 0.356 7.74371404241e-39
0.00859616782655 0.0244660161217 0.351 5.16295246975e-39
0.0100599465689 0.0248145348699 0.356 1.25386028588e-38
0.0113372206838 0.0246751273706 0.354 1.20808448934e-38
0.0126710113525 0.0246751273706 0.354 1.38318429947e-38
0.0141234867841 0.0248842386195 0.357 1.9640167676e-38
0.0157718862687 0.025372164867 0.364 2.22216453122e-38
0.0169549661273 0.0250933498684 0.36 2.23134864136e-38
0.0184639581126 0.0253024611173 0.363 2.24968014761e-38
0.0196131280391 0.0250236461188 0.359 2.24964469476e-38
0.020965757559 0.0250236461188 0.359 2.24964497502e-38
0.0220697142424 0.0247448311203 0.355 2.18528936213e-38
0.0236710165989 0.0250236461188 0.359 2.22205887332e-38
0.0250236461188 0.0250236461188 0.359 2.26804766723e-38
0.0265232186785 0.0251630536181 0.361 2.2955974753e-38
0.0278061444488 0.0250933498684 0.36 2.30474501154e-38
0.0292435487994 0.0251630536181 0.361 2.2955974753e-38
0.0308580383517 0.025372164867 0.364 2.25882782398e-38
0.0319638789202 0.0251630536181 0.361 2.24042513177e-38
0.0336009750941 0.025372164867 0.364 2.25875775906e-38
0.0348763653239 0.0253024611173 0.363 2.25875775906e-38
0.0366434495714 0.0255812761159 0.367 2.25875761893e-38
0.0380262212533 0.0255812761159 0.367 2.25879293165e-38
0.0395163743874 0.0256509798655 0.368 2.24953707503e-38
0.0411252122844 0.0257903873648 0.37 2.25875635776e-38
0.0425192872771 0.0257903873648 0.37 2.28641490659e-38
0.0441507317955 0.025929794864 0.372 2.24957224763e-38
0.0453074372624 0.0257903873648 0.37 2.23070236251e-38
0.0464490716483 0.0256509798655 0.368 1.24424569686e-38
0.0475756349532 0.0255115723662 0.366 8.20182233247e-39
0.0496234180844 0.0258600911144 0.371 7.55790046474e-39
0.0506086900049 0.0256509798655 0.368 5.80727090494e-39
0.0519952294571 0.0256509798655 0.368 9.86496602654e-39
0.0542521238372 0.0260692023633 0.374 1.33698475027e-38
0.0556612699108 0.0260692023633 0.374 6.91651494723e-39
0.0570704159845 0.0260692023633 0.374 1.65040827324e-38
0.0586359245236 0.0261389061129 0.375 2.03773781864e-38
0.0606893593102 0.0264177211115 0.379 2.06546811395e-38
0.0614617522115 0.0261389061129 0.375 1.11603249257e-38
0.0627070002793 0.0260692023633 0.374 2.2223437573e-38
0.0646304469922 0.0262783136122 0.377 1.49389094191e-38
0.0660508963766 0.0262783136122 0.377 2.2219860058e-38
0.0671134075873 0.0261389061129 0.375 1.03255588188e-38
0.069440005717 0.0264874248611 0.38 8.570990209e-39
0.0704987491574 0.0263480173618 0.378 5.89802179609e-39
0.0713521491191 0.0261389061129 0.375 2.12042816076e-38
0.0735412236347 0.0264177211115 0.379 2.24035352542e-38
0.0751670164978 0.0264874248611 0.38 2.24964497502e-38
0.0763971934845 0.0264177211115 0.379 2.23131346877e-38
0.0776198349308 0.0263480173618 0.378 2.22216565226e-38
0.0794622745833 0.0264874248611 0.38 2.22220068472e-38
0.0813197853168 0.0266268323604 0.382 2.23131332864e-38
0.0827590735525 0.0266268323604 0.382 2.24964469476e-38
0.0848596054672 0.0268359436093 0.385 2.25879265139e-38
0.0863101970136 0.0268359436093 0.385 2.25879293165e-38
0.0882166887604 0.0269753511086 0.387 2.25879265139e-38
0.0889796622361 0.0267662398597 0.384 2.25882824437e-38
0.0908974572936 0.0269056473589 0.386 2.24968014761e-38
0.0925910700213 0.0269753511086 0.387 2.23134864136e-38
0.093806175927 0.0269056473589 0.386 2.15784339028e-38
0.0957541131466 0.0270450548582 0.388 2.10252601236e-38
0.0972160080038 0.0270450548582 0.388 2.06564776042e-38
0.0989322273529 0.0271147586078 0.389 2.05642819743e-38
0.099881705456 0.0269753511086 0.387 2.02876950847e-38
0.104744012964 0.0278814998538 0.4 2.01954994549e-38
0.123251300435 0.0323425398304 0.464 2.00111081951e-38
0.126615919269 0.0327607623282 0.47 1.99189125653e-38
0.128113607943 0.0326910585786 0.469 1.83566301308e-38
-0.152084162277 0.0331356554681 0.451 2.01504771365e-38
-0.140048020212 0.0308580383517 0.42 1.97809547315e-38
-0.136157797428 0.0303437377125 0.413 1.93228716648e-38
-0.138512653835 0.0312253959511 0.425 1.68436776061e-38
-0.132079186132 0.0301233231529 0.41 1.35390430818e-38
-0.127350634467 0.029388607954 0.4 1.17063016359e-38
-0.124270482288 0.0290212503546 0.395 1.10656223728e-38
-0.119984643628 0.0283600066756 0.386 1.11585368688e-38
-0.116073698108 0.0277722345165 0.378 1.18939383029e-38
-0.113436258932 0.027478348437 0.374 1.24456687447e-38
-0.109930348714 0.0269640477978 0.367 1.20786812885e-38
-0.107068727209 0.0265966901984 0.362 1.20786812885e-38
-0.106872803156 0.0268905762779 0.366 1.20786812885e-38
-0.104052627123 0.0265232186785 0.361 1.21708769184e-38
-0.100132262178 0.0258619749995 0.352 1.2170879721e-38
-0.0976832115148 0.02556808892 0.348 1.22630753509e-38
-0.0958181652408 0.0254211458802 0.346 1.20786840911e-38
-0.0939681900478 0.0252742028404 0.344 1.06035540133e-38
-0.0918638903629 0.0250537882808 0.341 1.03276831872e-38
-0.0905790807075 0.0250537882808 0.341 9.9589006678e-39
-0.0890324110196 0.0249803167609 0.34 1.11574410534e-38
-0.0874932768723 0.024906845241 0.339 1.25403741001e-38
-0.0867246517412 0.0250537882808 0.341 1.22637872105e-38
-0.0856903988074 0.0251272598007 0.342 1.23559828403e-38
-0.0844018213818 0.0251272598007 0.342 1.25403755014e-38
-0.0826272015938 0.0249803167609 0.34 1.27247695637e-38
-0.0808676528868 0.0248333737211 0.338 1.26314879275e-38
-0.0793586609015 0.0247599022013 0.337 1.30917458094e-38
-0.0773937687158 0.0245394876416 0.334 1.3644916786e-38
-0.0761353334521 0.0245394876416 0.334 1.34605283289e-38
-0.0746527158586 0.0244660161217 0.333 1.34605283289e-38
-0.0733980483651 0.0244660161217 0.333 1.37360418238e-38
-0.0725766744505 0.0246129591615 0.335 1.31828708473e-38
-0.07046295534 0.0243190730819 0.331 1.15233523123e-38
-0.0683793783915 0.0240251870024 0.327 8.94366273299e-39
-0.0679686914341 0.0243190730819 0.331 1.10645181497e-38
-0.0673262866064 0.0245394876416 0.334 1.09723169146e-38
-0.0660678513428 0.0245394876416 0.334 1.11570655054e-38
-0.0644213357433 0.0243925446018 0.332 1.35530728821e-38
-0.0631704360201 0.0243925446018 0.332 1.52125942196e-38
-0.0624790501791 0.0246129591615 0.335 1.56735737702e-38
-0.0606686365738 0.0243925446018 0.332 1.47516174716e-38
-0.0595967059375 0.0244660161217 0.333 1.53044269132e-38
-0.0583420384441 0.0244660161217 0.333 1.53044269132e-38
-0.0570873709507 0.0244660161217 0.333 1.54888181729e-38
-0.0558327034572 0.0244660161217 0.333 1.55810138028e-38
-0.0544141379579 0.0243925446018 0.332 1.55810110002e-38
-0.0536436289417 0.0246129591615 0.335 1.57654022599e-38
-0.0515996135808 0.0242456015621 0.33 1.58575978897e-38
-0.0503562493981 0.0242456015621 0.33 1.59497935196e-38
-0.0494105390652 0.0243925446018 0.332 1.63178529691e-38
-0.048594816806 0.0246129591615 0.335 1.65022428275e-38
-0.0478977793097 0.024906845241 0.339 1.66866340872e-38
-0.0460704107382 0.0246129591615 0.335 1.67788269145e-38
-0.0460120102993 0.0252742028404 0.344 1.68710225443e-38
-0.0443259331122 0.0250537882808 0.341 1.68710253469e-38
-0.0430411234567 0.0250537882808 0.341 1.68710253469e-38
-0.042368576467 0.0254211458802 0.346 1.68710267482e-38
-0.0528147194866 0.0326948263488 0.445 1.69614357226e-38
-0.0555049074454 0.0354867441045 0.483 1.69614357226e-38
-0.0426775336276 0.0354132725846 0.482 1.1341113447e-38
-0.0393355214154 0.0340907852267 0.464 1.10641622198e-38
-0.0338609512414 0.0307110953119 0.418 1.5304435321e-38
-0.0298143659923 0.0283600066756 0.386 1.62260286833e-38
-0.0278457060364 0.0278457060364 0.379 1.58572461638e-38
-0.0256509798655 0.0270375193177 0.368 1.5027851234e-38
-0.0232754007226 0.0259354465194 0.353 1.67802954753e-38
-0.0218210414059 0.0257885034796 0.351 9.31281239264e-39
-0.0196809479036 0.0247599022013 0.337 9.86958610758e-39
-0.0184112093291 0.0247599022013 0.337 1.34648555385e-38
-0.0173449303482 0.0250537882808 0.341 1.19872045248e-38
-0.0161072178209 0.0251272598007 0.342 1.30888717463e-38
-0.0147753110374 0.0250537882808 0.341 1.45560718761e-38
-0.0136091861449 0.0252742028404 0.344 1.51917106686e-38
-0.0123488669961 0.0253476743603 0.345 1.77648968217e-38
-0.0109849341654 0.0252007313206 0.343 1.85899673446e-38
-0.00966433069257 0.0251272598007 0.342 1.35422940943e-38
-0.00844922478678 0.0253476743603 0.345 6.07734736187e-39
-0.00714934405035 0.0253476743603 0.345 5.61962863278e-39
-0.0058325083478 0.0252742028404 0.344 5.34520534802e-39
-0.00451002098987 0.0251272598007 0.342 5.62214116093e-39
-0.00324028241544 0.0252742028404 0.344 5.89835950902e-39
-0.00194982110464 0.0253476743603 0.345 5.89907837513e-39
-0.000651824253339 0.0254211458802 0.346 5.71612905153e-39
0.000655592023589 0.02556808892 0.348 5.62428654888e-39
0.00198938269227 0.0258619749995 0.352 5.5313748555e-39
0.00327796011795 0.02556808892 0.348 5.34662766596e-39
0.004602331361 0.0256415604399 0.349 5.2544320361e-39
0.00591728317843 0.0256415604399 0.349 6.72956211391e-39
0.00727368046862 0.0257885034796 0.351 8.20541105784e-39
0.00857167731992 0.0257150319598 0.35 5.071475706e-39
0.00997517173824 0.0259354465194 0.353 1.22638110326e-38
0.0111770904481 0.0256415604399 0.349 1.23570744519e-38
0.012527836083 0.0257150319598 0.35 1.39247574906e-38
0.0139256788459 0.0258619749995 0.352 2.06550384707e-38
0.0154252514056 0.0261558610791 0.356 2.20368967214e-38
0.0167665776148 0.0261558610791 0.356 2.23134864136e-38
0.018107903824 0.0261558610791 0.356 2.23134892162e-38
0.0193399646959 0.0260089180393 0.354 2.23131332864e-38
0.0210241579979 0.0264497471586 0.36 2.24964469476e-38
0.0222562188698 0.0263028041188 0.358 2.23127871656e-38
0.0237369525782 0.0264497471586 0.36 2.26801109334e-38
0.0251630536181 0.0265232186785 0.361 2.33236516479e-38
0.0265966901984 0.0265966901984 0.362 2.32296259223e-38
0.0278061444488 0.0264497471586 0.36 2.2676789856e-38
0.0289195205578 0.026229332599 0.357 2.26785807155e-38
0.0309428131823 0.026817104758 0.365 2.27736532111e-38
0.0322295067229 0.0267436332381 0.364 2.29587675408e-38
0.0338779062075 0.0269640477978 0.367 2.25903885953e-38
0.035164599748 0.0268905762779 0.366 2.25903913979e-38
0.0366434495714 0.0269640477978 0.367 2.28651846255e-38
0.0381298349352 0.0270375193177 0.368 2.31396219232e-38
0.0395163743874 0.0270375193177 0.368 2.33225838585e-38
0.0407917646172 0.0269640477978 0.367 2.19374998187e-38
0.0422894532918 0.0270375193177 0.368 1.8524469253e-38
0.0439133622697 0.0271844623575 0.37 1.34537138144e-38
0.0451849847293 0.0271109908376 0.369 1.0050064942e-38
0.0463228513449 0.0269640477978 0.367 7.19199621233e-39
0.0478356111005 0.0270375193177 0.368 7.19234653695e-39
0.0490883947088 0.0269640477978 0.367 1.70583523269e-38
0.0503336427766 0.0268905762779 0.366 9.03697659903e-39
0.0515713553039 0.026817104758 0.365 2.31425436305e-38
0.0542521238372 0.027478348437 0.374 8.39198554057e-39
0.0556612699108 0.027478348437 0.374 7.19308782384e-39
0.0567652265942 0.0273314053972 0.372 1.22638138352e-38
0.0584795620582 0.027478348437 0.374 2.16681282149e-38
0.0603690988389 0.0276987629967 0.377 1.9364672398e-38
0.0609700581938 0.0273314053972 0.372 1.15287557192e-38
0.062371668727 0.0273314053972 0.372 2.04713674783e-38
0.0639447128066 0.0274048769171 0.373 9.86779524814e-39
0.0660508963766 0.0276987629967 0.377 2.01915618062e-38
0.0672923766742 0.0276252914768 0.376 5.71506406469e-39
0.0690745320027 0.0277722345165 0.378 8.57134613881e-39
0.0699392352752 0.0275518199569 0.375 8.11071691281e-39
0.0711618767215 0.027478348437 0.374 1.96369530974e-38
0.0731531432989 0.0276987629967 0.377 2.28645134035e-38
0.0745735926833 0.0276987629967 0.377 2.24964469476e-38
0.0759940420677 0.0276987629967 0.377 2.23131346877e-38
0.0778251784095 0.0278457060364 0.379 2.22220124524e-38
0.0792531633344 0.0278457060364 0.379 2.22220068472e-38
0.0811069062977 0.0279926490762 0.381 2.22220124524e-38
0.0827590735525 0.0280661205961 0.382 2.23131332864e-38
0.0848596054672 0.0282865351557 0.385 2.24964469476e-38
0.0856376500239 0.0280661205961 0.382 2.24964497502e-38
0.0875328384599 0.0282130636358 0.384 2.24964497502e-38
0.0889796622361 0.0282130636358 0.384 2.24968042787e-38
0.0911329429343 0.0284334781955 0.387 2.23134864136e-38
0.0928303234322 0.0285069497154 0.388 2.22220068472e-38
0.0935631547459 0.0282865351557 0.385 2.15784311002e-38
0.0952605352437 0.0283600066756 0.386 2.12096485808e-38
0.0969654512821 0.0284334781955 0.387 2.08408660613e-38
0.098677902861 0.0285069497154 0.388 2.06564748016e-38
0.0996236131938 0.0283600066756 0.386 2.0379887912e-38
0.104482152932 0.0293151364341 0.399 2.01954966523e-38
0.122985672632 0.0340173137068 0.463 1.99189097627e-38
0.126346523696 0.0344581428261 0.469 1.98267141328e-38
0.1278404446 0.0343846713062 0.468 2.03762879762e-38
-0.15039808509 0.0344487234004 0.446 1.92328228242e-38
-0.139714572544 0.0323632625668 0.419 2.0244093683e-38
-0.135828117531 0.0318225875358 0.412 1.91391992712e-38
-0.137209005328 0.0325177411471 0.421 1.60178742042e-38
-0.130790608706 0.031359151795 0.406 1.28061583798e-38
-0.126077128123 0.0305867588937 0.396 1.13403973835e-38
-0.122382829392 0.0300460838627 0.389 1.13414819885e-38
-0.118741279445 0.0295054088318 0.382 1.17091855082e-38
-0.115459551557 0.029041973091 0.376 1.18939383029e-38
-0.112829647922 0.0287330159304 0.372 1.16195122155e-38
-0.110229886449 0.0284240587699 0.368 1.19864884613e-38
-0.107068727209 0.0279606230291 0.362 1.19864884613e-38
-0.105120789989 0.0278061444488 0.36 1.18939369016e-38
-0.103187923851 0.0276516658685 0.358 1.18939369016e-38
-0.0998477955237 0.0271109908376 0.351 1.20783281613e-38
-0.0985253081658 0.0271109908376 0.351 1.2170879721e-38
-0.0966489585811 0.0269565122573 0.349 1.22630725483e-38
-0.0950608434205 0.0268792729672 0.348 1.22630697457e-38
-0.0934802638004 0.026802033677 0.347 1.13418323131e-38
-0.0921728475234 0.026802033677 0.347 1.03276831872e-38
-0.0898179911169 0.0264930765165 0.343 9.68124178488e-39
-0.0877513691345 0.0262613586461 0.34 1.01422213355e-38
-0.0859616782655 0.0261068800658 0.338 9.86563444591e-39
-0.0859409555291 0.0264930765165 0.343 1.18939369016e-38
-0.0834146655761 0.0261068800658 0.338 1.25389405717e-38
-0.0816551168691 0.0259524014855 0.336 1.0879775164e-38
-0.0806283994759 0.0260296407757 0.337 1.27240394872e-38
-0.0791231752608 0.0259524014855 0.336 1.31846645093e-38
-0.0776254865862 0.0258751621954 0.335 1.30921143509e-38
-0.0761353334521 0.0257979229053 0.334 1.27233346341e-38
-0.0742043511987 0.0255662050349 0.331 1.16169898783e-38
-0.0731776338055 0.025643444325 0.332 1.05106395173e-38
-0.0714934405035 0.0254889657447 0.33 1.14325930134e-38
-0.0700371973017 0.0254117264546 0.329 1.24471008717e-38
-0.0679611558936 0.025102769294 0.325 1.01418359784e-38
-0.0679686914341 0.0255662050349 0.331 1.33686830236e-38
-0.0673262866064 0.0257979229053 0.334 1.50282043612e-38
-0.0658700434046 0.0257206836151 0.333 1.46594218417e-38
-0.0638392152396 0.0254117264546 0.329 1.50282029599e-38
-0.0629801636225 0.0255662050349 0.331 1.52125942196e-38
-0.0622925455517 0.0257979229053 0.334 1.52125942196e-38
-0.0610341102881 0.0257979229053 0.334 1.53969854793e-38
-0.0601336131982 0.0259524014855 0.336 1.56717759043e-38
-0.0579916358108 0.0255662050349 0.331 1.56717759043e-38
-0.0565730703115 0.0254889657447 0.33 1.57643288653e-38
-0.0560003692334 0.0257979229053 0.334 1.58565244951e-38
-0.0549058319756 0.0258751621954 0.335 1.58565244951e-38
-0.0536436289417 0.0258751621954 0.335 1.59487173224e-38
-0.0525377883732 0.0259524014855 0.336 1.60409129523e-38
-0.0509666281787 0.0257979229053 0.334 1.61331085821e-38
-0.0495593659901 0.0257206836151 0.333 1.67773961887e-38
-0.0491750534246 0.0261841193559 0.339 1.6685919425e-38
-0.0473326137721 0.0258751621954 0.335 1.65937237951e-38
-0.045932887124 0.0257979229053 0.334 1.6501888299e-38
-0.0461457661432 0.0266475550968 0.345 1.65944398586e-38
-0.0439359688912 0.0261068800658 0.338 1.66859166224e-38
-0.0429149031534 0.0262613586461 0.34 1.67781122523e-38
-0.042368576467 0.0267247943869 0.346 1.69617846459e-38
-0.0522212956721 0.0339852876596 0.44 1.75160458327e-38
-0.055964575416 0.037615534296 0.487 1.68699575575e-38
-0.0455090129708 0.0380789700368 0.493 1.09780804552e-38
-0.0422348206231 0.0368431413947 0.477 1.38340023956e-38
-0.0383182234477 0.0349121591413 0.452 1.41098704191e-38
-0.0334559159394 0.031899826826 0.413 8.9451172808e-39
-0.0295826481219 0.0295826481219 0.383 1.44761348052e-38
-0.0273314053972 0.0287330159304 0.372 1.62278517726e-38
-0.0254418686166 0.0281923408995 0.365 1.53066157414e-38
-0.0230775927844 0.0270337515474 0.35 5.9966549911e-39
-0.0217588731967 0.0270337515474 0.35 9.22422090243e-39
-0.0197393483424 0.0261068800658 0.338 1.74296277564e-38
-0.0183565766605 0.0259524014855 0.336 1.19900855944e-38
-0.0172940654499 0.0262613586461 0.34 1.18960878947e-38
-0.0160130235647 0.0262613586461 0.34 1.25367769669e-38
-0.0146453229637 0.0261068800658 0.338 1.45571564811e-38
-0.0134509397943 0.0262613586461 0.34 1.47314639971e-38
-0.0122056917265 0.0263385979362 0.341 1.79485832283e-38
-0.0109208820711 0.0263385979362 0.341 1.89569716163e-38
-0.00960781413881 0.0262613586461 0.34 1.65761178812e-38
-0.00835126276026 0.0263385979362 0.341 6.26065962178e-39
-0.00708717584122 0.0264158372264 0.342 5.25300691556e-39
-0.00573077855103 0.0261068800658 0.338 5.52780014311e-39
-0.00445727220636 0.0261068800658 0.338 5.80437442102e-39
-0.00322144356419 0.0264158372264 0.342 5.34769825799e-39
-0.00196112441539 0.026802033677 0.347 5.34949332132e-39
-0.000657475908715 0.0269565122573 0.349 5.99234880092e-39
0.00066312756409 0.0271882301277 0.352 5.808313471e-39
0.00196112441539 0.026802033677 0.347 5.43917502174e-39
0.00322144356419 0.0264158372264 0.342 5.34698359577e-39
0.004602331361 0.0269565122573 0.349 5.25443483869e-39
0.00595119311069 0.0271109908376 0.351 7.46712995541e-39
0.00727368046862 0.0271109908376 0.351 8.38943938126e-39
0.0086451488398 0.0272654694178 0.353 5.62356628147e-39
0.00997517173824 0.0272654694178 0.353 1.23542003887e-38
0.0111770904481 0.0269565122573 0.349 1.2357431783e-38
0.0124920422656 0.0269565122573 0.349 1.37403634283e-38
0.0140048020212 0.027342708708 0.354 2.08394269278e-38
0.0153385926898 0.027342708708 0.354 2.20379729186e-38
0.0167665776148 0.0274971872883 0.356 2.22220096498e-38
0.0183113634175 0.0278061444488 0.36 2.24968042787e-38
0.0195584953704 0.0276516658685 0.358 2.25879293165e-38
0.0210241579979 0.0278061444488 0.36 2.26794088829e-38
0.0223805552881 0.0278061444488 0.36 2.27723317866e-38
0.023868824537 0.0279606230291 0.362 2.28634287985e-38
0.0250933498684 0.0278061444488 0.36 2.33232887116e-38
0.0264497471586 0.0278061444488 0.36 2.24924013989e-38
0.0278061444488 0.0278061444488 0.36 2.20299448797e-38
0.0290005276182 0.0276516658685 0.358 2.32270307175e-38
0.0308580383517 0.0281151016093 0.364 2.27653337021e-38
0.0318753363193 0.0278061444488 0.36 2.3505429486e-38
0.0336932854652 0.0281923408995 0.365 2.35093783451e-38
0.0348763653239 0.0280378623192 0.363 2.35072385623e-38
0.0362440659248 0.0280378623192 0.363 2.35033135253e-38
0.0378189938895 0.0281923408995 0.365 2.26674754251e-38
0.039194230031 0.0281923408995 0.365 1.79648144685e-38
0.04045831695 0.0281151016093 0.364 1.474123385e-38
0.0418297853212 0.0281151016093 0.364 1.1796747044e-38
0.043675992744 0.0284240587699 0.368 7.65406597315e-39
0.0446951745967 0.0281923408995 0.365 1.58608881385e-38
0.0464490716483 0.0284240587699 0.368 1.21734132686e-38
0.0475756349532 0.0282695801896 0.366 1.98260022732e-38
0.048820883021 0.0281923408995 0.365 2.10238209901e-38
0.0503336427766 0.0282695801896 0.366 9.22242864169e-39
0.0517126466883 0.0282695801896 0.366 2.15759381902e-38
0.0541070646825 0.0288102552206 0.373 1.72420401348e-38
0.0555124429859 0.0288102552206 0.373 7.83737823306e-39
0.0566126318991 0.0286557766403 0.371 8.20577819803e-39
0.0586359245236 0.0289647338008 0.375 2.2312784363e-38
0.0603690988389 0.0291192123811 0.377 1.54910210141e-38
0.0611339561997 0.0288102552206 0.373 1.42017157243e-38
0.0628746660555 0.0289647338008 0.375 2.2499322412e-38
0.0642875798994 0.0289647338008 0.375 1.36485433464e-38
0.06587569506 0.029041973091 0.376 2.21301881667e-38
0.0672923766742 0.029041973091 0.376 2.09305687812e-38
0.0687090582884 0.029041973091 0.376 1.35502478644e-38
0.0699392352752 0.0289647338008 0.375 1.2259507645e-38
0.0711618767215 0.0288874945107 0.374 1.70547495886e-38
0.0731531432989 0.0291192123811 0.377 2.25875621763e-38
0.0747714006214 0.0291964516712 0.378 2.24046030436e-38
0.0761956177761 0.0291964516712 0.378 2.22212907837e-38
0.0780305218881 0.0293509302515 0.38 2.20383414601e-38
0.0796713858322 0.0294281695416 0.381 2.20383414601e-38
0.0813197853168 0.0295054088318 0.382 2.22220124524e-38
0.0827590735525 0.0295054088318 0.382 2.21298168226e-38
0.0846391909075 0.029659887412 0.384 2.19461458302e-38
0.0863101970136 0.0297371267022 0.385 2.19465017601e-38
0.0877607885601 0.0297371267022 0.385 2.18546662639e-38
0.089443097977 0.0298143659923 0.386 2.17628265638e-38
0.090661971653 0.0297371267022 0.385 2.15787954378e-38
0.0935480836649 0.030200562443 0.391 2.1486599808e-38
0.0945352394705 0.0300460838627 0.389 2.17613804238e-38
0.0955073241952 0.0298916052825 0.387 2.10245426588e-38
0.0974665647254 0.0300460838627 0.389 2.04724534847e-38
0.0991865518448 0.0301233231529 0.39 2.05635757199e-38
0.099881705456 0.0298916052825 0.387 2.06543308149e-38
