VERSION .7
FIELDS x y z rgb
SIZE 4 4 4 4
TYPE F F F F
COUNT 1 1 1 1
WIDTH 856
HEIGHT 1
VIEWPOINT 0 0 0 1 0 0 0
POINTS 856
DATA ascii
-0.0407484352593 0.0621116925797 0.21 2.34645087683e-38
-0.0401474759044 0.0624074625444 0.211 2.34663052329e-38
-0.0393524763815 0.0624074625444 0.211 2.34673912392e-38
-0.0389229505729 0.0629990024737 0.213 2.34645143735e-38
-0.0379414464227 0.0627032325091 0.212 2.34648717046e-38
-0.0371426791296 0.0627032325091 0.212 2.3465230437e-38
-0.0366867789293 0.0632947724384 0.214 2.34659521057e-38
-0.0353774787672 0.0624074625444 0.211 2.34673898379e-38
-0.0352380712679 0.063590542403 0.215 2.34709869711e-38
-0.0342678704284 0.0632947724384 0.214 2.34709869711e-38
-0.0336179300602 0.063590542403 0.215 2.34713457035e-38
-0.0326552647612 0.0632947724384 0.214 2.34720645696e-38
-0.0317001350027 0.0629990024737 0.213 2.34717086398e-38
-0.0311877182486 0.063590542403 0.215 2.34724289072e-38
-0.0306602304136 0.0641820823324 0.217 2.34727890409e-38
-0.0295675770409 0.063590542403 0.215 2.34724289072e-38
-0.0286237505932 0.0632947724384 0.214 2.34709883724e-38
-0.0280774239068 0.0638863123677 0.216 2.34713471048e-38
-0.0272635855327 0.0638863123677 0.216 2.34717058372e-38
-0.0263272946255 0.063590542403 0.215 2.34720659709e-38
-0.0255172240216 0.063590542403 0.215 2.346990657e-38
-0.0247071534177 0.063590542403 0.215 2.346990657e-38
-0.0238970828139 0.063590542403 0.215 2.34688289714e-38
-0.0234091565664 0.064477852297 0.218 2.34681101053e-38
-0.0221733279243 0.0632947724384 0.214 2.34684744429e-38
-0.0216665628256 0.0641820823324 0.217 2.34673954431e-38
-0.0208489566812 0.0641820823324 0.217 2.3466676577e-38
-0.0199390401657 0.0638863123677 0.216 2.34670367107e-38
-0.0190366591907 0.063590542403 0.215 2.34677527742e-38
-0.0183113634175 0.0638863123677 0.216 2.34677527742e-38
-0.0174975250434 0.0638863123677 0.216 2.34670339081e-38
-0.0166064473791 0.063590542403 0.215 2.34659563096e-38
-0.0160167913349 0.064477852297 0.218 2.34652374435e-38
-0.0151257136707 0.0641820823324 0.217 2.34645185774e-38
-0.0145059154645 0.0650693922264 0.22 2.34634395775e-38
-0.0136148378002 0.0647736222617 0.219 2.34630808451e-38
-0.0128480965543 0.0650693922264 0.22 2.34627123036e-38
-0.0119645544305 0.0647736222617 0.219 2.34619920362e-38
-0.0110376829489 0.0641820823324 0.217 2.34616305012e-38
-0.010408465317 0.065365162191 0.221 2.34623493673e-38
-0.00948912937592 0.0647736222617 0.219 2.34623493673e-38
-0.00866398769106 0.0647736222617 0.219 2.34634283672e-38
-0.00791043364095 0.065365162191 0.221 2.34641486346e-38
-0.0069816782742 0.064477852297 0.218 2.34641486346e-38
-0.00618856263647 0.0647736222617 0.219 2.34609102338e-38
-0.00536342095161 0.0647736222617 0.219 2.3459831234e-38
-0.00453827926674 0.0647736222617 0.219 2.34583935018e-38
-0.00378095744639 0.0659567021204 0.223 2.34573187059e-38
-0.00291437028877 0.065365162191 0.221 2.34569571709e-38
-0.00208169306341 0.065365162191 0.221 2.34576746357e-38
-0.0012603191488 0.0659567021204 0.223 2.3457314502e-38
-0.000418222497807 0.0656609321557 0.222 2.34544306297e-38
0.000418222497807 0.0656609321557 0.222 2.34583752849e-38
0.0012603191488 0.0659567021204 0.223 2.3458732616e-38
0.00210995134029 0.066252472085 0.224 2.34605332845e-38
0.00296711907228 0.0665482420497 0.225 2.34576564188e-38
0.00381486737865 0.0665482420497 0.225 2.34551382854e-38
0.00462117021226 0.0659567021204 0.223 2.3452624356e-38
0.00555934500463 0.067139781979 0.227 2.34508264901e-38
0.00632985402086 0.066252472085 0.224 2.34504649551e-38
0.00723788665124 0.0668440120144 0.226 2.34501118279e-38
0.00819678417999 0.0677313219084 0.229 2.34497544967e-38
0.00909916515499 0.068027091873 0.23 2.34497530954e-38
0.00983576423897 0.067139781979 0.227 2.34504733629e-38
0.010738145214 0.0674355519437 0.228 2.34497502928e-38
0.0116480617295 0.0677313219084 0.229 2.30824083082e-38
0.0124562484482 0.0674355519437 0.228 2.22555273078e-38
0.0133737005042 0.0677313219084 0.229 2.19796592843e-38
0.0141743516824 0.0674355519437 0.228 1.84009574051e-38
0.0149015313408 0.0668440120144 0.226 1.84956725696e-38
0.0158924549167 0.0674355519437 0.228 1.81301298522e-38
0.016604563494 0.0668440120144 0.226 1.70248683001e-38
0.017687797441 0.0677313219084 0.229 1.6840479843e-38
0.0186316238888 0.068027091873 0.23 1.67500820791e-38
0.0197525355383 0.068914401767 0.233 1.63834575593e-38
0.0206304260067 0.068914401767 0.233 1.60168330394e-38
0.0216006268462 0.0692101717317 0.234 1.47322220995e-38
0.0220979725193 0.068027091873 0.23 1.22573286259e-38
0.0231642515002 0.0686186318024 0.232 1.05160457268e-38
0.0238311468345 0.068027091873 0.23 1.08833919154e-38
0.0246977339921 0.068027091873 0.23 1.12496591041e-38
0.0255643211497 0.068027091873 0.23 1.11592613401e-38
0.0266607422926 0.0686186318024 0.232 1.11596214738e-38
0.0276535497536 0.068914401767 0.233 1.14340489625e-38
0.028531440222 0.068914401767 0.233 1.15269634585e-38
0.0291568900836 0.0683228618377 0.231 1.15269634585e-38
0.0301572330851 0.0686186318024 0.232 1.16191590883e-38
0.0311651116271 0.068914401767 0.233 1.16191590883e-38
0.0323180493238 0.0695059416964 0.235 1.17113547182e-38
0.033344766717 0.069801711661 0.236 1.17113547182e-38
0.0336537238776 0.0686186318024 0.232 1.17113547182e-38
0.0348255004255 0.0692101717317 0.234 1.17113547182e-38
0.0358597533593 0.0695059416964 0.235 1.18017538834e-38
0.0369015418335 0.069801711661 0.236 1.17095582536e-38
0.0379508658483 0.0700974816257 0.237 1.1432971364e-38
0.0385160313859 0.0695059416964 0.235 1.12485801042e-38
0.039736788947 0.0700974816257 0.237 1.09719932147e-38
0.04045831695 0.069801711661 0.236 1.07876019549e-38
0.0413475107291 0.069801711661 0.236 1.05110150653e-38
0.042773611769 0.070689021555 0.239 1.02344281757e-38
0.0436741088588 0.070689021555 0.239 1.01415164824e-38
0.0445746059487 0.070689021555 0.239 1.00493208525e-38
0.0449042858456 0.069801711661 0.236 9.95712522264e-39
0.0465696402964 0.0709847915197 0.24 9.95712522264e-39
0.0472760972183 0.070689021555 0.239 1.00500397186e-38
0.0479750185998 0.0703932515904 0.238 1.00500397186e-38
0.0490770913981 0.070689021555 0.239 1.01422353485e-38
0.0503958109857 0.0712805614843 0.241 1.02344309783e-38
0.0513038436161 0.0712805614843 0.241 1.00511159158e-38
0.0526451698253 0.0718721014137 0.243 1.00511159158e-38
0.0535607379962 0.0718721014137 0.243 9.95892028597e-39
0.0542521238372 0.071576331449 0.242 9.95892028597e-39
0.0551639242378 0.071576331449 0.242 9.95892028597e-39
0.0565391603792 0.0721678713783 0.244 1.00511159158e-38
0.0572230106797 0.0718721014137 0.243 1.01433115457e-38
0.0578993254396 0.071576331449 0.242 9.95892028597e-39
0.058325083478 0.0709847915197 0.24 1.0142589877e-38
0.0594761372895 0.0712805614843 0.241 1.00511159158e-38
0.0606347266415 0.071576331449 0.242 9.13025263001e-39
0.0618008515341 0.0718721014137 0.243 4.61269479267e-39
0.0634906964914 0.0727594113077 0.246 3.23122750422e-39
0.0649412880379 0.073350951237 0.248 2.67807614581e-39
0.0664069506653 0.0739424911663 0.25 2.03379694697e-39
0.0660019153634 0.072463641343 0.245 1.94268031693e-39
0.0674713457611 0.0730551812723 0.247 2.03593252583e-39
0.068401985013 0.0730551812723 0.247 2.40363604547e-39
0.0701747209158 0.0739424911663 0.25 2.95536788853e-39
0.0711166634785 0.0739424911663 0.25 3.50817873141e-39
0.0726350748894 0.0745340310957 0.252 3.50997239344e-39
0.0741685573814 0.075125571025 0.254 3.42172982655e-39
0.0736467212017 0.0736467212017 0.249 4.71498677797e-39
0.074584895994 0.0736467212017 0.249 6.10079528907e-39
0.0761296817968 0.074238261131 0.251 6.09900022574e-39
0.0770753921296 0.074238261131 0.251 3.88526534556e-39
0.0795753076909 0.0757171109543 0.256 2.59454894825e-39
0.0795960304272 0.0748298010603 0.253 3.887779275e-39
0.0821411592315 0.0763086508837 0.258 5.36396312926e-39
0.0818246665304 0.075125571025 0.254 5.45615875913e-39
0.0821298559207 0.0745340310957 0.252 5.2717674994e-39
0.0830793340238 0.0745340310957 0.252 4.62674981627e-39
0.0843622597941 0.0748298010603 0.253 3.15379735627e-39
0.0863271519798 0.0757171109543 0.256 2.78538057572e-39
0.0866097347486 0.075125571025 0.254 2.32584856642e-39
0.0879114993701 0.0754213409897 0.255 1.86740256342e-39
0.088872280784 0.0754213409897 0.255 1.31567912815e-39
0.089128489161 0.0748298010603 0.253 1.04053697728e-39
0.0911498979004 0.0757171109543 0.256 1.0419803147e-39
0.0924742691435 0.076012880919 0.257 1.31893014059e-39
0.0927154064395 0.0754213409897 0.255 1.22638839001e-39
0.0925741150551 0.0745340310957 0.252 1.13418995755e-39
0.0953792200066 0.076012880919 0.257 1.22602265111e-39
0.0959726438211 0.0757171109543 0.256 1.77811462787e-39
0.0973158539154 0.076012880919 0.257 1.87066758885e-39
0.0979017421894 0.0757171109543 0.256 1.68699659653e-39
0.0980938984721 0.075125571025 0.254 1.59551983278e-39
0.100220804779 0.076012880919 0.257 1.59551983278e-39
0.101189121733 0.076012880919 0.257 1.87173818087e-39
0.102554938449 0.0763086508837 0.258 2.24015215883e-39
0.103125755642 0.076012880919 0.257 2.97735145884e-39
0.106119249106 0.0774917307423 0.262 3.43653174222e-39
0.105879995695 0.0766044208483 0.259 3.4354625515e-39
0.107268419032 0.076900190813 0.26 3.6187790153e-39
0.107831700685 0.0766044208483 0.259 3.89536590489e-39
0.110908085094 0.0780832706717 0.264 4.35634265291e-39
0.109783405674 0.0766044208483 0.259 4.44817534647e-39
0.112897467786 0.0780832706717 0.264 4.44744947386e-39
0.112597930051 0.0771959607777 0.261 4.90806048298e-39
0.112710963159 0.0766044208483 0.259 5.46014685456e-39
0.113686815654 0.0766044208483 0.259 5.08992239898e-39
0.115990807162 0.0774917307423 0.262 3.24313573857e-39
0.116085001418 0.076900190813 0.26 3.0565920844e-39
0.118865615863 0.0780832706717 0.264 3.51613390279e-39
0.12076833984 0.078674810601 0.266 5.63043544654e-39
0.119939430385 0.0774917307423 0.262 1.04235151866e-38
0.12092658619 0.0774917307423 0.262 1.25432775905e-38
0.122844381248 0.0780832706717 0.264 1.26343900166e-38
0.12430815999 0.0783790406363 0.265 1.27255066467e-38
0.126252329439 0.0789705805656 0.267 1.2725508048e-38
0.125351832349 0.077787500707 0.263 1.26343900166e-38
0.129225100167 0.079562120495 0.269 1.2634387214e-38
0.130722788842 0.0798578904596 0.27 1.27258625765e-38
0.130764234314 0.0792663505303 0.268 1.27258625765e-38
0.131773996741 0.0792663505303 0.268 1.27255066467e-38
0.133279220957 0.079562120495 0.269 1.27255066467e-38
0.133793521596 0.0792663505303 0.268 1.27255066467e-38
0.13580927868 0.0798578904596 0.27 1.27255066467e-38
0.136826576647 0.0798578904596 0.27 1.2725508048e-38
0.138864940353 0.080449430389 0.272 1.2725508048e-38
0.1404040745 0.0807452003536 0.273 1.28169834104e-38
0.141950744188 0.0810409703183 0.274 1.27247877806e-38
0.140895768518 0.0798578904596 0.27 1.26325921507e-38
0.144541086235 0.081336740283 0.275 1.26325921507e-38
0.145577223054 0.081336740283 0.275 1.27247877806e-38
0.147146499364 0.0816325102476 0.276 1.27247877806e-38
0.150870940256 0.083111360071 0.281 1.27247877806e-38
0.151929683697 0.083111360071 0.281 1.27247877806e-38
0.150810655932 0.0819282802123 0.277 1.24482022923e-38
0.152950749434 0.0825198201416 0.279 1.25403979221e-38
0.156761849043 0.083998669965 0.284 1.2632593552e-38
0.158943388018 0.0845902098943 0.286 1.27247891819e-38
0.160580484192 0.084885979859 0.287 1.25403979221e-38
0.164478242516 0.0863648296823 0.292 1.25403979221e-38
0.166712530274 0.0869563696116 0.294 1.25403979221e-38
0.174099243851 0.0902098392229 0.305 1.25403979221e-38
0.170077149108 0.0875479095409 0.296 1.25404007247e-38
0.171192409102 0.0875479095409 0.296 1.25404007247e-38
0.171143428089 0.0869563696116 0.294 1.26325963546e-38
0.174594705639 0.0881394494703 0.298 1.25404007247e-38
0.178665781394 0.0896182992936 0.303 1.24482050949e-38
0.182774534852 0.0910971491169 0.308 1.24482050949e-38
0.185726582844 0.0919844590109 0.311 1.24482050949e-38
-0.104239131751 0.0635019998022 0.212 8.57347471118e-39
-0.103928290705 0.0638015375371 0.213 8.29688782159e-39
-0.10167328021 0.0629029243323 0.21 8.29688782159e-39
-0.100401657751 0.0626033865974 0.209 8.48164482021e-39
-0.0986609478948 0.0620043111276 0.207 8.0206666709e-39
-0.0983538746194 0.0623038488625 0.208 8.29689342678e-39
-0.0975701784073 0.0623038488625 0.208 8.57240131655e-39
-0.0972518018211 0.0626033865974 0.209 9.6780300088e-39
-0.0973874415502 0.0632024620672 0.211 1.00457335284e-38
-0.0961346579419 0.0629029243323 0.21 9.67695241028e-39
-0.0939813772437 0.0620043111276 0.207 9.39964665458e-39
-0.091850703167 0.0611056979228 0.204 9.1237814337e-39
-0.0910820780359 0.0611056979228 0.204 8.75499891425e-39
-0.0907561659093 0.0614052356578 0.205 8.66136835475e-39
-0.0913006087105 0.0623038488625 0.208 8.66029215753e-39
-0.0909520899623 0.0626033865974 0.209 7.64542276422e-39
-0.0910274453673 0.0632024620672 0.211 7.64362770089e-39
-0.089804803921 0.0629029243323 0.21 7.18193348806e-39
-0.0885896980152 0.0626033865974 0.209 7.08866166098e-39
-0.0878022340329 0.0626033865974 0.209 6.43899026565e-39
-0.0861820928251 0.0620043111276 0.207 5.97873238374e-39
-0.0858147352257 0.0623038488625 0.208 5.51810736164e-39
-0.0854398420858 0.0626033865974 0.209 5.33299022931e-39
-0.0850574134054 0.0629029243323 0.21 5.60813378148e-39
-0.0834636465894 0.0623038488625 0.208 6.34461701797e-39
-0.0834749499001 0.0629029243323 0.21 8.27856164027e-39
-0.0826837181475 0.0629029243323 0.21 9.38418752992e-39
-0.0822824506158 0.0632024620672 0.211 1.08528211881e-38
-0.0811012546423 0.0629029243323 0.21 1.19570079442e-38
-0.0795451655289 0.0623038488625 0.208 1.3244501355e-38
-0.0798974520473 0.0632024620672 0.211 1.48986220883e-38
-0.0776028799647 0.0620043111276 0.207 1.64616233889e-38
-0.0775652022622 0.0626033865974 0.209 1.72877841219e-38
-0.0771450958793 0.0629029243323 0.21 1.81146651223e-38
-0.07489950481 0.0617047733927 0.206 1.86671186341e-38
-0.0741233441384 0.0617047733927 0.206 1.96794614863e-38
-0.0740592920441 0.0623038488625 0.208 1.99553295098e-38
-0.0736278823504 0.0626033865974 0.209 2.05070613528e-38
-0.0724918996199 0.0623038488625 0.208 2.08744047388e-38
-0.0720529543857 0.0626033865974 0.209 2.17012871405e-38
-0.071606473611 0.0629029243323 0.21 2.24363312434e-38
-0.070478026421 0.0626033865974 0.209 2.28040319605e-38
-0.0690236671043 0.0620043111276 0.207 2.32635709763e-38
-0.0695624582501 0.0632024620672 0.211 2.28972995837e-38
-0.0690933708539 0.0635019998022 0.212 2.27132684577e-38
-0.0673281704916 0.0626033865974 0.209 2.24366815681e-38
-0.0668590830954 0.0629029243323 0.21 2.21600974811e-38
-0.0657532425268 0.0626033865974 0.209 2.1514728072e-38
-0.0646549374988 0.0623038488625 0.208 2.18835133941e-38
-0.0641783145621 0.0626033865974 0.209 2.20686249212e-38
-0.0624809340643 0.0617047733927 0.206 2.20686249212e-38
-0.0626033865974 0.0626033865974 0.209 2.28951401827e-38
-0.0629990024737 0.0638015375371 0.213 2.34472363634e-38
-0.0613204608271 0.0629029243323 0.21 2.34461601662e-38
-0.059664525802 0.0620043111276 0.207 2.34476049049e-38
-0.0600224639758 0.0632024620672 0.211 2.34494027708e-38
-0.0586660666856 0.0626033865974 0.209 2.34497615032e-38
-0.0573247404764 0.0620043111276 0.207 2.34515565666e-38
-0.0579106287504 0.0635019998022 0.212 2.34529942988e-38
-0.0571118614573 0.0635019998022 0.212 2.34522796366e-38
-0.0552505829535 0.0623038488625 0.208 2.3452999904e-38
-0.0544668867414 0.0623038488625 0.208 2.3453361439e-38
-0.0539412827915 0.0626033865974 0.209 2.3453722974e-38
-0.0536624677929 0.0632024620672 0.211 2.34530027066e-38
-0.0528674682701 0.0632024620672 0.211 2.34526439742e-38
-0.0518256797958 0.0629029243323 0.21 2.34526453755e-38
-0.0512774692244 0.0632024620672 0.211 2.34526467768e-38
-0.0507217231124 0.0635019998022 0.212 2.34555194386e-38
-0.0499229558193 0.0635019998022 0.212 2.34551593049e-38
-0.048429034915 0.0626033865974 0.209 2.34551593049e-38
-0.0480974711329 0.0632024620672 0.211 2.34555194386e-38
-0.0477508362699 0.0638015375371 0.213 2.34573159033e-38
-0.0465074720872 0.0632024620672 0.211 2.34591123679e-38
-0.0463624129326 0.064101075272 0.214 2.34612689662e-38
-0.0449174730415 0.0632024620672 0.211 2.34634269659e-38
-0.0441224735186 0.0632024620672 0.211 2.34659521057e-38
-0.0441488479104 0.0644006130069 0.215 2.34655947746e-38
-0.0427340501813 0.0635019998022 0.212 2.3465591972e-38
-0.0415396670119 0.0629029243323 0.21 2.34691905064e-38
-0.0407484352593 0.0629029243323 0.21 2.34738652381e-38
-0.0395766587114 0.0623038488625 0.208 2.34738610342e-38
-0.0393524763815 0.0632024620672 0.211 2.34724275059e-38
-0.0394711611444 0.0647001507418 0.216 2.34713513087e-38
-0.0381204155096 0.0638015375371 0.213 2.34709827672e-38
-0.0371426791296 0.0635019998022 0.212 2.3472061767e-38
-0.0363439118365 0.0635019998022 0.212 2.3472784837e-38
-0.0353774787672 0.0632024620672 0.211 2.3473146372e-38
-0.035074173262 0.064101075272 0.214 2.34727862383e-38
-0.0345881308997 0.0647001507418 0.216 2.34727876396e-38
-0.0336179300602 0.0644006130069 0.215 2.34717114424e-38
-0.0326552647612 0.064101075272 0.214 2.34709925763e-38
-0.0318489619276 0.064101075272 0.214 2.34688387805e-38
-0.0313327774033 0.0647001507418 0.216 2.34695590479e-38
-0.0306602304136 0.0649996884767 0.217 2.3469916379e-38
-0.0299801478833 0.0652992262117 0.218 2.34691975129e-38
-0.0284899947493 0.0638015375371 0.213 2.34684744429e-38
-0.0276874596859 0.0638015375371 0.213 2.34684744429e-38
-0.0271373652293 0.0644006130069 0.215 2.34684744429e-38
-0.0263272946255 0.0644006130069 0.215 2.34684716403e-38
-0.0257545935474 0.0649996884767 0.217 2.34684674364e-38
-0.0251668213883 0.0655987639466 0.219 2.34681115066e-38
-0.0241193812587 0.0649996884767 0.217 2.34681115066e-38
-0.0234091565664 0.0652992262117 0.218 2.34681115066e-38
-0.0222769416062 0.0644006130069 0.215 2.34681143092e-38
-0.0216665628256 0.0649996884767 0.217 2.34677555768e-38
-0.0209450348226 0.0652992262117 0.218 2.34677555768e-38
-0.0200313505369 0.0649996884767 0.217 2.34673968444e-38
-0.0192137443925 0.0649996884767 0.217 2.34677527742e-38
-0.0183961382481 0.0649996884767 0.217 2.34670339081e-38
-0.0176595391642 0.0652992262117 0.218 2.34659549083e-38
-0.0167609259594 0.0649996884767 0.217 2.34652360422e-38
-0.015943319815 0.0649996884767 0.217 2.34645185774e-38
-0.0148468986722 0.0638015375371 0.213 2.34634395775e-38
-0.0143740435057 0.0652992262117 0.218 2.34627207114e-38
-0.0136770060094 0.0658983016815 0.22 2.3462361979e-38
-0.0127896961154 0.0655987639466 0.219 2.34630724373e-38
-0.0119645544305 0.0655987639466 0.219 2.34637913035e-38
-0.0110885478473 0.0652992262117 0.218 2.34637913035e-38
-0.0103142710608 0.0655987639466 0.219 2.34641514372e-38
-0.00944580001804 0.0652992262117 0.218 2.34641528385e-38
-0.00866398769106 0.0655987639466 0.219 2.34634325711e-38
-0.00780305218881 0.0652992262117 0.218 2.34616347051e-38
-0.00701370432133 0.0655987639466 0.219 2.34605557053e-38
-0.00621682091335 0.0658983016815 0.22 2.34598298327e-38
-0.00538791145823 0.0658983016815 0.22 2.34583949031e-38
-0.00455900200312 0.0658983016815 0.22 2.34569557696e-38
-0.00376400248026 0.0664973771513 0.222 2.34562383047e-38
-0.0029011830929 0.0658983016815 0.22 2.34565970371e-38
-0.00207227363778 0.0658983016815 0.22 2.34558767697e-38
-0.00124336418267 0.0658983016815 0.22 2.34565928333e-38
-0.000420106382932 0.0667969148862 0.223 2.34569501644e-38
0.000418222497807 0.0664973771513 0.222 2.34598284314e-38
0.00127727411492 0.067695528091 0.226 2.34594626925e-38
0.00211937076591 0.0673959903561 0.225 2.34598158197e-38
0.00296711907228 0.0673959903561 0.225 2.23552675286e-38
0.00381486737865 0.0673959903561 0.225 2.1618065426e-38
0.00462117021226 0.0667969148862 0.223 2.18939362521e-38
0.00551036399138 0.0673959903561 0.225 2.17095463936e-38
0.00630159574398 0.0667969148862 0.223 2.13411240079e-38
0.00723788665124 0.067695528091 0.226 2.06993573372e-38
0.00808940272785 0.067695528091 0.226 2.07915557696e-38
0.00894091880447 0.067695528091 0.226 2.05156877462e-38
0.00970577616532 0.0670964526212 0.224 1.9963237037e-38
0.0106439509577 0.067695528091 0.226 1.95958950524e-38
0.0116480617295 0.0685941412957 0.229 1.90448792728e-38
0.0124016157796 0.0679950658259 0.227 1.84931474298e-38
0.0134321009431 0.0688936790306 0.23 1.83094750361e-38
0.0142365198916 0.0685941412957 0.229 1.75787609454e-38
0.0150334032996 0.0682946035608 0.228 1.67504422128e-38
0.0160318624159 0.0688936790306 0.23 1.60143177087e-38
0.0166780350139 0.0679950658259 0.227 1.64745755906e-38
0.017687797441 0.0685941412957 0.229 1.69341160077e-38
0.0187126309492 0.0691932167656 0.231 1.71188645985e-38
0.0196677607077 0.0694927545005 0.232 1.65667670166e-38
0.0208075112085 0.0703913677052 0.235 1.62919751903e-38
0.0217852475885 0.0706909054401 0.236 1.45471105724e-38
0.0220979725193 0.0688936790306 0.23 1.19800228702e-38
0.0230644055885 0.0691932167656 0.231 1.04231298296e-38
0.0240383741983 0.0694927545005 0.232 1.05146093959e-38
0.0250198783485 0.0697922922354 0.233 1.11574634742e-38
0.0257866195945 0.0694927545005 0.232 1.07908389544e-38
0.0267756592853 0.0697922922354 0.233 1.06993621906e-38
0.0276535497536 0.0697922922354 0.233 1.1158180939e-38
0.028531440222 0.0697922922354 0.233 1.13425721987e-38
0.0291568900836 0.0691932167656 0.231 1.13425721987e-38
0.0301572330851 0.0694927545005 0.232 1.14347678286e-38
0.0310313557832 0.0694927545005 0.232 1.15269634585e-38
0.0320430020955 0.0697922922354 0.233 1.16191590883e-38
0.0332034753327 0.0703913677052 0.235 1.16191590883e-38
0.0333636055683 0.0688936790306 0.23 1.16191590883e-38
0.0345278465757 0.0694927545005 0.232 1.16191590883e-38
0.0354019692738 0.0694927545005 0.232 1.16173626237e-38
0.0365888169027 0.0700918299703 0.234 1.15251669938e-38
0.0373103449057 0.0697922922354 0.233 1.13407757341e-38
0.0380243373682 0.0694927545005 0.232 1.11563844744e-38
0.0392337916186 0.0700918299703 0.234 1.08797975848e-38
0.0399440163108 0.0697922922354 0.233 1.06954063251e-38
0.0409971080958 0.0700918299703 0.234 1.04188194355e-38
0.0420577354214 0.0703913677052 0.235 1.01422325459e-38
0.0431258982874 0.0706909054401 0.236 1.01411563487e-38
0.0443881013213 0.07128998091 0.238 9.95712522264e-39
0.0450945582433 0.0709904431751 0.237 9.86492959278e-39
0.0465696402964 0.0718890563798 0.24 1.00493208525e-38
0.0472760972183 0.0715895186449 0.239 1.00500397186e-38
0.0481765943082 0.0715895186449 0.239 1.00500397186e-38
0.0490770913981 0.0715895186449 0.239 1.00500397186e-38
0.0506049222347 0.0724881318496 0.242 9.77453182885e-39
0.0515167226353 0.0724881318496 0.242 9.77452902625e-39
0.0526451698253 0.0727876695846 0.243 9.86672465611e-39
0.0531199088769 0.0721885941147 0.241 9.86672465611e-39
0.0544763061671 0.0727876695846 0.243 9.77452902625e-39
0.0549359741376 0.0721885941147 0.241 9.86672465611e-39
0.055844006768 0.0721885941147 0.241 9.86672465611e-39
0.056987525039 0.0724881318496 0.242 9.86672465611e-39
0.0581385788506 0.0727876695846 0.243 9.95892028597e-39
0.0590541470214 0.0727876695846 0.243 1.02347827043e-38
0.0597229262409 0.0724881318496 0.242 1.02355071756e-38
0.0613863968065 0.0733867450544 0.245 9.22244825987e-39
0.0623095005179 0.0733867450544 0.245 4.61377098989e-39
0.0640068810157 0.0742853582591 0.248 3.41598170024e-39
0.0649412880379 0.0742853582591 0.248 2.95574483782e-39
0.0653444394547 0.0736862827893 0.246 2.21927000911e-39
0.0657325197905 0.0730872073195 0.244 1.75937085962e-39
0.0674713457611 0.0739858205242 0.247 2.12562964053e-39
0.0681250538995 0.0736862827893 0.246 2.67736148359e-39
0.0696133231485 0.0742853582591 0.248 3.32129035782e-39
0.0716855967863 0.0754835091988 0.252 3.59822757202e-39
0.0720586060411 0.074884433729 0.25 3.69221686392e-39
0.0727085464093 0.074584895994 0.249 3.69544825818e-39
0.073350951237 0.0742853582591 0.248 4.71391058075e-39
0.0739858205242 0.0739858205242 0.247 6.28339148547e-39
0.0761296817968 0.0751839714639 0.251 6.09827435314e-39
0.0764612455788 0.074584895994 0.249 3.9760190393e-39
0.0777102614169 0.074884433729 0.25 2.68566557829e-39
0.0789668127954 0.0751839714639 0.251 3.70159855714e-39
0.0795941465421 0.074884433729 0.25 4.90191719052e-39
0.0811803778176 0.0754835091988 0.252 5.27069970997e-39
0.0824557680474 0.0757830469337 0.253 5.54656773345e-39
0.0837386938177 0.0760825846686 0.254 5.54691945936e-39
0.0850291551285 0.0763821224035 0.255 4.81043762417e-39
0.0856527211049 0.0760825846686 0.254 3.98176576431e-39
0.0855867851256 0.0751839714639 0.251 2.87687135245e-39
0.0872219974143 0.0757830469337 0.253 2.049281295e-39
0.0878267245395 0.0754835091988 0.252 1.77450208043e-39
0.089128489161 0.0757830469337 0.253 1.5904779609e-39
0.0904377893231 0.0760825846686 0.254 1.40680696859e-39
0.0913948029667 0.0760825846686 0.254 1.68339385818e-39
0.091624636952 0.0754835091988 0.252 1.5915793815e-39
0.0929414726546 0.0757830469337 0.253 1.68341207506e-39
0.0942658438976 0.0760825846686 0.254 1.77524336732e-39
0.0959726438211 0.0766816601385 0.256 1.77523776213e-39
0.096558532095 0.0763821224035 0.255 1.8677907231e-39
0.0975193135089 0.0763821224035 0.255 1.8677907231e-39
0.0988662913735 0.0766816601385 0.256 1.77595522694e-39
0.100220804779 0.0769811978734 0.257 1.77667409305e-39
0.101189121733 0.0769811978734 0.257 2.14437481009e-39
0.102554938449 0.0772807356083 0.258 2.51243005564e-39
0.10272448811 0.0766816601385 0.256 3.1577896556e-39
0.103689037294 0.0766816601385 0.256 3.80136119871e-39
0.104244783406 0.0763821224035 0.255 4.17014652076e-39
0.104380423135 0.0757830469337 0.253 4.44601454424e-39
0.106166346234 0.0763821224035 0.255 4.8151501909e-39
0.107967340414 0.0769811978734 0.257 5.00025611285e-39
0.108935657368 0.0769811978734 0.257 4.72403356086e-39
0.111186900093 0.0778798110781 0.26 4.72367202585e-39
0.11130370097 0.0772807356083 0.258 5.09208880641e-39
0.112275785695 0.0772807356083 0.258 5.55162361831e-39
0.11324787042 0.0772807356083 0.258 5.27287592648e-39
0.115990807162 0.078478886548 0.262 3.33424956601e-39
0.115192039869 0.0772807356083 0.258 3.51648282611e-39
0.115713876049 0.0769811978734 0.257 3.79235365218e-39
0.118044241949 0.0778798110781 0.26 6.09141079326e-39
0.118108294043 0.0772807356083 0.258 1.07922949035e-38
0.118618826912 0.0769811978734 0.257 1.26354732204e-38
0.120052463492 0.0772807356083 0.258 1.27265828439e-38
0.122431810405 0.078179348813 0.261 1.26336669466e-38
0.124360908774 0.0787784242829 0.263 1.27255066467e-38
0.125351832349 0.0787784242829 0.263 1.2634387214e-38
0.125862365218 0.078478886548 0.262 1.26347431439e-38
0.126849521024 0.078478886548 0.262 1.27258625765e-38
0.12783667683 0.078478886548 0.262 1.27258625765e-38
0.128823832635 0.078478886548 0.262 1.27255066467e-38
0.130306450229 0.0787784242829 0.263 1.27255066467e-38
0.130798144247 0.078478886548 0.262 1.26333110168e-38
0.131785300052 0.078478886548 0.262 1.26333110168e-38
0.133785986055 0.0790779620178 0.264 1.2725508048e-38
0.134780677401 0.0790779620178 0.264 1.2725508048e-38
0.135775368748 0.0790779620178 0.264 1.28169834104e-38
0.137806196913 0.0796770374876 0.266 1.26325921507e-38
0.136199242901 0.078179348813 0.261 1.25403965208e-38
0.140861858586 0.0802761129575 0.268 1.26325921507e-38
0.141342249293 0.0799765752225 0.267 1.27247877806e-38
0.14341452293 0.0805756506924 0.269 1.27247877806e-38
0.144964960389 0.0808751884273 0.27 1.27247877806e-38
0.146522933387 0.0811747261622 0.271 1.27247877806e-38
0.144277342318 0.0793774997527 0.265 1.24482022923e-38
0.146920433149 0.0802761129575 0.268 1.25403979221e-38
0.151242065626 0.0820733393669 0.274 1.2632593552e-38
0.151718688563 0.081773801632 0.273 1.2632593552e-38
0.153306803723 0.0820733393669 0.274 1.2632593552e-38
0.156029017729 0.0829719525717 0.277 1.2632593552e-38
0.156505640666 0.0826724148368 0.276 1.25403979221e-38
0.16039963122 0.0841701035114 0.281 1.25403979221e-38
0.158585449844 0.0826724148368 0.276 1.23560066624e-38
0.161360412634 0.0835710280415 0.279 1.24482022923e-38
0.160083138519 0.0823728771019 0.275 1.25403979221e-38
0.161705163612 0.0826724148368 0.276 1.25403979221e-38
0.165103692378 0.0838705657764 0.28 1.25403979221e-38
0.167345515677 0.0844696412463 0.282 1.24482022923e-38
0.166019260548 0.0832714903066 0.278 1.24482022923e-38
-0.122492094729 0.0767362928071 0.253 9.77632689218e-39
-0.120578067442 0.0761296817968 0.251 9.77524789236e-39
-0.115342750679 0.0733999322503 0.242 9.77452902625e-39
-0.114430950278 0.0733999322503 0.242 9.77345282903e-39
-0.103387615674 0.0679404331573 0.224 1.00471656555e-38
-0.100254714711 0.0664239056314 0.219 1.05992604348e-38
-0.0962514588196 0.0643007670953 0.212 1.05988974985e-38
-0.0950024429816 0.0639974615901 0.211 1.02301289921e-38
-0.09242152036 0.0627842395694 0.207 1.02301289921e-38
-0.0911988789137 0.0624809340643 0.206 9.95354210247e-39
-0.0913006087105 0.0630875450746 0.208 9.49256115056e-39
-0.0913872674262 0.0636941560849 0.21 9.03158159994e-39
-0.0910274453673 0.0639974615901 0.211 9.21597285967e-39
-0.0902324458444 0.0639974615901 0.211 8.93974189989e-39
-0.0877419497088 0.0627842395694 0.207 8.10998123112e-39
-0.0865419148841 0.0624809340643 0.206 7.83160488339e-39
-0.0857657542124 0.0624809340643 0.206 7.46282236393e-39
-0.0854021643833 0.0627842395694 0.207 7.18515927712e-39
-0.0846222359414 0.0627842395694 0.207 6.72418112781e-39
-0.0846523781034 0.0633908505798 0.209 6.17064721492e-39
-0.0834636465894 0.0630875450746 0.208 5.52492187607e-39
-0.0830774501387 0.0633908505798 0.209 5.06394372675e-39
-0.0822899861564 0.0633908505798 0.209 4.87883219961e-39
-0.081502522174 0.0633908505798 0.209 5.51773601754e-39
-0.0807150581916 0.0633908505798 0.209 5.60992884481e-39
-0.0806924515701 0.0639974615901 0.211 6.53044320732e-39
-0.0798974520473 0.0639974615901 0.211 7.7253822559e-39
-0.0787275593845 0.0636941560849 0.21 9.8415517305e-39
-0.0779363276319 0.0636941560849 0.21 1.35228889131e-38
-0.0778798110781 0.0643007670953 0.212 1.56383395216e-38
-0.0759902742975 0.0633908505798 0.209 1.71098640585e-38
-0.0748429882562 0.0630875450746 0.208 1.91298848403e-38
-0.0744153463328 0.0633908505798 0.209 1.96826984857e-38
-0.0729233093136 0.0627842395694 0.207 1.99578434392e-38
-0.0728404183681 0.0633908505798 0.209 2.0140436833e-38
-0.0717082034078 0.0630875450746 0.208 2.06914512113e-38
-0.0709245071957 0.0630875450746 0.208 2.14268582505e-38
-0.070478026421 0.0633908505798 0.209 2.22544609197e-38
-0.0686902194371 0.0624809340643 0.206 2.26221644393e-38
-0.0695624582501 0.0639974615901 0.211 2.33568371982e-38
-0.0687674587273 0.0639974615901 0.211 2.34490314267e-38
-0.067650314848 0.0636941560849 0.21 2.34490286241e-38
-0.0665407065092 0.0633908505798 0.209 2.34508278914e-38
-0.0657532425268 0.0633908505798 0.209 2.34515481588e-38
-0.0643440964532 0.0627842395694 0.207 2.3450107624e-38
-0.0641783145621 0.0633908505798 0.209 2.34497488916e-38
-0.0624809340643 0.0624809340643 0.206 2.34486684904e-38
-0.0617047733927 0.0624809340643 0.206 2.34486797008e-38
-0.0618159226151 0.0633908505798 0.209 2.34479608347e-38
-0.0607364564383 0.0630875450746 0.208 2.34457972299e-38
-0.059664525802 0.0627842395694 0.207 2.34465174973e-38
-0.0600224639758 0.0639974615901 0.211 2.34490370319e-38
-0.0572625722673 0.0618743230539 0.204 2.34493971656e-38
-0.0562170160228 0.0615710175488 0.203 2.34515565666e-38
-0.0576374654072 0.0639974615901 0.211 2.34537173688e-38
-0.0571118614573 0.0643007670953 0.212 2.34540761012e-38
-0.0555162107562 0.0633908505798 0.209 2.34544376362e-38
-0.0547287467738 0.0633908505798 0.209 2.34551579036e-38
-0.0541993750536 0.0636941560849 0.21 2.34548005725e-38
-0.0536624677929 0.0639974615901 0.211 2.34548019738e-38
-0.0531180249917 0.0643007670953 0.212 2.3454446044e-38
-0.0515788908444 0.0633908505798 0.209 2.3454807579e-38
-0.0507914268621 0.0633908505798 0.209 2.34555278464e-38
-0.0497647094688 0.0630875450746 0.208 2.34544488466e-38
-0.0496874701787 0.0639974615901 0.211 2.34537285792e-38
-0.0477338813038 0.0624809340643 0.206 2.34537271779e-38
-0.0476415709326 0.0633908505798 0.209 2.34537271779e-38
-0.0470782892802 0.0636941560849 0.21 2.34551649101e-38
-0.0458462284083 0.0630875450746 0.208 2.34576830435e-38
-0.0457124725644 0.0639974615901 0.211 2.34591207757e-38
-0.0451303520607 0.0643007670953 0.212 2.34594781068e-38
-0.0443315847675 0.0643007670953 0.212 2.34591277822e-38
-0.0441488479104 0.0652106836108 0.215 2.3462361979e-38
-0.0429356258897 0.0646040726004 0.213 2.34619948388e-38
-0.0417374749501 0.0639974615901 0.211 2.34698995635e-38
-0.0407484352593 0.0636941560849 0.21 2.34738540277e-38
-0.0395766587114 0.0630875450746 0.208 2.34699051687e-38
-0.0393524763815 0.0639974615901 0.211 2.34695422324e-38
-0.0389229505729 0.0646040726004 0.213 2.34702695063e-38
-0.0377624773358 0.0639974615901 0.211 2.34670297042e-38
-0.0371426791296 0.0643007670953 0.212 2.34666695705e-38
-0.0360010447437 0.0636941560849 0.21 2.34663094368e-38
-0.0352098129911 0.0636941560849 0.21 2.34663122394e-38
-0.0347463772502 0.0643007670953 0.212 2.34673954431e-38
-0.0339476099571 0.0643007670953 0.212 2.34681157105e-38
-0.0334615675948 0.0649073781056 0.214 2.34684744429e-38
-0.0325026700661 0.0646040726004 0.213 2.34684772455e-38
-0.0317001350027 0.0646040726004 0.213 2.34677569781e-38
-0.031042659094 0.0649073781056 0.214 2.34681157105e-38
-0.0306602304136 0.0658172946211 0.217 2.34681143092e-38
-0.0297051006551 0.0655139891159 0.216 2.34684730416e-38
-0.0284899947493 0.0646040726004 0.213 2.34684730416e-38
-0.0276874596859 0.0646040726004 0.213 2.34681143092e-38
-0.0272635855327 0.0655139891159 0.216 2.3468470239e-38
-0.0266946522249 0.0661206001263 0.218 2.34681115066e-38
-0.0257545935474 0.0658172946211 0.217 2.34684744429e-38
-0.0251668213883 0.0664239056314 0.219 2.34684744429e-38
-0.0238970828139 0.0652106836108 0.215 2.34681143092e-38
-0.02308701221 0.0652106836108 0.215 2.34677541755e-38
-0.0222769416062 0.0652106836108 0.215 2.34684744429e-38
-0.021267179179 0.0646040726004 0.213 2.34684744429e-38
-0.0207528785398 0.0655139891159 0.216 2.34684744429e-38
-0.0198467297946 0.0652106836108 0.215 2.34677555768e-38
-0.0192137443925 0.0658172946211 0.217 2.34695478376e-38
-0.0184809130788 0.0661206001263 0.218 2.34677513729e-38
-0.0176595391642 0.0661206001263 0.218 2.34663178446e-38
-0.0164519687989 0.0646040726004 0.213 2.34627221127e-38
-0.0160167913349 0.0661206001263 0.218 2.34638039151e-38
-0.0148468986722 0.0646040726004 0.213 2.34630752399e-38
-0.0141762355676 0.0652106836108 0.215 2.34630640296e-38
-0.0135526695911 0.0661206001263 0.218 2.34659352901e-38
-0.0127896961154 0.0664239056314 0.219 2.34663094368e-38
-0.0119099217619 0.0661206001263 0.218 2.34655863668e-38
-0.0110376829489 0.0658172946211 0.217 2.34648703033e-38
-0.0102200768045 0.0658172946211 0.217 2.34645101696e-38
-0.00940247066016 0.0658172946211 0.217 2.34609088325e-38
-0.00862442610343 0.0661206001263 0.218 2.3460192769e-38
-0.00780305218881 0.0661206001263 0.218 2.3459831234e-38
-0.0069816782742 0.0661206001263 0.218 2.3460192769e-38
-0.00621682091335 0.0667272111366 0.22 2.34601913677e-38
-0.00538791145823 0.0667272111366 0.22 2.34594781068e-38
-0.00462117021226 0.0676371276521 0.223 2.3456601241e-38
-0.00374704751414 0.0670305166418 0.221 2.34551607062e-38
-0.0029011830929 0.0667272111366 0.22 2.34562411073e-38
-0.00208169306341 0.0670305166418 0.221 2.34551579036e-38
-0.00124901583805 0.0670305166418 0.221 2.34555124321e-38
-0.000416338612682 0.0670305166418 0.221 2.34587452277e-38
0.000421990268058 0.0679404331573 0.224 2.34601871638e-38
0.0012603191488 0.0676371276521 0.223 2.34547851582e-38
0.00211937076591 0.0682437386624 0.225 2.34533446234e-38
0.00292755748465 0.0673338221469 0.222 2.34540676934e-38
0.00379791241252 0.0679404331573 0.224 2.22587671098e-38
0.00462117021226 0.0676371276521 0.223 2.18013916989e-38
0.00551036399138 0.0682437386624 0.225 2.14344112492e-38
0.00630159574398 0.0676371276521 0.223 2.09741533673e-38
0.00723788665124 0.0685470441676 0.226 2.03341789574e-38
0.00805360891047 0.0682437386624 0.225 2.02412644614e-38
0.00890135721684 0.0682437386624 0.225 2.0147629698e-38
0.00979243488109 0.0685470441676 0.226 1.97784912488e-38
0.0106439509577 0.0685470441676 0.226 1.90430870121e-38
0.0116989266278 0.0697602661883 0.23 1.84927957038e-38
0.0125655137855 0.0697602661883 0.23 1.78510290332e-38
0.0135489018208 0.0703668771986 0.232 1.76680797095e-38
0.0142365198916 0.0694569606831 0.229 1.7760278142e-38
0.0150993392789 0.0694569606831 0.229 1.73914956226e-38
0.0161015661656 0.0700635716934 0.231 1.70227131031e-38
0.0168984495736 0.0697602661883 0.23 1.68383218434e-38
0.0177650367312 0.0697602661883 0.23 1.75766057484e-38
0.0187126309492 0.0700635716934 0.231 1.72092623625e-38
0.019582985877 0.0700635716934 0.231 1.65656908194e-38
0.0205418834058 0.0703668771986 0.232 1.59214004101e-38
0.0214160061039 0.0703668771986 0.232 1.3718084184e-38
0.0220018943779 0.0694569606831 0.229 1.17956428208e-38
0.0229645596769 0.0697602661883 0.23 1.03305796712e-38
0.0239347605164 0.0700635716934 0.231 1.04216963012e-38
0.0250198783485 0.0706701827038 0.233 1.09716330809e-38
0.0254531719273 0.0694569606831 0.229 1.07893998209e-38
0.0265458253 0.0700635716934 0.231 1.06068050258e-38
0.0275348649908 0.0703668771986 0.232 1.1065266443e-38
0.0286538927552 0.0709734882089 0.234 1.09737910806e-38
0.0296617712972 0.0712767937141 0.235 1.10659867104e-38
0.0306771853797 0.0715800992193 0.236 1.10659867104e-38
0.031298867471 0.0709734882089 0.234 1.11581823403e-38
0.0319054784814 0.0703668771986 0.232 1.10659867104e-38
0.0329208925639 0.0706701827038 0.233 1.10659867104e-38
0.0333636055683 0.0697602661883 0.23 1.10659867104e-38
0.0348255004255 0.0709734882089 0.234 1.10659867104e-38
0.0357071586641 0.0709734882089 0.234 1.09737896793e-38
0.0369015418335 0.0715800992193 0.236 1.08815940494e-38
0.0377907356127 0.0715800992193 0.236 1.07893984196e-38
0.0381882353741 0.0706701827038 0.233 1.06050071598e-38
0.0399044547232 0.0721867102296 0.238 1.03277028054e-38
0.0401154498572 0.0709734882089 0.234 1.02355071756e-38
0.0413475107291 0.0715800992193 0.236 1.00511159158e-38
0.0424156735952 0.0718834047244 0.237 9.86672465611e-39
0.0436741088588 0.0724900157348 0.239 9.68053833305e-39
0.0443881013213 0.0721867102296 0.238 9.58834270319e-39
0.0452848306409 0.0721867102296 0.238 9.68053833305e-39
0.0463756001285 0.0724900157348 0.239 9.77273396292e-39
0.046880481342 0.0718834047244 0.237 9.77273396292e-39
0.0479750185998 0.0721867102296 0.238 9.77273396292e-39
0.0490770913981 0.0724900157348 0.239 9.77273396292e-39
0.0503958109857 0.0730966267451 0.241 9.77273396292e-39
0.0513038436161 0.0730966267451 0.241 9.77345282903e-39
0.0524285230359 0.0733999322503 0.242 9.77345282903e-39
0.0533403234365 0.0733999322503 0.242 9.77345282903e-39
0.0544763061671 0.0737032377554 0.243 9.86564845889e-39
0.0556198244381 0.0740065432606 0.244 1.00500397186e-38
0.05700259612 0.0746131542709 0.246 1.00500397186e-38
0.057693981961 0.0743098487658 0.245 9.95784408875e-39
0.0576600720287 0.0730966267451 0.241 1.00500397186e-38
0.0585681046591 0.0730966267451 0.241 1.01418682083e-38
0.0597229262409 0.0733999322503 0.242 1.00503914445e-38
0.0606347266415 0.0733999322503 0.242 9.49830507296e-39
0.0618008515341 0.0737032377554 0.243 5.81193863013e-39
0.0632326042293 0.0743098487658 0.245 3.41703547669e-39
0.0641557079406 0.0743098487658 0.245 3.04971030764e-39
0.065078811652 0.0743098487658 0.245 2.40722617213e-39
0.0654631242176 0.0737032377554 0.243 1.85549152648e-39
0.0671981824179 0.0746131542709 0.246 1.39561760035e-39
0.0678481227861 0.0743098487658 0.245 1.67039821622e-39
0.0696133231485 0.0752197652813 0.248 2.40507517899e-39
0.0708321968245 0.0755230707864 0.249 3.14083394418e-39
0.0714821371928 0.0752197652813 0.248 3.50996959084e-39
0.0727085464093 0.0755230707864 0.249 3.60432322034e-39
0.0730551812723 0.0749164597761 0.247 4.71283158093e-39
0.0736862827893 0.0746131542709 0.246 6.00537387014e-39
0.0749164597761 0.0749164597761 0.247 5.91137476916e-39
0.0752329524771 0.0743098487658 0.245 4.06713006415e-39
0.0773994203712 0.0755230707864 0.249 2.96081053176e-39
0.0783375951636 0.0755230707864 0.249 3.60797780674e-39
0.0802308997144 0.0764329873019 0.252 4.80901670753e-39
0.0808582334612 0.0761296817968 0.251 5.27105143588e-39
0.0824557680474 0.0767362928071 0.253 5.2717674994e-39
0.0834090139208 0.0767362928071 0.253 5.08630424635e-39
0.084028812127 0.0764329873019 0.252 5.36109467131e-39
0.0849782902301 0.0764329873019 0.252 4.99304082705e-39
0.0852458019179 0.0758263762916 0.25 4.34840149451e-39
0.0861877444805 0.0758263762916 0.25 3.52008276186e-39
0.0871296870431 0.0758263762916 0.25 3.06054514737e-39
0.0880716296058 0.0758263762916 0.25 2.5088189095e-39
0.0893696264571 0.0761296817968 0.251 2.2329663003e-39
0.0903153367899 0.0761296817968 0.251 2.32553187296e-39
0.091624636952 0.0764329873019 0.252 1.95855842983e-39
0.0929414726546 0.0767362928071 0.253 1.7741643675e-39
0.0931524677886 0.0761296817968 0.251 1.86635719477e-39
0.0944730712614 0.0764329873019 0.252 1.95890735314e-39
0.0954225493645 0.0764329873019 0.252 1.95890455055e-39
0.0963720274676 0.0764329873019 0.252 1.95926048036e-39
0.0980938984721 0.0770395983123 0.254 1.86706485049e-39
0.0990509121158 0.0770395983123 0.254 1.77486922063e-39
0.100795389742 0.0776462093226 0.256 2.23619629326e-39
0.101362439164 0.0773429038174 0.255 2.78936726985e-39
0.10272448811 0.0776462093226 0.256 3.43437374259e-39
0.10287896669 0.0770395983123 0.254 4.26340994005e-39
0.104244783406 0.0773429038174 0.255 4.90770034928e-39
0.104792993978 0.0770395983123 0.254 5.18320543645e-39
0.106166346234 0.0773429038174 0.255 5.36688063267e-39
0.107547234031 0.0776462093226 0.256 5.45799726271e-39
0.107240160755 0.0767362928071 0.253 5.54911389276e-39
0.109476332399 0.0776462093226 0.256 4.99628903689e-39
0.11130370097 0.0782528203329 0.258 5.64236049647e-39
0.110970253303 0.0773429038174 0.255 6.19516293156e-39
0.111492089483 0.0770395983123 0.254 5.64127028626e-39
0.113334529135 0.0776462093226 0.256 3.70337400229e-39
0.11429907832 0.0776462093226 0.256 3.60867565337e-39
0.115713876049 0.0779495148278 0.257 3.60760786394e-39
0.118952274579 0.0794660423536 0.262 6.64494750874e-39
0.117192725872 0.0776462093226 0.256 1.13469106188e-38
0.117234171345 0.0770395983123 0.254 1.23596065982e-38
0.119587143866 0.0779495148278 0.257 1.24499959543e-38
0.121493635613 0.0785561258381 0.259 1.28177022766e-38
0.124360908774 0.0797693478588 0.263 1.27255066467e-38
0.123921963539 0.0788594313433 0.26 1.27258625765e-38
0.125862365218 0.0794660423536 0.262 1.2542547514e-38
0.126849521024 0.0794660423536 0.262 1.27255066467e-38
0.126860824335 0.0788594313433 0.26 1.27255066467e-38
0.126857056565 0.0782528203329 0.258 1.27255066467e-38
0.129315526653 0.0791627368484 0.261 1.27255066467e-38
0.132295832921 0.0803759588691 0.265 1.26333110168e-38
0.132288297381 0.0797693478588 0.263 1.26333110168e-38
0.132772455858 0.0794660423536 0.262 1.26333110168e-38
0.133759611663 0.0794660423536 0.262 1.26333110168e-38
0.13423246683 0.0791627368484 0.261 1.27255066467e-38
0.136770060094 0.0800726533639 0.264 1.26333110168e-38
0.135677406721 0.0788594313433 0.26 1.26333110168e-38
0.137708234886 0.0794660423536 0.262 1.26333110168e-38
0.139224762412 0.0797693478588 0.263 1.2541115387e-38
0.140215685988 0.0797693478588 0.263 1.26333110168e-38
0.143354238606 0.0809825698794 0.267 1.26333110168e-38
0.144360233263 0.0809825698794 0.267 1.2541115387e-38
0.144277342318 0.0803759588691 0.265 1.26336669466e-38
0.144179380291 0.0797693478588 0.263 1.25414713168e-38
0.147378217234 0.0809825698794 0.267 1.24492756869e-38
0.148384211891 0.0809825698794 0.267 1.24492756869e-38
0.14994972043 0.0812858753846 0.268 1.25414713168e-38
0.152086046162 0.0818924863949 0.27 1.25414713168e-38
0.15310334413 0.0818924863949 0.27 1.25414713168e-38
0.155137940065 0.0818924863949 0.27 1.25403965208e-38
0.154420179832 0.0809825698794 0.267 1.25403965208e-38
0.156590415496 0.0815891808898 0.269 1.25403979221e-38
0.15701805742 0.0812858753846 0.268 1.25403979221e-38
0.15979678798 0.0821957919001 0.271 1.23560066624e-38
0.162598125161 0.0831057084156 0.274 1.23560066624e-38
0.163033302625 0.0828024029104 0.273 1.2448200891e-38
-0.112369979951 0.0786107585067 0.256 1.20743933152e-38
-0.107053656128 0.0755400257526 0.246 1.18899992529e-38
-0.104832555565 0.0746188059263 0.243 1.17056079932e-38
-0.10092349393 0.0724692929984 0.236 1.14290211036e-38
-0.0970671810789 0.0703197800705 0.229 1.1152434214e-38
-0.0911630850963 0.0666349007655 0.217 1.09673296934e-38
-0.0903454789519 0.0666349007655 0.217 1.06900239377e-38
-0.0882901602803 0.0657136809392 0.214 1.04134370481e-38
-0.0862574482301 0.064792461113 0.211 1.01368515598e-38
-0.0850574134054 0.0644853878375 0.21 9.5836777806e-39
-0.0842661816527 0.0644853878375 0.21 9.03050400142e-39
-0.0830774501387 0.0641783145621 0.209 8.66064528475e-39
-0.0830774501387 0.064792461113 0.211 8.10747150557e-39
-0.0822824506158 0.064792461113 0.211 7.09261192135e-39
-0.0807150581916 0.0641783145621 0.209 6.17173742513e-39
-0.0791627368484 0.0635641680113 0.207 5.433096189e-39
-0.0783828084066 0.0635641680113 0.207 4.60261665412e-39
-0.0783526662446 0.0641783145621 0.209 4.59937685207e-39
-0.0779363276319 0.0644853878375 0.21 4.59577411372e-39
-0.0778798110781 0.0650995343884 0.212 5.05350965839e-39
-0.0759902742975 0.0641783145621 0.209 7.07964991055e-39
-0.0748429882562 0.0638712412867 0.208 1.04800687901e-38
-0.0744153463328 0.0641783145621 0.209 1.25069307109e-38
-0.0743324553873 0.064792461113 0.211 1.53621127657e-38
-0.0738859746126 0.0650995343884 0.212 1.76619588379e-38
-0.0737767092753 0.0657136809392 0.214 1.99618063113e-38
-0.071606473611 0.0644853878375 0.21 2.10623931316e-38
-0.0711524572958 0.064792461113 0.211 2.21647792192e-38
-0.0700240101058 0.0644853878375 0.21 2.25314009365e-38
-0.070221818044 0.0654066076638 0.213 2.225768811e-38
-0.0684415466006 0.0644853878375 0.21 2.2164050544e-38
-0.067650314848 0.0644853878375 0.21 2.29916518119e-38
-0.0668590830954 0.0644853878375 0.21 2.3451553764e-38
-0.065124024895 0.0635641680113 0.207 2.34515565666e-38
-0.0652766195902 0.0644853878375 0.21 2.34501202356e-38
-0.064792461113 0.064792461113 0.211 2.34512048407e-38
-0.0627842395694 0.0635641680113 0.207 2.34522866431e-38
-0.0626033865974 0.0641783145621 0.209 2.3454084509e-38
-0.0615201526504 0.0638712412867 0.208 2.34548047764e-38
-0.0610284586327 0.0641783145621 0.209 2.34548033751e-38
-0.059664525802 0.0635641680113 0.207 2.34540817064e-38
-0.059453530668 0.0641783145621 0.209 2.34522796366e-38
-0.0578239700346 0.0632570947359 0.206 2.34511992355e-38
-0.0573247404764 0.0635641680113 0.207 2.34511978342e-38
-0.0573643020641 0.0644853878375 0.21 2.34537187701e-38
-0.0565730703115 0.0644853878375 0.21 2.34544362349e-38
-0.0555162107562 0.0641783145621 0.209 2.34547963686e-38
-0.0547287467738 0.0641783145621 0.209 2.34547991712e-38
-0.0544574673158 0.064792461113 0.211 2.34551607062e-38
-0.0539167922849 0.0650995343884 0.212 2.34555208399e-38
-0.0533685817134 0.0654066076638 0.213 2.34555222412e-38
-0.0520724687472 0.064792461113 0.211 2.34558865788e-38
-0.0515204904055 0.0650995343884 0.212 2.34569669799e-38
-0.0507217231124 0.0650995343884 0.212 2.34555278464e-38
-0.0499229558193 0.0650995343884 0.212 2.34551677127e-38
-0.0479655991742 0.0635641680113 0.207 2.34551663114e-38
-0.0476415709326 0.0641783145621 0.209 2.34555250438e-38
-0.0473024716101 0.064792461113 0.211 2.34566040436e-38
-0.0465074720872 0.064792461113 0.211 2.34587620433e-38
-0.0450625321961 0.0638712412867 0.208 2.34591207757e-38
-0.0449174730415 0.064792461113 0.211 2.34591179731e-38
-0.0443315847675 0.0650995343884 0.212 2.34580417759e-38
-0.0441488479104 0.0660207542146 0.215 2.34594809094e-38
-0.0435403530149 0.06632782749 0.216 2.3459122177e-38
-0.0423308987645 0.0657136809392 0.214 2.34634255646e-38
-0.041330555763 0.0654066076638 0.213 2.34684632325e-38
-0.0399572035067 0.0644853878375 0.21 2.34641528385e-38
-0.0393524763815 0.064792461113 0.211 2.3467024099e-38
-0.0389229505729 0.0654066076638 0.213 2.34684632325e-38
-0.0381204155096 0.0654066076638 0.213 2.34666695705e-38
